# .PCD v0.7 - Point Cloud Data file format
VERSION 0.7
FIELDS x y z
SIZE 4 4 4
TYPE F F F
COUNT 1 1 1
WIDTH 1268
HEIGHT 1
VIEWPOINT 0 0 0 1 0 0 0
POINTS 1268
DATA ascii
-0.035217568 -0.019563079 0.024148289
-0.035046641 -0.019861951 0.027049534
-0.032316327 -0.022634942 0.027049534
-0.03728234 -0.01696071 0.027049534
-0.035217568 -0.019656099 0.027049534
-0.035034649 -0.019861951 0.029950775
-0.032316327 -0.022711925 0.029950775
-0.037210304 -0.01696071 0.029950775
-0.035217568 -0.019625597 0.029950775
-0.035011627 -0.019861951 0.03285202
-0.032316327 -0.022714421 0.03285202
-0.037300054 -0.01696071 0.03285202
-0.035217568 -0.019600473 0.03285202
-0.023612596 -0.026313651 0.012543317
-0.020711355 -0.025943067 0.012543317
-0.020711355 -0.025664438 0.0099332388
-0.023612596 -0.026328813 0.01544456
-0.020711355 -0.025992237 0.01544456
-0.019570857 -0.025664438 0.012543317
-0.017810106 -0.025055241 0.012543317
-0.014908865 -0.02347099 0.012543317
-0.019312553 -0.025664438 0.01544456
-0.017810106 -0.025162201 0.01544456
-0.014908865 -0.023626015 0.01544456
-0.023612596 -0.026169371 0.018345803
-0.020711355 -0.025924943 0.018345803
-0.023612596 -0.026119541 0.021247048
-0.020711355 -0.02591503 0.021247048
-0.01946114 -0.025664438 0.018345803
-0.017810106 -0.025138151 0.018345803
-0.014908865 -0.023654468 0.018345803
-0.019524664 -0.025664438 0.021247048
-0.017810106 -0.025114082 0.021247048
-0.014908865 -0.023647618 0.021247048
-0.01380372 -0.022763196 0.012543317
-0.013562553 -0.022763196 0.01544456
-0.013512388 -0.022763196 0.018345803
-0.013545029 -0.022763196 0.021247048
-0.012007624 -0.021481097 0.012543317
-0.010035709 -0.019861951 0.012543317
-0.0091063827 -0.019072488 0.012543317
-0.012007624 -0.021648508 0.01544456
-0.0098409131 -0.019861951 0.01544456
-0.0091063827 -0.019235358 0.01544456
-0.0066063926 -0.01696071 0.012543317
-0.0064409897 -0.01696071 0.01544456
-0.0062051341 -0.016644791 0.012543317
-0.0062051341 -0.016771965 0.01544456
-0.012007624 -0.021631274 0.018345803
-0.0099132583 -0.019861951 0.018345803
-0.0091063827 -0.019188341 0.018345803
-0.012007624 -0.021531723 0.021247048
-0.010119103 -0.019861951 0.021247048
-0.0091063827 -0.018990103 0.021247048
-0.0064251199 -0.01696071 0.018345803
-0.0066906139 -0.01696071 0.021247048
-0.0062051341 -0.016788356 0.018345803
-0.0062051341 -0.016581416 0.021247048
-0.023612596 -0.026240777 0.024148289
-0.020711355 -0.026016802 0.024148289
-0.023612596 -0.026353713 0.027049534
-0.020711355 -0.026154719 0.027049534
-0.019161791 -0.025664438 0.024148289
-0.017810106 -0.025224339 0.024148289
-0.014908865 -0.02372637 0.024148289
-0.018599011 -0.025664438 0.027049534
-0.017810106 -0.025396399 0.027049534
-0.014908865 -0.023833394 0.027049534
-0.023612596 -0.026460521 0.029950775
-0.020711355 -0.026333876 0.029950775
-0.023612596 -0.026620738 0.03285202
-0.020711355 -0.026504103 0.03285202
-0.018132895 -0.025664438 0.029950775
-0.017810106 -0.025535848 0.029950775
-0.014908865 -0.023867141 0.029950775
-0.017924331 -0.025664438 0.03285202
-0.017810106 -0.025614105 0.03285202
-0.014908865 -0.023954447 0.03285202
-0.013495289 -0.022763196 0.024148289
-0.013440743 -0.022763196 0.027049534
-0.013430767 -0.022763196 0.029950775
-0.013203718 -0.022763196 0.03285202
-0.012007624 -0.021540761 0.024148289
-0.010175623 -0.019861951 0.024148289
-0.0091063827 -0.018865574 0.024148289
-0.012007624 -0.021545142 0.027049534
-0.010179415 -0.019861951 0.027049534
-0.0091063827 -0.018862545 0.027049534
-0.0069790706 -0.01696071 0.024148289
-0.0070207417 -0.01696071 0.027049534
-0.0062051341 -0.016333342 0.024148289
-0.0062051341 -0.01627741 0.027049534
-0.012007624 -0.021554988 0.029950775
-0.010099828 -0.019861951 0.029950775
-0.0091063827 -0.01900157 0.029950775
-0.012007624 -0.0218287 0.03285202
-0.009702377 -0.019861951 0.03285202
-0.0091063827 -0.019355804 0.03285202
-0.0067299679 -0.01696071 0.029950775
-0.0062619597 -0.01696071 0.03285202
-0.0062051341 -0.016536511 0.029950775
-0.0062051341 -0.016915441 0.03285202
-0.044378292 -0.0053557381 0.012543317
-0.043921299 -0.0064727589 0.012543317
-0.044623345 -0.0053557381 0.01544456
-0.043921299 -0.0068171024 0.01544456
-0.043002613 -0.0082569793 0.012543317
-0.043073449 -0.0082569793 0.01544456
-0.045214187 -0.0024544895 0.012543317
-0.045430195 0.00044675171 0.012543317
-0.045496766 -0.0024544895 0.01544456
-0.045615789 0.00044675171 0.01544456
-0.044775989 -0.0053557381 0.018345803
-0.043921299 -0.006988667 0.018345803
-0.044841964 -0.0053557381 0.021247048
-0.043921299 -0.0072347224 0.021247048
-0.043118928 -0.0082569793 0.018345803
-0.043319516 -0.0082569793 0.021247048
-0.045687445 -0.0024544895 0.018345803
-0.04575428 0.00044675171 0.018345803
-0.045738637 -0.0024544895 0.021247048
-0.045803238 0.00044675171 0.021247048
-0.045065597 0.0033479929 0.012543317
-0.043921299 0.0061433762 0.012543317
-0.045212872 0.0033479929 0.01544456
-0.04393978 0.0062492341 0.01544456
-0.043921299 0.0062492341 0.014204662
-0.043858193 0.0062492341 0.012543317
-0.043921299 0.0062774345 0.01544456
-0.041499421 0.0091504827 0.012543317
-0.041020054 0.0096453875 0.012543317
-0.041463818 0.0091504827 0.01544456
-0.041020054 0.0095964298 0.01544456
-0.045268171 0.0033479929 0.018345803
-0.043921299 0.0062162355 0.018345803
-0.043921299 0.0062492341 0.017522104
-0.045172773 0.0033479929 0.021247048
-0.043921299 0.0059592873 0.021247048
-0.043898456 0.0062492341 0.018345803
-0.043727234 0.0062492341 0.021247048
-0.041243549 0.0091504827 0.018345803
-0.041020054 0.0093546063 0.018345803
-0.038118813 0.011785366 0.018345803
-0.041020054 0.0091358647 0.021247048
-0.041020054 0.0091504827 0.020918716
-0.041002829 0.0091504827 0.021247048
-0.038118813 0.011401758 0.021247048
-0.044815335 -0.0053557381 0.024148289
-0.043921299 -0.0073158443 0.024148289
-0.04475341 -0.0053557381 0.027049534
-0.043921299 -0.0071989298 0.027049534
-0.04341444 -0.0082569793 0.024148289
-0.043367323 -0.0082569793 0.027049534
-0.045706358 -0.0024544895 0.024148289
-0.045779593 0.00044675171 0.024148289
-0.045629773 -0.0024544895 0.027049534
-0.045710813 0.00044675171 0.027049534
-0.044747788 -0.0053557381 0.029950775
-0.043921299 -0.0072113425 0.029950775
-0.044799302 -0.0053557381 0.03285202
-0.043921299 -0.0073577836 0.03285202
-0.043383211 -0.0082569793 0.029950775
-0.043459751 -0.0082569793 0.03285202
-0.045575645 -0.0024544895 0.029950775
-0.045679796 0.00044675171 0.029950775
-0.045598824 -0.0024544895 0.03285202
-0.045691282 0.00044675171 0.03285202
-0.045023654 0.0033479929 0.024148289
-0.043921299 0.0056492463 0.024148289
-0.044978663 0.0033479929 0.027049534
-0.043921299 0.0055912137 0.027049534
-0.043545231 0.0062492341 0.024148289
-0.043508369 0.0062492341 0.027049534
-0.041020054 0.0090345517 0.024148289
-0.040886231 0.0091504827 0.024148289
-0.038118813 0.011300184 0.024148289
-0.041020054 0.0089587495 0.027049534
-0.040795371 0.0091504827 0.027049534
-0.038118813 0.011270262 0.027049534
-0.045068447 0.0033479929 0.029950775
-0.043921299 0.0058601946 0.029950775
-0.045102388 0.0033479929 0.03285202
-0.043921299 0.0059516877 0.03285202
-0.043676723 0.0062492341 0.029950775
-0.043732993 0.0062492341 0.03285202
-0.041020054 0.0090963468 0.029950775
-0.040954504 0.0091504827 0.029950775
-0.038118813 0.011329837 0.029950775
-0.041036308 0.0091504827 0.03285202
-0.041020054 0.0091504827 0.030458096
-0.041020054 0.009164162 0.03285202
-0.038118813 0.01137048 0.03285202
-0.027495988 -0.025664438 0.035753265
-0.026513837 -0.026040584 0.035753265
-0.032178968 -0.022763196 0.035753265
-0.029415086 -0.024711482 0.035753265
-0.027799375 -0.025664438 0.038654506
-0.026513837 -0.026138891 0.038654506
-0.032126322 -0.022763196 0.038654506
-0.029415086 -0.024839394 0.038654506
-0.032401927 -0.022763196 0.044456992
-0.032316327 -0.022850014 0.044456992
-0.032316327 -0.022763196 0.043756068
-0.028201826 -0.025664438 0.041555751
-0.026513837 -0.026277646 0.041555751
-0.032162033 -0.022763196 0.041555751
-0.029415086 -0.025026321 0.041555751
-0.028411582 -0.025664438 0.044456992
-0.026513837 -0.026348755 0.044456992
-0.029415086 -0.025151826 0.044456992
-0.039858498 -0.014059469 0.035753265
-0.038118813 -0.016369238 0.035753265
-0.041689262 -0.01115822 0.035753265
-0.041020054 -0.012265325 0.035753265
-0.03993877 -0.014059469 0.038654506
-0.038118813 -0.01657135 0.038654506
-0.041653141 -0.01115822 0.038654506
-0.041020054 -0.0122495 0.038654506
-0.03982215 -0.014059469 0.041555751
-0.038118813 -0.016378783 0.041555751
-0.041730952 -0.01115822 0.041555751
-0.041020054 -0.012252323 0.041555751
-0.039644569 -0.014059469 0.044456992
-0.038118813 -0.01613158 0.044456992
-0.041744214 -0.01115822 0.044456992
-0.041020054 -0.012168787 0.044456992
-0.035030652 -0.019861951 0.035753265
-0.032316327 -0.022642847 0.035753265
-0.037625361 -0.01696071 0.035753265
-0.035217568 -0.019655086 0.035753265
-0.035008043 -0.019861951 0.038654506
-0.032316327 -0.022582412 0.038654506
-0.037789751 -0.01696071 0.038654506
-0.035217568 -0.019650683 0.038654506
-0.034939088 -0.019861951 0.041555751
-0.032316327 -0.022602923 0.041555751
-0.037648361 -0.01696071 0.041555751
-0.035217568 -0.019577533 0.041555751
-0.035064127 -0.019861951 0.044456992
-0.037497677 -0.01696071 0.044456992
-0.035217568 -0.019686833 0.044456992
-0.032772735 -0.022763196 0.047358237
-0.032316327 -0.023196653 0.047358237
-0.032841288 -0.022763196 0.050259478
-0.032316327 -0.02326623 0.050259478
-0.028629169 -0.025664438 0.047358237
-0.026513837 -0.026379663 0.047358237
-0.029415086 -0.025289565 0.047358237
-0.028785415 -0.025664438 0.050259478
-0.026513837 -0.026395727 0.050259478
-0.029415086 -0.025367495 0.050259478
-0.032771528 -0.022763196 0.05316072
-0.032316327 -0.023181662 0.05316072
-0.032989338 -0.022763196 0.056061968
-0.032316327 -0.023305174 0.056061968
-0.028591231 -0.025664438 0.05316072
-0.026513837 -0.026348125 0.05316072
-0.029415086 -0.025273439 0.05316072
-0.028494902 -0.025664438 0.056061968
-0.026513837 -0.026343782 0.056061968
-0.029415086 -0.025225248 0.056061968
-0.039525148 -0.014059469 0.047358237
-0.038118813 -0.016063541 0.047358237
-0.041580558 -0.01115822 0.047358237
-0.041020054 -0.011943869 0.047358237
-0.03960092 -0.014059469 0.050259478
-0.038118813 -0.016145609 0.050259478
-0.041657221 -0.01115822 0.050259478
-0.041020054 -0.012064762 0.050259478
-0.039839916 -0.014059469 0.05316072
-0.038118813 -0.01637926 0.05316072
-0.041980397 -0.01115822 0.05316072
-0.041020054 -0.012494817 0.05316072
-0.040071033 -0.014059469 0.056061968
-0.038118813 -0.016747139 0.056061968
-0.042203698 -0.01115822 0.056061968
-0.041020054 -0.012783632 0.056061968
-0.035299372 -0.019861951 0.047358237
-0.035217568 -0.01996883 0.047358237
-0.035217568 -0.019861951 0.046188902
-0.0374819 -0.01696071 0.047358237
-0.035373375 -0.019861951 0.050259478
-0.035217568 -0.020063192 0.050259478
-0.037545577 -0.01696071 0.050259478
-0.035475433 -0.019861951 0.05316072
-0.035217568 -0.020167023 0.05316072
-0.037714195 -0.01696071 0.05316072
-0.035785887 -0.019861951 0.056061968
-0.035217568 -0.020537503 0.056061968
-0.037973009 -0.01696071 0.056061968
-0.023612596 -0.026701268 0.035753265
-0.020711355 -0.02655172 0.035753265
-0.023612596 -0.026720803 0.038654506
-0.020711355 -0.026566301 0.038654506
-0.017810106 -0.025665086 0.035753265
-0.017810106 -0.025664438 0.035725065
-0.017808549 -0.025664438 0.035753265
-0.014908865 -0.024139483 0.035753265
-0.017810106 -0.025755879 0.038654506
-0.017575994 -0.025664438 0.038654506
-0.014908865 -0.024253942 0.038654506
-0.023612596 -0.026796512 0.041555751
-0.020711355 -0.026637796 0.041555751
-0.023612596 -0.026843473 0.044456992
-0.020711355 -0.026673749 0.044456992
-0.017810106 -0.02583234 0.041555751
-0.017395228 -0.025664438 0.041555751
-0.014908865 -0.024256691 0.041555751
-0.017810106 -0.025859002 0.044456992
-0.017337687 -0.025664438 0.044456992
-0.014908865 -0.024319272 0.044456992
-0.012833007 -0.022763196 0.035753265
-0.012790322 -0.022763196 0.038654506
-0.012902848 -0.022763196 0.041555751
-0.012751818 -0.022763196 0.044456992
-0.012007624 -0.0221451 0.035753265
-0.0093222186 -0.019861951 0.035753265
-0.0091063827 -0.019675262 0.035753265
-0.012007624 -0.022148818 0.038654506
-0.0093044713 -0.019861951 0.038654506
-0.0091063827 -0.019696444 0.038654506
-0.0062051341 -0.017154664 0.035753265
-0.0062051341 -0.01696071 0.033251651
-0.0059717894 -0.01696071 0.035753265
-0.0062051341 -0.017250985 0.038654506
-0.0058420151 -0.01696071 0.038654506
-0.012007624 -0.02203789 0.041555751
-0.0093940273 -0.019861951 0.041555751
-0.0091063827 -0.019631144 0.041555751
-0.012007624 -0.022163603 0.044456992
-0.0093190968 -0.019861951 0.044456992
-0.0091063827 -0.019684792 0.044456992
-0.0062051341 -0.017305396 0.041555751
-0.0057399124 -0.01696071 0.041555751
-0.0062051341 -0.017327346 0.044456992
-0.0057114065 -0.01696071 0.044456992
-0.023612596 -0.026820354 0.047358237
-0.020711355 -0.026655532 0.047358237
-0.023612596 -0.026784584 0.050259478
-0.020711355 -0.026616607 0.050259478
-0.017810106 -0.025857862 0.047358237
-0.017334431 -0.025664438 0.047358237
-0.014908865 -0.024384975 0.047358237
-0.017810106 -0.025828008 0.050259478
-0.017400123 -0.025664438 0.050259478
-0.014908865 -0.024360161 0.050259478
-0.023612596 -0.026768785 0.05316072
-0.020711355 -0.02659459 0.05316072
-0.023612596 -0.026802268 0.056061968
-0.020711355 -0.026638661 0.056061968
-0.017810106 -0.025821518 0.05316072
-0.017402627 -0.025664438 0.05316072
-0.014908865 -0.02437238 0.05316072
-0.017810106 -0.025882356 0.056061968
-0.017239094 -0.025664438 0.056061968
-0.014908865 -0.024468727 0.056061968
-0.012583926 -0.022763196 0.047358237
-0.012643389 -0.022763196 0.050259478
-0.012620576 -0.022763196 0.05316072
-0.012451969 -0.022763196 0.056061968
-0.012007624 -0.022298411 0.047358237
-0.009253718 -0.019861951 0.047358237
-0.0091063827 -0.019734107 0.047358237
-0.012007624 -0.022244137 0.050259478
-0.0092633665 -0.019861951 0.050259478
-0.0091063827 -0.019731395 0.050259478
-0.0062051341 -0.017308861 0.047358237
-0.0057512522 -0.01696071 0.047358237
-0.0062051341 -0.017318614 0.050259478
-0.0057562739 -0.01696071 0.050259478
-0.012007624 -0.022270862 0.05316072
-0.0091433302 -0.019861951 0.05316072
-0.0091063827 -0.019832402 0.05316072
-0.012007624 -0.022416431 0.056061968
-0.0091063827 -0.01999414 0.056061968
-0.0091063827 -0.019861951 0.053622484
-0.0062051341 -0.01741901 0.05316072
-0.0056550875 -0.01696071 0.05316072
-0.0089460388 -0.019861951 0.056061968
-0.0062051341 -0.017502271 0.056061968
-0.0055689365 -0.01696071 0.056061968
-0.044856988 -0.0053557381 0.035753265
-0.043921299 -0.007401146 0.035753265
-0.044958711 -0.0053557381 0.038654506
-0.043921299 -0.0074866936 0.038654506
-0.043462031 -0.0082569793 0.035753265
-0.043478619 -0.0082569793 0.038654506
-0.045665536 -0.0024544895 0.035753265
-0.045651127 0.00044675171 0.035753265
-0.04577652 -0.0024544895 0.038654506
-0.045735568 0.00044675171 0.038654506
-0.045085602 -0.0053557381 0.041555751
-0.043921299 -0.0077966228 0.041555751
-0.045153491 -0.0053557381 0.044456992
-0.043921299 -0.0079947188 0.044456992
-0.04365433 -0.0082569793 0.041555751
-0.043766759 -0.0082569793 0.044456992
-0.04585645 -0.0024544895 0.041555751
-0.045908235 0.00044675171 0.041555751
-0.0458747 -0.0024544895 0.044456992
-0.045981053 0.00044675171 0.044456992
-0.044926438 0.0033479929 0.035753265
-0.043921299 0.0054995045 0.035753265
-0.0449179 0.0033479929 0.038654506
-0.043921299 0.0052614585 0.038654506
-0.043418087 0.0062492341 0.035753265
-0.043189205 0.0062492341 0.038654506
-0.041020054 0.0087521523 0.035753265
-0.041020054 0.0091504827 0.033033513
-0.040559504 0.0091504827 0.035753265
-0.038118813 0.011174127 0.035753265
-0.041020054 0.0084669366 0.038654506
-0.040260967 0.0091504827 0.038654506
-0.038118813 0.01103279 0.038654506
-0.045173399 0.0033479929 0.041555751
-0.043921299 0.0055412054 0.041555751
-0.045374952 0.0033479929 0.044456992
-0.043921299 0.0059183389 0.044456992
-0.043354452 0.0062492341 0.041555751
-0.043652933 0.0062492341 0.044456992
-0.041020054 0.0086617991 0.041555751
-0.040504027 0.0091504827 0.041555751
-0.038118813 0.011224687 0.041555751
-0.041020054 0.008942619 0.044456992
-0.040795755 0.0091504827 0.044456992
-0.038118813 0.011391677 0.044456992
-0.04516216 -0.0053557381 0.047358237
-0.043921299 -0.0078788698 0.047358237
-0.045144606 -0.0053557381 0.050259478
-0.043921299 -0.007867083 0.050259478
-0.043685108 -0.0082569793 0.047358237
-0.043687694 -0.0082569793 0.050259478
-0.045922045 -0.0024544895 0.047358237
-0.046037551 0.00044675171 0.047358237
-0.045944657 -0.0024544895 0.050259478
-0.046095748 0.00044675171 0.050259478
-0.045242976 -0.0053557381 0.05316072
-0.043921299 -0.0081603751 0.05316072
-0.04405101 -0.0082569793 0.056061968
-0.043921299 -0.0084973052 0.056061968
-0.043921299 -0.0082569793 0.053905487
-0.045440465 -0.0053557381 0.056061968
-0.043868363 -0.0082569793 0.05316072
-0.046062585 -0.0024544895 0.05316072
-0.046231821 0.00044675171 0.05316072
-0.046270359 -0.0024544895 0.056061968
-0.046379451 0.00044675171 0.056061968
-0.045469485 0.0033479929 0.047358237
-0.043921299 0.0061671808 0.047358237
-0.045547858 0.0033479929 0.050259478
-0.04400479 0.0062492341 0.050259478
-0.043921299 0.0062492341 0.048703097
-0.043856949 0.0062492341 0.047358237
-0.043921299 0.0063620359 0.050259478
-0.041020054 0.00909435 0.047358237
-0.040953141 0.0091504827 0.047358237
-0.038118813 0.011332713 0.047358237
-0.041175839 0.0091504827 0.050259478
-0.041020054 0.0091504827 0.048495896
-0.041020054 0.0092727542 0.050259478
-0.038118813 0.011328965 0.050259478
-0.045677774 0.0033479929 0.05316072
-0.044134527 0.0062492341 0.05316072
-0.045717608 0.0033479929 0.056061968
-0.044120912 0.0062492341 0.056061968
-0.043921299 0.0065416619 0.05316072
-0.043921299 0.0065247789 0.056061968
-0.041385017 0.0091504827 0.05316072
-0.041020054 0.0094295517 0.05316072
-0.038118813 0.011438772 0.05316072
-0.041435592 0.0091504827 0.056061968
-0.041020054 0.0094841197 0.056061968
-0.038118813 0.011567451 0.056061968
-0.033318162 -0.022763196 0.058963209
-0.032316327 -0.023529872 0.058963209
-0.033186905 -0.022763196 0.061864451
-0.032316327 -0.023459248 0.061864451
-0.0287956 -0.025664438 0.058963209
-0.026513837 -0.02645836 0.058963209
-0.029415086 -0.025360871 0.058963209
-0.028866753 -0.025664438 0.061864451
-0.026513837 -0.02650813 0.061864451
-0.029415086 -0.025384601 0.061864451
-0.032833822 -0.022763196 0.064765699
-0.032316327 -0.023206234 0.064765699
-0.03292951 -0.022763196 0.06766694
-0.032316327 -0.023288254 0.06766694
-0.028681569 -0.025664438 0.064765699
-0.026513837 -0.026454426 0.064765699
-0.029415086 -0.025283042 0.064765699
-0.028669253 -0.025664438 0.06766694
-0.026513837 -0.026429001 0.06766694
-0.029415086 -0.02529832 0.06766694
-0.040135391 -0.014059469 0.058963209
-0.038118813 -0.016902372 0.058963209
-0.042256359 -0.01115822 0.058963209
-0.041020054 -0.012836777 0.058963209
-0.040163834 -0.014059469 0.061864451
-0.038118813 -0.016921103 0.061864451
-0.042249423 -0.01115822 0.061864451
-0.041020054 -0.012860738 0.061864451
-0.038176794 -0.01696071 0.064765699
-0.038118813 -0.017042533 0.064765699
-0.038118813 -0.01696071 0.062827885
-0.038196988 -0.01696071 0.06766694
-0.038118813 -0.017079853 0.06766694
-0.040217284 -0.014059469 0.064765699
-0.042190984 -0.01115822 0.064765699
-0.041020054 -0.012881413 0.064765699
-0.040107369 -0.014059469 0.06766694
-0.042001013 -0.01115822 0.06766694
-0.041020054 -0.012661926 0.06766694
-0.035989478 -0.019861951 0.058963209
-0.035217568 -0.020844739 0.058963209
-0.038079303 -0.01696071 0.058963209
-0.035920557 -0.019861951 0.061864451
-0.035217568 -0.020721465 0.061864451
-0.03809135 -0.01696071 0.061864451
-0.035784848 -0.019861951 0.064765699
-0.035217568 -0.020464621 0.064765699
-0.035890386 -0.019861951 0.06766694
-0.035217568 -0.02056722 0.06766694
-0.033235826 -0.022763196 0.070568182
-0.032316327 -0.023500748 0.070568182
-0.033436418 -0.022763196 0.073469423
-0.032316327 -0.023631562 0.073469423
-0.028813906 -0.025664438 0.070568182
-0.026513837 -0.026474394 0.070568182
-0.029415086 -0.025380466 0.070568182
-0.029015377 -0.025664438 0.073469423
-0.026513837 -0.02658882 0.073469423
-0.029415086 -0.025471877 0.073469423
-0.033603072 -0.022763196 0.076370671
-0.032316327 -0.02379977 0.076370671
-0.029258072 -0.025664438 0.076370671
-0.026513837 -0.026709534 0.076370671
-0.029415086 -0.025590133 0.076370671
-0.038225412 -0.01696071 0.070568182
-0.038118813 -0.01714889 0.070568182
-0.038322285 -0.01696071 0.073469423
-0.038118813 -0.017323948 0.073469423
-0.039985158 -0.014059469 0.070568182
-0.041839324 -0.01115822 0.070568182
-0.041020054 -0.012442939 0.070568182
-0.040106382 -0.014059469 0.073469423
-0.04192847 -0.01115822 0.073469423
-0.041020054 -0.012627102 0.073469423
-0.038331673 -0.01696071 0.076370671
-0.038118813 -0.017304599 0.076370671
-0.040290643 -0.014059469 0.076370671
-0.042189229 -0.01115822 0.076370671
-0.041020054 -0.012978807 0.076370671
-0.036197755 -0.019861951 0.070568182
-0.035217568 -0.020928565 0.070568182
-0.036395166 -0.019861951 0.073469423
-0.035217568 -0.021163199 0.073469423
-0.036348946 -0.019861951 0.076370671
-0.035217568 -0.021200124 0.076370671
-0.023612596 -0.026868757 0.058963209
-0.020711355 -0.026671626 0.058963209
-0.023612596 -0.02690785 0.061864451
-0.020711355 -0.026663192 0.061864451
-0.017810106 -0.02590305 0.058963209
-0.017180242 -0.025664438 0.058963209
-0.014908865 -0.024502907 0.058963209
-0.017810106 -0.025824014 0.061864451
-0.017405748 -0.025664438 0.061864451
-0.014908865 -0.024354417 0.061864451
-0.023612596 -0.026891138 0.064765699
-0.020711355 -0.026646622 0.064765699
-0.023612596 -0.02688387 0.06766694
-0.020711355 -0.02666707 0.06766694
-0.017810106 -0.025763951 0.064765699
-0.017571151 -0.025664438 0.064765699
-0.014908865 -0.02421084 0.064765699
-0.017810106 -0.025807701 0.06766694
-0.017464392 -0.025664438 0.06766694
-0.014908865 -0.024273366 0.06766694
-0.012440465 -0.022763196 0.058963209
-0.012648754 -0.022763196 0.061864451
-0.01281555 -0.022763196 0.064765699
-0.01272691 -0.022763196 0.06766694
-0.012007624 -0.022421915 0.058963209
-0.0091063827 -0.020012185 0.058963209
-0.012007624 -0.022263531 0.061864451
-0.0091063827 -0.019905094 0.061864451
-0.0089247674 -0.019861951 0.058963209
-0.0062051341 -0.017518088 0.058963209
-0.0055300295 -0.01696071 0.058963209
-0.0090523958 -0.019861951 0.061864451
-0.0062051341 -0.017510109 0.061864451
-0.0055118129 -0.01696071 0.061864451
-0.012007624 -0.022159509 0.064765699
-0.009135291 -0.019861951 0.064765699
-0.0091063827 -0.019861951 0.063210309
-0.0091063827 -0.019838892 0.064765699
-0.012007624 -0.022221144 0.06766694
-0.0091186315 -0.019861951 0.06766694
-0.0091063827 -0.01985193 0.06766694
-0.0062051341 -0.017439023 0.064765699
-0.0056086555 -0.01696071 0.064765699
-0.0062051341 -0.017386682 0.06766694
-0.0056889951 -0.01696071 0.06766694
-0.023612596 -0.026950184 0.070568182
-0.020711355 -0.026760746 0.070568182
-0.023612596 -0.02708742 0.073469423
-0.020711355 -0.026903789 0.073469423
-0.017810106 -0.025900919 0.070568182
-0.017252117 -0.025664438 0.070568182
-0.014908865 -0.024370067 0.070568182
-0.017810106 -0.026031442 0.073469423
-0.016993247 -0.025664438 0.073469423
-0.014908865 -0.024418354 0.073469423
-0.023612596 -0.027223516 0.076370671
-0.020711355 -0.027042691 0.076370671
-0.017810106 -0.026212517 0.076370671
-0.016595677 -0.025664438 0.076370671
-0.014908865 -0.024616651 0.076370671
-0.012630671 -0.022763196 0.070568182
-0.012657292 -0.022763196 0.073469423
-0.012477756 -0.022763196 0.076370671
-0.012007624 -0.022276387 0.070568182
-0.0091293752 -0.019861951 0.070568182
-0.0091063827 -0.019842882 0.070568182
-0.012007624 -0.022248764 0.073469423
-0.0091657043 -0.019861951 0.073469423
-0.0091063827 -0.019812841 0.073469423
-0.0062051341 -0.017378531 0.070568182
-0.00569617 -0.01696071 0.070568182
-0.0062051341 -0.017384797 0.073469423
-0.0056777075 -0.01696071 0.073469423
-0.012007624 -0.022385675 0.076370671
-0.0091063827 -0.01993135 0.076370671
-0.0091063827 -0.019861951 0.07531105
-0.0090231225 -0.019861951 0.076370671
-0.0062051341 -0.017498598 0.076370671
-0.0055416375 -0.01696071 0.076370671
-0.044163149 -0.0082569793 0.058963209
-0.043921299 -0.0086907297 0.058963209
-0.045523748 -0.0053557381 0.058963209
-0.044172432 -0.0082569793 0.061864451
-0.043921299 -0.0086989999 0.061864451
-0.045522299 -0.0053557381 0.061864451
-0.046295051 -0.0024544895 0.058963209
-0.046367429 0.00044675171 0.058963209
-0.046262931 -0.0024544895 0.061864451
-0.046341006 0.00044675171 0.061864451
-0.044073269 -0.0082569793 0.064765699
-0.043921299 -0.0085219666 0.064765699
-0.045525923 -0.0053557381 0.064765699
-0.043921299 -0.0082569793 0.067250475
-0.045472689 -0.0053557381 0.06766694
-0.043921299 -0.0082059205 0.06766694
-0.043890849 -0.0082569793 0.06766694
-0.046339821 -0.0024544895 0.064765699
-0.046390999 0.00044675171 0.064765699
-0.046365038 -0.0024544895 0.06766694
-0.046345025 0.00044675171 0.06766694
-0.045638621 0.0033479929 0.058963209
-0.044075355 0.0062492341 0.058963209
-0.045621339 0.0033479929 0.061864451
-0.044074506 0.0062492341 0.061864451
-0.043921299 0.0064766333 0.058963209
-0.043921299 0.0064811707 0.061864451
-0.041558843 0.0091504827 0.058963209
-0.041020054 0.0096101239 0.058963209
-0.038118813 0.011720896 0.058963209
-0.041681387 0.0091504827 0.061864451
-0.041020054 0.0097430125 0.061864451
-0.038118813 0.011842497 0.061864451
-0.045608863 0.0033479929 0.064765699
-0.043981001 0.0062492341 0.064765699
-0.045441914 0.0033479929 0.06766694
-0.043921299 0.0060704574 0.06766694
-0.043921299 0.0062492341 0.065796033
-0.043802805 0.0062492341 0.06766694
-0.043921299 0.0063371733 0.064765699
-0.041616503 0.0091504827 0.064765699
-0.041020054 0.009718366 0.064765699
-0.038118813 0.011878312 0.064765699
-0.041441809 0.0091504827 0.06766694
-0.041020054 0.0095549747 0.06766694
-0.038118813 0.011741802 0.06766694
-0.04530333 -0.0053557381 0.070568182
-0.043921299 -0.0078791529 0.070568182
-0.045164533 -0.0053557381 0.073469423
-0.043921299 -0.0077950656 0.073469423
-0.043697916 -0.0082569793 0.070568182
-0.043671016 -0.0082569793 0.073469423
-0.046224162 -0.0024544895 0.070568182
-0.046141632 0.00044675171 0.070568182
-0.04606704 -0.0024544895 0.073469423
-0.045982752 0.00044675171 0.073469423
-0.045181379 -0.0053557381 0.076370671
-0.043921299 -0.0081350505 0.076370671
-0.043921299 -0.0082569793 0.077041604
-0.043861009 -0.0082569793 0.076370671
-0.046002079 -0.0024544895 0.076370671
-0.045976348 0.00044675171 0.076370671
-0.045177955 0.0033479929 0.070568182
-0.043921299 0.0057440177 0.070568182
-0.045050681 0.0033479929 0.073469423
-0.043921299 0.0055897981 0.073469423
-0.04360453 0.0062492341 0.070568182
-0.043518651 0.0062492341 0.073469423
-0.041224122 0.0091504827 0.070568182
-0.041020054 0.0093420222 0.070568182
-0.038118813 0.011528336 0.070568182
-0.041139528 0.0091504827 0.073469423
-0.041020054 0.0092614964 0.073469423
-0.038118813 0.011479981 0.073469423
-0.045131572 0.0033479929 0.076370671
-0.043921299 0.0057518482 0.076370671
-0.043613084 0.0062492341 0.076370671
-0.0412254 0.0091504827 0.076370671
-0.041020054 0.0093409494 0.076370671
-0.038118813 0.011553831 0.076370671
-0.032879226 -0.022763196 0.082173154
-0.032316327 -0.023301158 0.082173154
-0.032786705 -0.022763196 0.085074402
-0.032316327 -0.023229238 0.085074402
-0.028964527 -0.025664438 0.082173154
-0.026513837 -0.026631489 0.082173154
-0.029415086 -0.025433894 0.082173154
-0.028984271 -0.025664438 0.085074402
-0.026513837 -0.026676256 0.085074402
-0.029415086 -0.025435705 0.085074402
-0.033116005 -0.022763196 0.087975644
-0.032316327 -0.023527816 0.087975644
-0.033423126 -0.022763196 0.090876885
-0.032316327 -0.023752093 0.090876885
-0.029253639 -0.025664438 0.087975644
-0.026513837 -0.026771303 0.087975644
-0.029415086 -0.025581446 0.087975644
-0.029485658 -0.025664438 0.090876885
-0.029415086 -0.02570172 0.090876885
-0.029415086 -0.025664438 0.08990974
-0.026513837 -0.026881695 0.090876885
-0.038118813 -0.01696071 0.079493359
-0.040140759 -0.014059469 0.082173154
-0.038118813 -0.016705081 0.082173154
-0.04232366 -0.01115822 0.082173154
-0.041020054 -0.012898736 0.082173154
-0.040238809 -0.014059469 0.085074402
-0.038118813 -0.016677596 0.085074402
-0.042326272 -0.01115822 0.085074402
-0.041020054 -0.013006464 0.085074402
-0.038360879 -0.01696071 0.090876885
-0.038118813 -0.017298006 0.090876885
-0.038118813 -0.01696071 0.088948272
-0.040324863 -0.014059469 0.087975644
-0.038118813 -0.016845495 0.087975644
-0.042371631 -0.01115822 0.087975644
-0.041020054 -0.013111368 0.087975644
-0.040431976 -0.014059469 0.090876885
-0.04235521 -0.01115822 0.090876885
-0.041020054 -0.013183847 0.090876885
-0.035553973 -0.019861951 0.082173154
-0.035217568 -0.020251904 0.082173154
-0.037925735 -0.01696071 0.082173154
-0.035378251 -0.019861951 0.085074402
-0.035217568 -0.020053308 0.085074402
-0.037879005 -0.01696071 0.085074402
-0.035634838 -0.019861951 0.087975644
-0.035217568 -0.020379253 0.087975644
-0.03802605 -0.01696071 0.087975644
-0.036077399 -0.019861951 0.090876885
-0.035217568 -0.020864341 0.090876885
-0.033481523 -0.022763196 0.093778126
-0.032316327 -0.023781747 0.093778126
-0.033668038 -0.022763196 0.096679375
-0.032316327 -0.023920145 0.096679375
-0.029628575 -0.025664438 0.093778126
-0.029415086 -0.025784809 0.093778126
-0.026513837 -0.027028866 0.093778126
-0.029806018 -0.025664438 0.096679375
-0.029415086 -0.02588556 0.096679375
-0.026513837 -0.027148936 0.096679375
-0.034149002 -0.022763196 0.099580616
-0.032316327 -0.024326246 0.099580616
-0.034289818 -0.022763196 0.10248186
-0.032316327 -0.024524841 0.10248186
-0.03026326 -0.025664438 0.099580616
-0.029415086 -0.026123218 0.099580616
-0.026513837 -0.027315784 0.099580616
-0.030567594 -0.025664438 0.10248186
-0.029415086 -0.02627461 0.10248186
-0.026513837 -0.027421605 0.10248186
-0.03864209 -0.01696071 0.093778126
-0.038118813 -0.017726451 0.093778126
-0.038722642 -0.01696071 0.096679375
-0.038118813 -0.01786983 0.096679375
-0.040518593 -0.014059469 0.093778126
-0.042279158 -0.01115822 0.093778126
-0.041020054 -0.013225034 0.093778126
-0.040550545 -0.014059469 0.096679375
-0.042304661 -0.01115822 0.096679375
-0.041020054 -0.013266973 0.096679375
-0.038648203 -0.01696071 0.099580616
-0.038118813 -0.017812446 0.099580616
-0.038455784 -0.01696071 0.10248186
-0.038118813 -0.017522782 0.10248186
-0.040507652 -0.014059469 0.099580616
-0.04243632 -0.01115822 0.099580616
-0.041020054 -0.013262115 0.099580616
-0.040400743 -0.014059469 0.10248186
-0.042510476 -0.01115822 0.10248186
-0.041020054 -0.013184488 0.10248186
-0.03637334 -0.019861951 0.093778126
-0.035217568 -0.021077536 0.093778126
-0.036544591 -0.019861951 0.096679375
-0.035217568 -0.021281838 0.096679375
-0.036680516 -0.019861951 0.099580616
-0.035217568 -0.02164574 0.099580616
-0.036590546 -0.019861951 0.10248186
-0.035217568 -0.021700561 0.10248186
-0.023612596 -0.027212635 0.082173154
-0.020711355 -0.02706477 0.082173154
-0.023612596 -0.027266532 0.085074402
-0.020711355 -0.027079444 0.085074402
-0.017810106 -0.026248656 0.082173154
-0.016444422 -0.025664438 0.082173154
-0.014908865 -0.024774656 0.082173154
-0.017810106 -0.026165642 0.085074402
-0.016703315 -0.025664438 0.085074402
-0.014908865 -0.024611212 0.085074402
-0.023612596 -0.027316801 0.087975644
-0.020711355 -0.027109072 0.087975644
-0.023612596 -0.027388468 0.090876885
-0.020711355 -0.027208209 0.090876885
-0.017810106 -0.026156127 0.087975644
-0.016761184 -0.025664438 0.087975644
-0.014908865 -0.02457324 0.087975644
-0.017810106 -0.026273292 0.090876885
-0.016555503 -0.025664438 0.090876885
-0.014908865 -0.024652462 0.090876885
-0.012288533 -0.022763196 0.082173154
-0.012394294 -0.022763196 0.085074402
-0.01239457 -0.022763196 0.087975644
-0.012416542 -0.022763196 0.090876885
-0.012007624 -0.022525445 0.082173154
-0.0091063827 -0.020021174 0.082173154
-0.012007624 -0.022452943 0.085074402
-0.0091063827 -0.020000894 0.085074402
-0.0089131296 -0.019861951 0.082173154
-0.0062051341 -0.017613903 0.082173154
-0.0053816736 -0.01696071 0.082173154
-0.008937344 -0.019861951 0.085074402
-0.0062051341 -0.017638899 0.085074402
-0.0053085536 -0.01696071 0.085074402
-0.012007624 -0.02245716 0.087975644
-0.0091063827 -0.020012785 0.087975644
-0.012007624 -0.022421751 0.090876885
-0.0091063827 -0.019952163 0.090876885
-0.0089217573 -0.019861951 0.087975644
-0.0062051341 -0.017728843 0.087975644
-0.0051124245 -0.01696071 0.087975644
-0.0089936182 -0.019861951 0.090876885
-0.0062051341 -0.01774212 0.090876885
-0.0050298199 -0.01696071 0.090876885
-0.023612596 -0.02754014 0.093778126
-0.020711355 -0.027357757 0.093778126
-0.023612596 -0.027644604 0.096679375
-0.020711355 -0.027377922 0.096679375
-0.017810106 -0.026390113 0.093778126
-0.016402803 -0.025664438 0.093778126
-0.014908865 -0.024681259 0.093778126
-0.017810106 -0.026322667 0.096679375
-0.016565852 -0.025664438 0.096679375
-0.014908865 -0.024554659 0.096679375
-0.023612596 -0.027715787 0.099580616
-0.020711355 -0.027333569 0.099580616
-0.023612596 -0.027814932 0.10248186
-0.020711355 -0.027444351 0.10248186
-0.017810106 -0.026207149 0.099580616
-0.016781323 -0.025664438 0.099580616
-0.014908865 -0.024424035 0.099580616
-0.017810106 -0.026284073 0.10248186
-0.01669161 -0.025664438 0.10248186
-0.014908865 -0.024440039 0.10248186
-0.012509592 -0.022763196 0.093778126
-0.012635306 -0.022763196 0.096679375
-0.012753054 -0.022763196 0.099580616
-0.012780398 -0.022763196 0.10248186
-0.012007624 -0.022331525 0.093778126
-0.0091063827 -0.019886207 0.093778126
-0.012007624 -0.022248313 0.096679375
-0.0091063827 -0.019892704 0.096679375
-0.0090754554 -0.019861951 0.093778126
-0.0062051341 -0.017663561 0.093778126
-0.0051830709 -0.01696071 0.093778126
-0.0090665147 -0.019861951 0.096679375
-0.0062051341 -0.017618865 0.096679375
-0.0053163841 -0.01696071 0.096679375
-0.012007624 -0.022173021 0.099580616
-0.0091063827 -0.019884463 0.099580616
-0.012007624 -0.022141114 0.10248186
-0.0091367066 -0.019861951 0.10248186
-0.0091063827 -0.019861951 0.10075879
-0.0091063827 -0.019839104 0.10248186
-0.0090765581 -0.019861951 0.099580616
-0.0062051341 -0.017626524 0.099580616
-0.0053284615 -0.01696071 0.099580616
-0.0062051341 -0.017593101 0.10248186
-0.00536789 -0.01696071 0.10248186
-0.044145945 -0.0082569793 0.082173154
-0.043921299 -0.0086910278 0.082173154
-0.045398764 -0.0053557381 0.082173154
-0.044090182 -0.0082569793 0.085074402
-0.043921299 -0.0085839778 0.085074402
-0.045390628 -0.0053557381 0.085074402
-0.046054319 -0.0024544895 0.082173154
-0.046007182 0.00044675171 0.082173154
-0.046107598 -0.0024544895 0.085074402
-0.046060957 0.00044675171 0.085074402
-0.044104218 -0.0082569793 0.087975644
-0.043921299 -0.0086123198 0.087975644
-0.045373924 -0.0053557381 0.087975644
-0.044067759 -0.0082569793 0.090876885
-0.043921299 -0.0085432827 0.090876885
-0.045332409 -0.0053557381 0.090876885
-0.046081986 -0.0024544895 0.087975644
-0.046047058 0.00044675171 0.087975644
-0.04603494 -0.0024544895 0.090876885
-0.045990609 0.00044675171 0.090876885
-0.045254778 0.0033479929 0.082173154
-0.043921299 0.0060608089 0.082173154
-0.045268945 0.0033479929 0.085074402
-0.043921299 0.0060798973 0.085074402
-0.043806486 0.0062492341 0.082173154
-0.043820344 0.0062492341 0.085074402
-0.041545715 0.0091504827 0.082173154
-0.041020054 0.0096884817 0.082173154
-0.038118813 0.012029991 0.082173154
-0.041667636 0.0091504827 0.085074402
-0.041020054 0.0098451301 0.085074402
-0.045262977 0.0033479929 0.087975644
-0.043921299 0.0061335117 0.087975644
-0.045205727 0.0033479929 0.090876885
-0.043921299 0.006063126 0.090876885
-0.043854088 0.0062492341 0.087975644
-0.043812718 0.0062492341 0.090876885
-0.041653447 0.0091504827 0.087975644
-0.041020054 0.0097705573 0.087975644
-0.038118813 0.011964329 0.087975644
-0.041417882 0.0091504827 0.090876885
-0.041020054 0.009498179 0.090876885
-0.038118813 0.011695355 0.090876885
-0.043993 -0.0082569793 0.093778126
-0.043921299 -0.0083925128 0.093778126
-0.045337301 -0.0053557381 0.093778126
-0.044068843 -0.0082569793 0.096679375
-0.043921299 -0.0085230619 0.096679375
-0.045480337 -0.0053557381 0.096679375
-0.046086937 -0.0024544895 0.093778126
-0.046029489 0.00044675171 0.093778126
-0.046245907 -0.0024544895 0.096679375
-0.046194695 0.00044675171 0.096679375
-0.044291966 -0.0082569793 0.099580616
-0.043921299 -0.0089050904 0.099580616
-0.045684285 -0.0053557381 0.099580616
-0.044457689 -0.0082569793 0.10248186
-0.043921299 -0.0091527179 0.10248186
-0.045830857 -0.0053557381 0.10248186
-0.046371017 -0.0024544895 0.099580616
-0.046300601 0.00044675171 0.099580616
-0.046402447 -0.0024544895 0.10248186
-0.046268038 0.00044675171 0.10248186
-0.045224044 0.0033479929 0.093778126
-0.043921299 0.0060608312 0.093778126
-0.045418989 0.0033479929 0.096679375
-0.043947373 0.0062492341 0.096679375
-0.043921299 0.0062492341 0.096250221
-0.04380773 0.0062492341 0.093778126
-0.043921299 0.0062894076 0.096679375
-0.041309275 0.0091504827 0.093778126
-0.041020054 0.0094013587 0.093778126
-0.038118813 0.011703089 0.093778126
-0.041524187 0.0091504827 0.096679375
-0.041020054 0.0096366778 0.096679375
-0.038118813 0.012036487 0.096679375
-0.045517709 0.0033479929 0.099580616
-0.043921299 0.006205596 0.099580616
-0.043921299 0.0062492341 0.099253982
-0.045428973 0.0033479929 0.10248186
-0.043921299 0.005924955 0.10248186
-0.043889586 0.0062492341 0.099580616
-0.043671221 0.0062492341 0.10248186
-0.041467942 0.0091504827 0.099580616
-0.041020054 0.0096372589 0.099580616
-0.041128814 0.0091504827 0.10248186
-0.041020054 0.0092680454 0.10248186
-0.038118813 0.012009904 0.10248186
-0.033943232 -0.022763196 0.10538311
-0.032316327 -0.024284299 0.10538311
-0.033497259 -0.022763196 0.10828435
-0.032316327 -0.023926452 0.10828435
-0.030300088 -0.025664438 0.10538311
-0.029415086 -0.026130177 0.10538311
-0.026513837 -0.027293786 0.10538311
-0.02991426 -0.025664438 0.10828435
-0.029415086 -0.025930598 0.10828435
-0.026513837 -0.027056187 0.10828435
-0.033336021 -0.022763196 0.11118559
-0.032316327 -0.02376296 0.11118559
-0.033462711 -0.022763196 0.11408683
-0.032316327 -0.023771487 0.11408683
-0.029742375 -0.025664438 0.11118559
-0.029415086 -0.025844116 0.11118559
-0.026513837 -0.02692344 0.11118559
-0.029626355 -0.025664438 0.11408683
-0.029415086 -0.025781926 0.11408683
-0.026513837 -0.026903164 0.11408683
-0.038303688 -0.01696071 0.10538311
-0.038118813 -0.01723621 0.10538311
-0.038255427 -0.01696071 0.10828435
-0.038118813 -0.017138913 0.10828435
-0.040387742 -0.014059469 0.10538311
-0.04252249 -0.01115822 0.10538311
-0.041020054 -0.01318498 0.10538311
-0.040435124 -0.014059469 0.10828435
-0.042552464 -0.01115822 0.10828435
-0.041020054 -0.013240419 0.10828435
-0.038320228 -0.01696071 0.11118559
-0.038118813 -0.017219402 0.11118559
-0.038423553 -0.01696071 0.11408683
-0.038118813 -0.017381579 0.11408683
-0.040530108 -0.014059469 0.11118559
-0.042626522 -0.01115822 0.11118559
-0.041020054 -0.013378523 0.11118559
-0.040590398 -0.014059469 0.11408683
-0.042685598 -0.01115822 0.11408683
-0.041020054 -0.013466723 0.11408683
-0.036263917 -0.019861951 0.10538311
-0.035217568 -0.021269169 0.10538311
-0.03591856 -0.019861951 0.10828435
-0.035217568 -0.020745594 0.10828435
-0.035879128 -0.019861951 0.11118559
-0.035217568 -0.020639677 0.11118559
-0.036129553 -0.019861951 0.11408683
-0.035217568 -0.020925775 0.11408683
-0.033395275 -0.022763196 0.11698807
-0.032316327 -0.023672491 0.11698807
-0.033174552 -0.022763196 0.11988931
-0.032316327 -0.023581889 0.11988931
-0.029480539 -0.025664438 0.11698807
-0.029415086 -0.025701117 0.11698807
-0.026513837 -0.026881374 0.11698807
-0.02958332 -0.025664438 0.11988931
-0.029415086 -0.025757007 0.11988931
-0.026513837 -0.026898053 0.11988931
-0.033317991 -0.022763196 0.12279057
-0.032316327 -0.023791227 0.12279057
-0.033721201 -0.022763196 0.1256918
-0.032316327 -0.024087135 0.1256918
-0.029922947 -0.025664438 0.12279057
-0.029415086 -0.025944471 0.12279057
-0.026513837 -0.027040944 0.12279057
-0.030110635 -0.025664438 0.1256918
-0.029415086 -0.026048206 0.1256918
-0.026513837 -0.027145892 0.1256918
-0.038339037 -0.01696071 0.11698807
-0.038118813 -0.017284088 0.11698807
-0.038118813 -0.01696071 0.11970759
-0.040417995 -0.014059469 0.11698807
-0.042577948 -0.01115822 0.11698807
-0.041020054 -0.013229184 0.11698807
-0.040143315 -0.014059469 0.11988931
-0.038118813 -0.016938433 0.11988931
-0.042381175 -0.01115822 0.11988931
-0.041020054 -0.012880638 0.11988931
-0.040043909 -0.014059469 0.12279057
-0.038118813 -0.016763896 0.12279057
-0.042310957 -0.01115822 0.12279057
-0.041020054 -0.012780897 0.12279057
-0.040117718 -0.014059469 0.1256918
-0.038118813 -0.016847581 0.1256918
-0.042347364 -0.01115822 0.1256918
-0.041020054 -0.01287055 0.1256918
-0.036141992 -0.019861951 0.11698807
-0.035217568 -0.02093878 0.11698807
-0.035885107 -0.019861951 0.11988931
-0.035217568 -0.020629406 0.11988931
-0.038103893 -0.01696071 0.11988931
-0.035833716 -0.019861951 0.12279057
-0.035217568 -0.020615734 0.12279057
-0.037986927 -0.01696071 0.12279057
-0.036053088 -0.019861951 0.1256918
-0.035217568 -0.021005798 0.1256918
-0.038043879 -0.01696071 0.1256918
-0.023612596 -0.027800169 0.10538311
-0.020711355 -0.027543269 0.10538311
-0.023612596 -0.027548764 0.10828435
-0.020711355 -0.02735265 0.10828435
-0.017810106 -0.026388578 0.10538311
-0.016562596 -0.025664438 0.10538311
-0.014908865 -0.024507102 0.10538311
-0.017810106 -0.026303597 0.10828435
-0.01661738 -0.025664438 0.10828435
-0.014908865 -0.024549209 0.10828435
-0.023612596 -0.02729658 0.11118559
-0.020711355 -0.02707186 0.11118559
-0.023612596 -0.027256187 0.11408683
-0.020711355 -0.026983153 0.11408683
-0.017810106 -0.026160073 0.11118559
-0.01673203 -0.025664438 0.11118559
-0.014908865 -0.024587583 0.11118559
-0.017810106 -0.026095796 0.11408683
-0.016830355 -0.025664438 0.11408683
-0.014908865 -0.024558395 0.11408683
-0.01268582 -0.022763196 0.10538311
-0.012512714 -0.022763196 0.10828435
-0.012390032 -0.022763196 0.11118559
-0.012412041 -0.022763196 0.11408683
-0.012007624 -0.022220008 0.10538311
-0.0091063827 -0.019886903 0.10538311
-0.0091063827 -0.019861951 0.10468887
-0.012007624 -0.022376198 0.10828435
-0.0091063827 -0.020042673 0.10828435
-0.0090743154 -0.019861951 0.10538311
-0.0062051341 -0.017539255 0.10538311
-0.0054747537 -0.01696071 0.10538311
-0.0088828951 -0.019861951 0.10828435
-0.0062051341 -0.017597467 0.10828435
-0.0054302737 -0.01696071 0.10828435
-0.012007624 -0.022469137 0.11118559
-0.0091063827 -0.020084452 0.11118559
-0.012007624 -0.022447083 0.11408683
-0.0091063827 -0.020001639 0.11408683
-0.0088347942 -0.019861951 0.11118559
-0.0062051341 -0.017697901 0.11118559
-0.0052651837 -0.01696071 0.11118559
-0.0089374483 -0.019861951 0.11408683
-0.0062051341 -0.017621398 0.11408683
-0.0053606182 -0.01696071 0.11408683
-0.023612596 -0.027302824 0.11698807
-0.020711355 -0.027053442 0.11698807
-0.023612596 -0.027371105 0.11988931
-0.020711355 -0.027188759 0.11988931
-0.017810106 -0.026160032 0.11698807
-0.016734317 -0.025664438 0.11698807
-0.014908865 -0.024561156 0.11698807
-0.017810106 -0.026303597 0.11988931
-0.016471498 -0.025664438 0.11988931
-0.014908865 -0.024673175 0.11988931
-0.023612596 -0.027482979 0.12279057
-0.020711355 -0.027293686 0.12279057
-0.023612596 -0.027510673 0.1256918
-0.020711355 -0.027255084 0.1256918
-0.017810106 -0.026377022 0.12279057
-0.016364366 -0.025664438 0.12279057
-0.014908865 -0.024728775 0.12279057
-0.017810106 -0.02632641 0.1256918
-0.016438194 -0.025664438 0.1256918
-0.014908865 -0.024713803 0.1256918
-0.012461685 -0.022763196 0.11698807
-0.012444071 -0.022763196 0.11988931
-0.012388185 -0.022763196 0.12279057
-0.01235652 -0.022763196 0.1256918
-0.012007624 -0.022404883 0.11698807
-0.0091063827 -0.019919708 0.11698807
-0.012007624 -0.022400856 0.11988931
-0.0091373026 -0.019861951 0.11988931
-0.0091063827 -0.019861951 0.11879859
-0.0091063827 -0.019834105 0.11988931
-0.0090395808 -0.019861951 0.11698807
-0.0062051341 -0.017386228 0.11698807
-0.0056900382 -0.01696071 0.11698807
-0.0062051341 -0.017246321 0.11988931
-0.0058500245 -0.01696071 0.11988931
-0.012007624 -0.022446577 0.12279057
-0.0091063827 -0.019885372 0.12279057
-0.0091063827 -0.019861951 0.12231103
-0.012007624 -0.022478957 0.1256918
-0.0091063827 -0.020017255 0.1256918
-0.0090800598 -0.019861951 0.12279057
-0.0062051341 -0.017386384 0.12279057
-0.0056517944 -0.01696071 0.12279057
-0.0089183003 -0.019861951 0.1256918
-0.0062051341 -0.017618768 0.1256918
-0.0053647757 -0.01696071 0.1256918
-0.044503607 -0.0082569793 0.10538311
-0.043921299 -0.0091958493 0.10538311
-0.045922112 -0.0053557381 0.10538311
-0.044527493 -0.0082569793 0.10828435
-0.043921299 -0.0092269108 0.10828435
-0.046001315 -0.0053557381 0.10828435
-0.046476837 -0.0024544895 0.10538311
-0.046352655 0.00044675171 0.10538311
-0.046607159 -0.0024544895 0.10828435
-0.04652179 0.00044675171 0.10828435
-0.044520508 -0.0082569793 0.11118559
-0.043921299 -0.0092559755 0.11118559
-0.045964457 -0.0053557381 0.11118559
-0.04451393 -0.0082569793 0.11408683
-0.043921299 -0.0092956424 0.11408683
-0.045846529 -0.0053557381 0.11408683
-0.046585422 -0.0024544895 0.11118559
-0.046480987 0.00044675171 0.11118559
-0.046412237 -0.0024544895 0.11408683
-0.046262436 0.00044675171 0.11408683
-0.045551348 0.0033479929 0.10538311
-0.043921299 0.0061069876 0.10538311
-0.045771934 0.0033479929 0.10828435
-0.044074282 0.0062492341 0.10828435
-0.043921299 0.0062492341 0.10630271
-0.043811288 0.0062492341 0.10538311
-0.043921299 0.0064486563 0.10828435
-0.041138582 0.0091504827 0.10538311
-0.041020054 0.0092641562 0.10538311
-0.038118813 0.011772111 0.10538311
-0.041386381 0.0091504827 0.10828435
-0.041020054 0.0094799101 0.10828435
-0.038118813 0.011824325 0.10828435
-0.045685712 0.0033479929 0.11118559
-0.043984521 0.0062492341 0.11118559
-0.045387477 0.0033479929 0.11408683
-0.043921299 0.0058951005 0.11408683
-0.043921299 0.0062492341 0.11176912
-0.043660257 0.0062492341 0.11408683
-0.043921299 0.0063330531 0.11118559
-0.04133055 0.0091504827 0.11118559
-0.041020054 0.0094383359 0.11118559
-0.038118813 0.011846416 0.11118559
-0.041040447 0.0091504827 0.11408683
-0.041020054 0.0091703013 0.11408683
-0.038118813 0.011603869 0.11408683
-0.044498019 -0.0082569793 0.11698807
-0.043921299 -0.0092403367 0.11698807
-0.04579274 -0.0053557381 0.11698807
-0.044443835 -0.0082569793 0.11988931
-0.043921299 -0.0090936422 0.11988931
-0.045785546 -0.0053557381 0.11988931
-0.046278715 -0.0024544895 0.11698807
-0.046072334 0.00044675171 0.11698807
-0.046261597 -0.0024544895 0.11988931
-0.04606922 0.00044675171 0.11988931
-0.044392064 -0.0082569793 0.12279057
-0.043921299 -0.0090041682 0.12279057
-0.045783896 -0.0053557381 0.12279057
-0.044378042 -0.0082569793 0.1256918
-0.043921299 -0.0089954287 0.1256918
-0.045794435 -0.0053557381 0.1256918
-0.046344072 -0.0024544895 0.12279057
-0.046234261 0.00044675171 0.12279057
-0.046410643 -0.0024544895 0.1256918
-0.046339694 0.00044675171 0.1256918
-0.045142379 0.0033479929 0.11698807
-0.043921299 0.0055385828 0.11698807
-0.045139655 0.0033479929 0.11988931
-0.043921299 0.0055277199 0.11988931
-0.04342116 0.0062492341 0.11698807
-0.04342854 0.0062492341 0.11988931
-0.041020054 0.0090655833 0.11698807
-0.041020054 0.0091504827 0.11429473
-0.040937517 0.0091504827 0.11698807
-0.038118813 0.011470228 0.11698807
-0.04103509 0.0091504827 0.11988931
-0.041020054 0.0091504827 0.11942724
-0.041020054 0.0091662481 0.11988931
-0.038118813 0.011535332 0.11988931
-0.045345925 0.0033479929 0.12279057
-0.043921299 0.0058030114 0.12279057
-0.045479972 0.0033479929 0.1256918
-0.043921299 0.0059923604 0.1256918
-0.04360107 0.0062492341 0.12279057
-0.043732572 0.0062492341 0.1256918
-0.041020054 0.0091461241 0.12279057
