# .PCD v.7 - Point Cloud Data file format
FIELDS x y z rgb imX imY
SIZE 4 4 4 4 4 4
TYPE F F F F F F
COUNT 1 1 1 1 1 1
WIDTH 842
HEIGHT 1
VIEWPOINT 0 0 0 1 0 0 0
POINTS 842
DATA ascii
-0.029922385 0.74199998 0.0078058392 1.5713197e-38 297 234
-0.028621411 0.74199998 0.0078058392 1.5251867e-38 298 234
-0.027467718 0.74599999 0.0078479191 1.5159673e-38 299 234
-0.026159734 0.74599999 0.0078479191 1.4791613e-38 300 234
-0.024951685 0.74900001 0.0078794798 1.4883808e-38 301 234
-0.023669999 0.75 0.00789 1.41502e-38 302 234
-0.022355 0.75 0.00789 1.3873617e-38 303 234
-0.021096105 0.75199997 0.0079110395 1.1668848e-38 304 234
-0.019830201 0.75400001 0.00793208 1.1207877e-38 305 234
-0.018459093 0.75199997 0.0079110395 6.4413991e-39 306 234
-0.017140586 0.75199997 0.0079110395 6.0729809e-39 307 234
-0.015822079 0.75199997 0.0079110395 4.3309763e-39 308 234
-0.014503572 0.75199997 0.0079110395 4.4231706e-39 309 234
-0.013185065 0.75199997 0.0079110395 4.1494662e-39 310 234
-0.011835 0.75 0.00789 4.6104429e-39 311 234
-0.01052 0.75 0.00789 4.4271447e-39 312 234
-0.0091927266 0.74900001 0.0078794798 5.1647097e-39 313 234
-0.0078794798 0.74900001 0.0078794798 5.1668635e-39 314 234
-0.0065662335 0.74900001 0.0078794798 5.0746679e-39 315 234
-0.0052529867 0.74900001 0.0078794798 4.9824512e-39 316 234
-0.0039397399 0.74900001 0.0078794798 4.7980586e-39 317 234
-0.0026264933 0.74900001 0.0078794798 5.2557969e-39 318 234
-0.0013132467 0.74900001 0.0078794798 4.9788513e-39 319 234
0 0.74900001 0.0078794798 5.0703308e-39 320 234
0.001315 0.75 0.00789 4.7937426e-39 321 234
0.0026264933 0.74900001 0.0078794798 4.8852193e-39 322 234
0.0039397399 0.74900001 0.0078794798 4.8852193e-39 323 234
0.0052529867 0.74900001 0.0078794798 5.1607272e-39 324 234
0.0065662335 0.74900001 0.0078794798 5.3454786e-39 325 234
0.0078794798 0.74900001 0.0078794798 7.6388479e-39 326 234
0.0091927266 0.74900001 0.0078794798 8.3764059e-39 327 234
0.010505973 0.74900001 0.0078794798 1.3328344e-38 328 234
0.01181922 0.74900001 0.0078794798 1.3697121e-38 329 234
0.013132467 0.74900001 0.0078794798 1.544056e-38 330 234
0.01434928 0.74400002 0.0078268806 1.5625307e-38 331 234
0.015653761 0.74400002 0.0078268806 1.6176679e-38 332 234
0.016844273 0.73900002 0.0077742799 1.6545815e-38 333 234
0.018115439 0.73799998 0.0077637597 1.6731997e-38 334 234
0.019409399 0.73799998 0.0077637597 1.6455773e-38 335 234
0.020703359 0.73799998 0.0077637597 1.6728768e-38 336 234
0.022027127 0.73900002 0.0077742799 1.6728768e-38 337 234
0.023322839 0.73900002 0.0077742799 1.6727692e-38 338 234
0.024585238 0.73799998 0.0077637597 1.6451109e-38 339 234
0.025879199 0.73799998 0.0077637597 1.6819528e-38 340 234
0.027173158 0.73799998 0.0077637597 1.6819528e-38 341 234
0.028467119 0.73799998 0.0077637597 1.6637292e-38 342 234
0.029761078 0.73799998 0.0077637597 1.6637292e-38 343 234
0.031055039 0.73799998 0.0077637597 1.6361426e-38 344 234
0.032392833 0.73900002 0.0077742799 1.6177038e-38 345 234
0.033688545 0.73900002 0.0077742799 1.6176679e-38 346 234
0.034984261 0.73900002 0.0077742799 1.5808261e-38 347 234
0.036378156 0.741 0.0077953199 1.5346572e-38 348 234
0.037728224 0.74199998 0.0078058392 1.7098273e-38 349 234
0.0390292 0.74199998 0.0078058392 1.5836712e-38 350 234
-0.04970349 0.74599999 0.0065399334 1.5544993e-38 282 235
-0.048395503 0.74599999 0.0065399334 1.4622677e-38 283 235
-0.046961278 0.74400002 0.0065223998 1.6918179e-38 284 235
-0.045534063 0.74199998 0.0065048663 1.7194762e-38 285 235
-0.044233091 0.74199998 0.0065048663 1.7470627e-38 286 235
-0.042932119 0.74199998 0.0065048663 1.7470627e-38 287 235
-0.041631144 0.74199998 0.0065048663 1.8019129e-38 288 235
-0.040330172 0.74199998 0.0065048663 1.8019129e-38 289 235
-0.038976599 0.741 0.0064960998 1.8019129e-38 290 235
-0.037677377 0.741 0.0064960998 1.7742905e-38 291 235
-0.036378156 0.741 0.0064960998 1.7464887e-38 292 235
-0.035078939 0.741 0.0064960998 1.7003916e-38 293 235
-0.033779722 0.741 0.0064960998 1.6727333e-38 294 235
-0.032480497 0.741 0.0064960998 1.6358915e-38 295 235
-0.03118128 0.741 0.0064960998 1.5897585e-38 296 235
-0.029882059 0.741 0.0064960998 1.5620644e-38 297 235
-0.028582839 0.741 0.0064960998 1.5527373e-38 298 235
-0.027320439 0.74199998 0.0065048663 1.5342985e-38 299 235
-0.026089599 0.74400002 0.0065223998 1.4699778e-38 300 235
-0.024851745 0.74599999 0.0065399334 1.4791972e-38 301 235
-0.023575317 0.74699998 0.0065486995 1.4149124e-38 302 235
-0.022325192 0.74900001 0.0065662335 1.3780347e-38 303 235
-0.02104 0.75 0.006575 1.2309903e-38 304 235
-0.0197776 0.75199997 0.0065925326 1.2217708e-38 305 235
-0.018459093 0.75199997 0.0065925326 8.6425811e-39 306 235
-0.017140586 0.75199997 0.0065925326 8.2734455e-39 307 235
-0.01578 0.75 0.006575 5.154626e-39 308 235
-0.014465 0.75 0.006575 5.2471789e-39 309 235
-0.01315 0.75 0.006575 4.4228273e-39 310 235
-0.011835 0.75 0.006575 4.4228273e-39 311 235
-0.01052 0.75 0.006575 4.0544175e-39 312 235
-0.0091927266 0.74900001 0.0065662335 4.8841782e-39 313 235
-0.0078794798 0.74900001 0.0065662335 4.6118947e-39 314 235
-0.0065662335 0.74900001 0.0065662335 4.980317e-39 315 235
-0.0052529867 0.74900001 0.0065662335 5.1639642e-39 316 235
-0.0039397399 0.74900001 0.0065662335 5.1639642e-39 317 235
-0.0026264933 0.74900001 0.0065662335 5.0714056e-39 318 235
-0.0013132467 0.74900001 0.0065662335 4.8866542e-39 319 235
0 0.74900001 0.0065662335 4.5178787e-39 320 235
0.0013132467 0.74900001 0.0065662335 4.5178787e-39 321 235
0.0026264933 0.74900001 0.0065662335 4.8852193e-39 322 235
0.0039397399 0.74900001 0.0065662335 5.0692504e-39 323 235
0.0052389596 0.74699998 0.0065486995 5.0685302e-39 324 235
0.0065486995 0.74699998 0.0065486995 5.9904725e-39 325 235
0.0078584393 0.74699998 0.0065486995 1.1585981e-38 326 235
0.0091681797 0.74699998 0.0065486995 1.2046952e-38 327 235
0.010463892 0.74599999 0.0065399334 1.4799147e-38 328 235
0.011740319 0.74400002 0.0065223998 1.5167565e-38 329 235
0.0129922 0.741 0.0064960998 1.5993367e-38 330 235
0.01429142 0.741 0.0064960998 1.608592e-38 331 235
0.015527519 0.73799998 0.0064697997 1.6270308e-38 332 235
0.016821479 0.73799998 0.0064697997 1.6639085e-38 333 235
0.018066347 0.736 0.0064522666 1.6639085e-38 334 235
0.019356798 0.736 0.0064522666 1.6454697e-38 335 235
0.020647252 0.736 0.0064522666 1.6912081e-38 336 235
0.021937706 0.736 0.0064522666 1.6727692e-38 337 235
0.023291279 0.73799998 0.0064697997 1.6819169e-38 338 235
0.024585238 0.73799998 0.0064697997 1.6911363e-38 339 235
0.025879199 0.73799998 0.0064697997 1.6911363e-38 340 235
0.027173158 0.73799998 0.0064697997 1.7003557e-38 341 235
0.028467119 0.73799998 0.0064697997 1.6636574e-38 342 235
0.029761078 0.73799998 0.0064697997 1.6636574e-38 343 235
0.031055039 0.73799998 0.0064697997 1.6268515e-38 344 235
0.032348998 0.73799998 0.0064697997 1.6268515e-38 345 235
0.033642959 0.73799998 0.0064697997 1.6175962e-38 346 235
0.034984261 0.73900002 0.0064785667 1.5991573e-38 347 235
0.036279973 0.73900002 0.0064785667 1.5162184e-38 348 235
0.037575684 0.73900002 0.0064785667 1.6913523e-38 349 235
0.0388714 0.73900002 0.0064785667 1.5560125e-38 350 235
-0.051011477 0.74599999 0.0052319462 1.4462094e-38 281 236
-0.04970349 0.74599999 0.0052319462 1.5819055e-38 282 236
-0.048265759 0.74400002 0.0052179201 1.5173686e-38 283 236
-0.046961278 0.74400002 0.0052179201 1.7010373e-38 284 236
-0.045534063 0.74199998 0.0052038929 1.7194762e-38 285 236
-0.044233091 0.74199998 0.0052038929 1.7562104e-38 286 236
-0.042874258 0.741 0.0051968796 1.7562104e-38 287 236
-0.041575037 0.741 0.0051968796 1.7744699e-38 288 236
-0.04027582 0.741 0.0051968796 1.7744699e-38 289 236
-0.038976599 0.741 0.0051968796 1.8020205e-38 290 236
-0.037575684 0.73900002 0.0051828534 1.7743622e-38 291 236
-0.036279973 0.73900002 0.0051828534 1.7465605e-38 292 236
-0.034984261 0.73900002 0.0051828534 1.7004634e-38 293 236
-0.033688545 0.73900002 0.0051828534 1.6727333e-38 294 236
-0.032480497 0.741 0.0051968796 1.6266721e-38 295 236
-0.03109712 0.73900002 0.0051828534 1.6081615e-38 296 236
-0.029801406 0.73900002 0.0051828534 1.5620644e-38 297 236
-0.028582839 0.741 0.0051968796 1.5527373e-38 298 236
-0.027283618 0.741 0.0051968796 1.5435179e-38 299 236
-0.025984399 0.741 0.0051968796 1.4883808e-38 300 236
-0.024718491 0.74199998 0.0052038929 1.4883808e-38 301 236
-0.023480639 0.74400002 0.0052179201 1.4423913e-38 302 236
-0.022265578 0.74699998 0.0052389596 1.4239524e-38 303 236
-0.021011947 0.74900001 0.0052529867 1.2676886e-38 304 236
-0.019724999 0.75 0.00526 1.2492497e-38 305 236
-0.018385453 0.74900001 0.0052529867 1.0659733e-38 306 236
-0.017072206 0.74900001 0.0052529867 1.0567539e-38 307 236
-0.01578 0.75 0.00526 6.80623e-39 308 236
-0.014465 0.75 0.00526 6.6218415e-39 309 236
-0.01315 0.75 0.00526 5.3397319e-39 310 236
-0.011835 0.75 0.00526 5.4319261e-39 311 236
-0.01052 0.75 0.00526 4.8830711e-39 312 236
-0.0091927266 0.74900001 0.0052529867 5.0674624e-39 313 236
-0.0078794798 0.74900001 0.0052529867 4.8852319e-39 314 236
-0.0065662335 0.74900001 0.0052529867 5.0699833e-39 315 236
-0.0052529867 0.74900001 0.0052529867 4.8873843e-39 316 236
-0.0039397399 0.74900001 0.0052529867 4.7951887e-39 317 236
-0.0026264933 0.74900001 0.0052529867 4.8866571e-39 318 236
-0.0013132467 0.74900001 0.0052529867 4.4256817e-39 319 236
0 0.74900001 0.0052529867 4.7008295e-39 320 236
0.0013132467 0.74900001 0.0052529867 4.7930237e-39 321 236
0.0026194798 0.74699998 0.0052389596 5.1614419e-39 322 236
0.0039292197 0.74699998 0.0052389596 5.3458303e-39 323 236
0.0052389596 0.74699998 0.0052389596 6.6293749e-39 324 236
0.0065486995 0.74699998 0.0052389596 7.5516759e-39 325 236
0.0078479191 0.74599999 0.0052319462 1.3330496e-38 326 236
0.0091559067 0.74599999 0.0052319462 1.4436827e-38 327 236
0.010463892 0.74599999 0.0052319462 1.5905836e-38 328 236
0.011740319 0.74400002 0.0052179201 1.5905836e-38 329 236
0.012957133 0.73900002 0.0051828534 1.6639085e-38 330 236
0.014194986 0.736 0.005161813 1.6639085e-38 331 236
0.015485439 0.736 0.005161813 1.6639085e-38 332 236
0.016775893 0.736 0.005161813 1.6546891e-38 333 236
0.018066347 0.736 0.005161813 1.682168e-38 334 236
0.019356798 0.736 0.005161813 1.6637292e-38 335 236
0.020647252 0.736 0.005161813 1.7094675e-38 336 236
0.021937706 0.736 0.005161813 1.7094675e-38 337 236
0.023291279 0.73799998 0.0051758396 1.7096828e-38 338 236
0.024585238 0.73799998 0.0051758396 1.7096828e-38 339 236
0.025809066 0.736 0.005161813 1.7004634e-38 340 236
0.02709952 0.736 0.005161813 1.6912081e-38 341 236
0.028467119 0.73799998 0.0051758396 1.6727692e-38 342 236
0.029761078 0.73799998 0.0051758396 1.6727692e-38 343 236
0.031055039 0.73799998 0.0051758396 1.617632e-38 344 236
0.032348998 0.73799998 0.0051758396 1.617632e-38 345 236
0.033642959 0.73799998 0.0051758396 1.5901173e-38 346 236
0.034984261 0.73900002 0.0051828534 1.5808978e-38 347 236
0.036279973 0.73900002 0.0051828534 1.4886319e-38 348 236
0.037575684 0.73900002 0.0051828534 1.6638015e-38 349 236
0.0388714 0.73900002 0.0051828534 1.5377534e-38 350 236
-0.050874721 0.74400002 0.0039134403 1.4553201e-38 281 237
-0.04957024 0.74400002 0.0039134403 1.5910529e-38 282 237
-0.048265759 0.74400002 0.0039134403 1.5633942e-38 283 237
-0.046961278 0.74400002 0.0039134403 1.6919255e-38 284 237
-0.045534063 0.74199998 0.0039029196 1.7195479e-38 285 237
-0.044233091 0.74199998 0.0039029196 1.7562821e-38 286 237
-0.042874258 0.741 0.0038976599 1.7470627e-38 287 237
-0.041575037 0.741 0.0038976599 1.7928011e-38 288 237
-0.04027582 0.741 0.0038976599 1.7928011e-38 289 237
-0.0388714 0.73900002 0.00388714 1.7928011e-38 290 237
-0.037575684 0.73900002 0.00388714 1.7743622e-38 291 237
-0.036279973 0.73900002 0.00388714 1.7282292e-38 292 237
-0.034984261 0.73900002 0.00388714 1.6821321e-38 293 237
-0.033688545 0.73900002 0.00388714 1.6819528e-38 294 237
-0.032392833 0.73900002 0.00388714 1.6358915e-38 295 237
-0.031055039 0.73799998 0.0038818798 1.6173809e-38 296 237
-0.029761078 0.73799998 0.0038818798 1.5805391e-38 297 237
-0.028389972 0.736 0.0038713599 1.5620644e-38 298 237
-0.02709952 0.736 0.0038713599 1.5528091e-38 299 237
-0.025738932 0.73400003 0.0038608401 1.516039e-38 300 237
-0.024451986 0.73400003 0.0038608401 1.5067837e-38 301 237
-0.023165042 0.73400003 0.0038608401 1.4791255e-38 302 237
-0.022265578 0.74699998 0.0039292197 1.469906e-38 303 237
-0.021011947 0.74900001 0.0039397399 1.4055853e-38 304 237
-0.019724999 0.75 0.003945 1.3871465e-38 305 237
-0.018385453 0.74900001 0.0039397399 1.3046739e-38 306 237
-0.017072206 0.74900001 0.0039397399 1.3046739e-38 307 237
-0.01575896 0.74900001 0.0039397399 1.0753004e-38 308 237
-0.014445714 0.74900001 0.0039397399 1.0568615e-38 309 237
-0.013132467 0.74900001 0.0039397399 6.9916946e-39 310 237
-0.01181922 0.74900001 0.0039397399 7.0838888e-39 311 237
-0.010505973 0.74900001 0.0039397399 5.2507662e-39 312 237
-0.0091927266 0.74900001 0.0039397399 5.2507662e-39 313 237
-0.0078794798 0.74900001 0.0039397399 4.7004749e-39 314 237
-0.0065662335 0.74900001 0.0039397399 4.8848662e-39 315 237
-0.0052529867 0.74900001 0.0039397399 4.6100744e-39 316 237
-0.0039397399 0.74900001 0.0039397399 4.6100744e-39 317 237
-0.0026264933 0.74900001 0.0039397399 4.5182347e-39 318 237
-0.0013097399 0.74699998 0.0039292197 4.4260404e-39 319 237
0 0.74699998 0.0039292197 4.5178759e-39 320 237
0.0013097399 0.74699998 0.0039292197 4.8862941e-39 321 237
0.0026194798 0.74699998 0.0039292197 5.7131723e-39 322 237
0.0039292197 0.74699998 0.0039292197 5.7131723e-39 323 237
0.0052319462 0.74599999 0.0039239596 8.921675e-39 324 237
0.0065399334 0.74599999 0.0039239596 1.0212394e-38 325 237
0.0078268806 0.74400002 0.0039134403 1.4434675e-38 326 237
0.0091313599 0.74400002 0.0039134403 1.5080034e-38 327 237
0.010393759 0.741 0.0038976599 1.636609e-38 328 237
0.01166142 0.73900002 0.00388714 1.6734867e-38 329 237
0.012904533 0.736 0.0038713599 1.691782e-38 330 237
0.014194986 0.736 0.0038713599 1.6733791e-38 331 237
0.015485439 0.736 0.0038713599 1.6823832e-38 332 237
0.016775893 0.736 0.0038713599 1.654725e-38 333 237
0.018066347 0.736 0.0038713599 1.7004634e-38 334 237
0.019356798 0.736 0.0038713599 1.6819886e-38 335 237
0.020591147 0.73400003 0.0038608401 1.7003916e-38 336 237
0.021878093 0.73400003 0.0038608401 1.7372334e-38 337 237
0.023165042 0.73400003 0.0038608401 1.709898e-38 338 237
0.024451986 0.73400003 0.0038608401 1.7006427e-38 339 237
0.025738932 0.73400003 0.0038608401 1.7004634e-38 340 237
0.02702588 0.73400003 0.0038608401 1.6819886e-38 341 237
0.028389972 0.736 0.0038713599 1.6727692e-38 342 237
0.029680425 0.736 0.0038713599 1.6543304e-38 343 237
0.031055039 0.73799998 0.0038818798 1.6269232e-38 344 237
0.032348998 0.73799998 0.0038818798 1.6177038e-38 345 237
0.033642959 0.73799998 0.0038818798 1.5901173e-38 346 237
0.034936916 0.73799998 0.0038818798 1.5532396e-38 347 237
0.036230877 0.73799998 0.0038818798 1.4794124e-38 348 237
0.037524838 0.73799998 0.0038818798 1.6914602e-38 349 237
0.038818799 0.73799998 0.0038818798 1.5838153e-38 350 237
-0.050874721 0.74400002 0.00260896 1.4368088e-38 281 238
-0.04957024 0.74400002 0.00260896 1.618711e-38 282 238
-0.048265759 0.74400002 0.00260896 1.5726491e-38 283 238
-0.046835039 0.74199998 0.0026019465 1.7011449e-38 284 238
-0.045534063 0.74199998 0.0026019465 1.7195479e-38 285 238
-0.044173479 0.741 0.0025984398 1.7746133e-38 286 238
-0.042874258 0.741 0.0025984398 1.7746133e-38 287 238
-0.041575037 0.741 0.0025984398 1.8112758e-38 288 238
-0.040167112 0.73900002 0.0025914267 1.8020564e-38 289 238
-0.0388714 0.73900002 0.0025914267 1.7928011e-38 290 238
-0.037575684 0.73900002 0.0025914267 1.7743622e-38 291 238
-0.036279973 0.73900002 0.0025914267 1.7557081e-38 292 238
-0.034936916 0.73799998 0.0025879198 1.7187946e-38 293 238
-0.033642959 0.73799998 0.0025879198 1.6911363e-38 294 238
-0.032348998 0.73799998 0.0025879198 1.6726975e-38 295 238
-0.030886721 0.73400003 0.0025738934 1.6634422e-38 296 238
-0.029599773 0.73400003 0.0025738934 1.6265645e-38 297 238
-0.028274251 0.73299998 0.0025703865 1.6080898e-38 298 238
-0.026989058 0.73299998 0.0025703865 1.5988703e-38 299 238
-0.025703866 0.73299998 0.0025703865 1.5988703e-38 300 238
-0.024418673 0.73299998 0.0025703865 1.5803956e-38 301 238
-0.023133477 0.73299998 0.0025703865 1.5528091e-38 302 238
-0.021848286 0.73299998 0.0025703865 1.5159673e-38 303 238
-0.020647252 0.736 0.0025809065 1.4974926e-38 304 238
-0.019356798 0.736 0.0025809065 1.506712e-38 305 238
-0.018385453 0.74900001 0.0026264933 1.4241318e-38 306 238
-0.017072206 0.74900001 0.0026264933 1.4149124e-38 307 238
-0.015716879 0.74699998 0.0026194798 1.2864503e-38 308 238
-0.014407139 0.74699998 0.0026194798 1.2680114e-38 309 238
-0.013097399 0.74699998 0.0026194798 1.011159e-38 310 238
-0.011787659 0.74699998 0.0026194798 9.9268432e-39 311 238
-0.010505973 0.74900001 0.0026264933 7.4515896e-39 312 238
-0.0091927266 0.74900001 0.0026264933 7.2672011e-39 313 238
-0.0078794798 0.74900001 0.0026264933 5.2493313e-39 314 238
-0.0065662335 0.74900001 0.0026264933 5.2493313e-39 315 238
-0.0052529867 0.74900001 0.0026264933 4.8830683e-39 316 238
-0.0039397399 0.74900001 0.0026264933 4.975264e-39 317 238
-0.0026264933 0.74900001 0.0026264933 4.700112e-39 318 238
-0.0013097399 0.74699998 0.0026194798 4.8841417e-39 319 238
0 0.74699998 0.0026194798 5.4351547e-39 320 238
0.0013097399 0.74699998 0.0026194798 5.6195432e-39 321 238
0.0026159731 0.74599999 0.0026159731 7.7299659e-39 322 238
0.0039239596 0.74599999 0.0026159731 7.7299659e-39 323 238
0.0052319462 0.74599999 0.0026159731 1.0846633e-38 324 238
0.0065223998 0.74400002 0.00260896 1.2322099e-38 325 238
0.0078058392 0.74199998 0.0026019465 1.4802734e-38 326 238
0.0090945391 0.741 0.0025984398 1.5171511e-38 327 238
0.010393759 0.741 0.0025984398 1.6458284e-38 328 238
0.01166142 0.73900002 0.0025914267 1.6919255e-38 329 238
0.012904533 0.736 0.0025809065 1.6736302e-38 330 238
0.014194986 0.736 0.0025809065 1.6643749e-38 331 238
0.015485439 0.736 0.0025809065 1.6917103e-38 332 238
0.016775893 0.736 0.0025809065 1.6640161e-38 333 238
0.018017253 0.73400003 0.0025738934 1.728014e-38 334 238
0.019304199 0.73400003 0.0025738934 1.7372334e-38 335 238
0.020591147 0.73400003 0.0025738934 1.737341e-38 336 238
0.021878093 0.73400003 0.0025738934 1.7465605e-38 337 238
0.023165042 0.73400003 0.0025738934 1.7465605e-38 338 238
0.024418673 0.73299998 0.0025703865 1.7096828e-38 339 238
0.025703866 0.73299998 0.0025703865 1.7095034e-38 340 238
0.02702588 0.73400003 0.0025738934 1.7002481e-38 341 238
0.028312827 0.73400003 0.0025738934 1.6360709e-38 342 238
0.029680425 0.736 0.0025809065 1.6268515e-38 343 238
0.031055039 0.73799998 0.0025879198 1.6177038e-38 344 238
0.032348998 0.73799998 0.0025879198 1.5900455e-38 345 238
0.033642959 0.73799998 0.0025879198 1.562459e-38 346 238
0.034936916 0.73799998 0.0025879198 1.5440202e-38 347 238
0.036230877 0.73799998 0.0025879198 1.4794842e-38 348 238
0.037524838 0.73799998 0.0025879198 1.7284106e-38 349 238
0.038976599 0.741 0.0025984398 1.6115819e-38 350 238
-0.050874721 0.74400002 0.00130448 1.4366283e-38 281 239
-0.04957024 0.74400002 0.00130448 1.6464772e-38 282 239
-0.048136011 0.74199998 0.0013009732 1.5819403e-38 283 239
-0.046835039 0.74199998 0.0013009732 1.7011449e-38 284 239
-0.045534063 0.74199998 0.0013009732 1.7011449e-38 285 239
-0.044173479 0.741 0.0012992199 1.7746133e-38 286 239
-0.042758539 0.73900002 0.0012957134 1.7746133e-38 287 239
-0.041462827 0.73900002 0.0012957134 1.7837969e-38 288 239
-0.040167112 0.73900002 0.0012957134 1.7837969e-38 289 239
-0.0388714 0.73900002 0.0012957134 1.7928011e-38 290 239
-0.037524838 0.73799998 0.0012939599 1.7651069e-38 291 239
-0.036230877 0.73799998 0.0012939599 1.7557081e-38 292 239
-0.034936916 0.73799998 0.0012939599 1.7003916e-38 293 239
-0.033642959 0.73799998 0.0012939599 1.7095034e-38 294 239
-0.032261331 0.736 0.0012904532 1.7187228e-38 295 239
-0.030886721 0.73400003 0.0012869467 1.6728768e-38 296 239
-0.029559445 0.73299998 0.0012851933 1.6544021e-38 297 239
-0.028274251 0.73299998 0.0012851933 1.6544021e-38 298 239
-0.026989058 0.73299998 0.0012851933 1.6544021e-38 299 239
-0.025703866 0.73299998 0.0012851933 1.6269232e-38 300 239
-0.024418673 0.73299998 0.0012851933 1.6269232e-38 301 239
-0.02307036 0.73100001 0.0012816866 1.5898303e-38 302 239
-0.021788673 0.73100001 0.0012816866 1.5437332e-38 303 239
-0.020591147 0.73400003 0.0012869467 1.5619926e-38 304 239
-0.019304199 0.73400003 0.0012869467 1.5803956e-38 305 239
-0.018017253 0.73400003 0.0012869467 1.4977078e-38 306 239
-0.016775893 0.736 0.0012904532 1.4977078e-38 307 239
-0.015485439 0.736 0.0012904532 1.4333871e-38 308 239
-0.01429142 0.741 0.0012992199 1.4241677e-38 309 239
-0.0129922 0.741 0.0012992199 1.2956697e-38 310 239
-0.011771879 0.74599999 0.0013079866 1.2680114e-38 311 239
-0.010463892 0.74599999 0.0013079866 1.0111949e-38 312 239
-0.0091681797 0.74699998 0.0013097399 9.6509779e-39 313 239
-0.0078584393 0.74699998 0.0013097399 5.7978332e-39 314 239
-0.0065662335 0.74900001 0.0013132467 5.9822216e-39 315 239
-0.0052529867 0.74900001 0.0013132467 5.1564196e-39 316 239
-0.0039397399 0.74900001 0.0013132467 5.2489726e-39 317 239
-0.0026264933 0.74900001 0.0013132467 4.883783e-39 318 239
-0.0013097399 0.74699998 0.0013097399 4.6993945e-39 319 239
0 0.74699998 0.0013097399 5.7070739e-39 320 239
0.0013097399 0.74699998 0.0013097399 5.9832978e-39 321 239
0.0026159731 0.74599999 0.0013079866 9.5612948e-39 322 239
0.0039239596 0.74599999 0.0013079866 1.0299207e-38 323 239
0.0052319462 0.74599999 0.0013079866 1.2960643e-38 324 239
0.0065223998 0.74400002 0.00130448 1.3790391e-38 325 239
0.0077953199 0.741 0.0012992199 1.5076806e-38 326 239
0.0090699932 0.73900002 0.0012957134 1.535303e-38 327 239
0.010365707 0.73900002 0.0012957134 1.6180984e-38 328 239
0.011645639 0.73799998 0.0012939599 1.6549402e-38 329 239
0.012904533 0.736 0.0012904532 1.6734508e-38 330 239
0.014194986 0.736 0.0012904532 1.6734508e-38 331 239
0.015485439 0.736 0.0012904532 1.7100415e-38 332 239
0.016775893 0.736 0.0012904532 1.6639444e-38 333 239
0.018017253 0.73400003 0.0012869467 1.7372693e-38 334 239
0.019304199 0.73400003 0.0012869467 1.7833664e-38 335 239
0.020591147 0.73400003 0.0012869467 1.7559951e-38 336 239
0.021878093 0.73400003 0.0012869467 1.7559951e-38 337 239
0.023133477 0.73299998 0.0012851933 1.7464887e-38 338 239
0.024418673 0.73299998 0.0012851933 1.7187946e-38 339 239
0.025703866 0.73299998 0.0012851933 1.6910287e-38 340 239
0.026989058 0.73299998 0.0012851933 1.6910287e-38 341 239
0.028312827 0.73400003 0.0012869467 1.6451827e-38 342 239
0.029680425 0.736 0.0012904532 1.6451827e-38 343 239
0.030970879 0.736 0.0012904532 1.5900455e-38 344 239
0.032261331 0.736 0.0012904532 1.5715708e-38 345 239
0.033642959 0.73799998 0.0012939599 1.5532754e-38 346 239
0.034936916 0.73799998 0.0012939599 1.5164336e-38 347 239
0.036230877 0.73799998 0.0012939599 1.4518259e-38 348 239
0.037575684 0.73900002 0.0012957134 1.765289e-38 349 239
0.038976599 0.741 0.0012992199 1.6578239e-38 350 239
-0.050874721 0.74400002 -0 1.4181527e-38 281 240
-0.04957024 0.74400002 -0 1.6465125e-38 282 240
-0.048136011 0.74199998 -0 1.5635365e-38 283 240
-0.046835039 0.74199998 -0 1.6919255e-38 284 240
-0.045472696 0.741 -0 1.7195479e-38 285 240
-0.044054255 0.73900002 -0 1.7470627e-38 286 240
-0.042758539 0.73900002 -0 1.7562821e-38 287 240
-0.041462827 0.73900002 -0 1.7837969e-38 288 240
-0.040167112 0.73900002 -0 1.7930163e-38 289 240
-0.038818799 0.73799998 -0 1.7928011e-38 290 240
-0.037524838 0.73799998 -0 1.7743622e-38 291 240
-0.036230877 0.73799998 -0 1.7740035e-38 292 240
-0.034842238 0.736 -0 1.7740035e-38 293 240
-0.033551786 0.736 -0 1.7279423e-38 294 240
-0.032173667 0.73400003 -0 1.7279423e-38 295 240
-0.030844638 0.73299998 -0 1.7187228e-38 296 240
-0.029478792 0.73100001 -0 1.7095034e-38 297 240
-0.028197108 0.73100001 -0 1.6911363e-38 298 240
-0.026915418 0.73100001 -0 1.6911363e-38 299 240
-0.025633732 0.73100001 -0 1.6729486e-38 300 240
-0.024352046 0.73100001 -0 1.6360709e-38 301 240
-0.02307036 0.73100001 -0 1.6634422e-38 302 240
-0.021788673 0.73100001 -0 1.6542227e-38 303 240
-0.020563092 0.73299998 -0 1.6173451e-38 304 240
-0.019304199 0.73400003 -0 1.6081256e-38 305 240
-0.018017253 0.73400003 -0 1.589615e-38 306 240
-0.016730307 0.73400003 -0 1.5619926e-38 307 240
-0.01544336 0.73400003 -0 1.5344779e-38 308 240
-0.014156413 0.73400003 -0 1.5344779e-38 309 240
-0.012939599 0.73799998 -0 1.4426065e-38 310 240
-0.011645639 0.73799998 -0 1.4241677e-38 311 240
-0.010463892 0.74599999 -0 1.2864503e-38 312 240
-0.0091681797 0.74699998 -0 1.2219143e-38 313 240
-0.0078584393 0.74699998 -0 9.0981713e-39 314 240
-0.0065662335 0.74900001 -0 8.8215886e-39 315 240
-0.0052529867 0.74900001 -0 5.6127272e-39 316 240
-0.0039397399 0.74900001 -0 6.1658926e-39 317 240
-0.0026264933 0.74900001 -0 6.9913359e-39 318 240
-0.0013132467 0.74900001 -0 6.6229177e-39 319 240
0 0.74900001 -0 9.4669482e-39 320 240
0.0013097399 0.74699998 -0 9.6513367e-39 321 240
0.0026159731 0.74599999 -0 1.2313849e-38 322 240
0.0039239596 0.74599999 -0 1.2959208e-38 323 240
0.0052179201 0.74400002 -0 1.4429652e-38 324 240
0.0064960998 0.741 -0 1.4982818e-38 325 240
0.0077742799 0.73900002 -0 1.5443071e-38 326 240
0.0090577193 0.73799998 -0 1.581149e-38 327 240
0.010351679 0.73799998 -0 1.5905119e-38 328 240
0.01161408 0.736 -0 1.6181701e-38 329 240
0.012904533 0.736 -0 1.6549043e-38 330 240
0.014194986 0.736 -0 1.6549043e-38 331 240
0.015485439 0.736 -0 1.6914592e-38 332 240
0.016730307 0.73400003 -0 1.709898e-38 333 240
0.018017253 0.73400003 -0 1.7374845e-38 334 240
0.019304199 0.73400003 -0 1.7743264e-38 335 240
0.020563092 0.73299998 -0 1.7652146e-38 336 240
0.021848286 0.73299998 -0 1.7467757e-38 337 240
0.023133477 0.73299998 -0 1.7557081e-38 338 240
0.024418673 0.73299998 -0 1.7187946e-38 339 240
0.025703866 0.73299998 -0 1.6912081e-38 340 240
0.026989058 0.73299998 -0 1.6543304e-38 341 240
0.028312827 0.73400003 -0 1.6268515e-38 342 240
0.029599773 0.73400003 -0 1.617632e-38 343 240
0.030970879 0.736 -0 1.5808261e-38 344 240
0.032261331 0.736 -0 1.5715708e-38 345 240
0.033551786 0.736 -0 1.5347649e-38 346 240
0.034842238 0.736 -0 1.5255454e-38 347 240
0.036230877 0.73799998 -0 1.4151276e-38 348 240
0.037575684 0.73900002 -0 1.765469e-38 349 240
0.0388714 0.73900002 -0 1.6765152e-38 350 240
-0.050737958 0.74199998 -0.0013009732 1.4365564e-38 281 241
-0.048136011 0.74199998 -0.0013009732 1.5821555e-38 283 241
-0.046771921 0.741 -0.0012992199 1.7011449e-38 284 241
-0.045472696 0.741 -0.0012992199 1.6827061e-38 285 241
-0.044054255 0.73900002 -0.0012957134 1.7746133e-38 286 241
-0.042758539 0.73900002 -0.0012957134 1.7562104e-38 287 241
-0.041462827 0.73900002 -0.0012957134 1.7930881e-38 288 241
-0.040167112 0.73900002 -0.0012957134 1.7930881e-38 289 241
-0.038818799 0.73799998 -0.0012939599 1.7837969e-38 290 241
-0.037423145 0.736 -0.0012904532 1.7468833e-38 291 241
-0.036132693 0.736 -0.0012904532 1.7650352e-38 292 241
-0.03474756 0.73400003 -0.0012869467 1.7373769e-38 293 241
-0.033460613 0.73400003 -0.0012869467 1.737341e-38 294 241
-0.032173667 0.73400003 -0.0012869467 1.7189381e-38 295 241
-0.030844638 0.73299998 -0.0012851933 1.7187946e-38 296 241
-0.029478792 0.73100001 -0.0012816866 1.7003916e-38 297 241
-0.028197108 0.73100001 -0.0012816866 1.7002481e-38 298 241
-0.026915418 0.73100001 -0.0012816866 1.6910287e-38 299 241
-0.025633732 0.73100001 -0.0012816866 1.6908493e-38 300 241
-0.024352046 0.73100001 -0.0012816866 1.6908493e-38 301 241
-0.02307036 0.73100001 -0.0012816866 1.6633346e-38 302 241
-0.021788673 0.73100001 -0.0012816866 1.6633346e-38 303 241
-0.020563092 0.73299998 -0.0012851933 1.6448957e-38 304 241
-0.019277899 0.73299998 -0.0012851933 1.626421e-38 305 241
-0.017992707 0.73299998 -0.0012851933 1.6263492e-38 306 241
-0.016707512 0.73299998 -0.0012851933 1.6263492e-38 307 241
-0.01544336 0.73400003 -0.0012869467 1.5988703e-38 308 241
-0.014156413 0.73400003 -0.0012869467 1.5988703e-38 309 241
-0.012904533 0.736 -0.0012904532 1.5345496e-38 310 241
-0.011645639 0.73799998 -0.0012939599 1.5069272e-38 311 241
-0.010351679 0.73799998 -0.0012939599 1.4609019e-38 312 241
-0.0091681797 0.74699998 -0.0013097399 1.3503047e-38 313 241
-0.0078479191 0.74599999 -0.0013079866 1.1482666e-38 314 241
-0.0065399334 0.74599999 -0.0013079866 1.0652918e-38 315 241
-0.0052389596 0.74699998 -0.0013097399 6.6189716e-39 316 241
-0.0039292197 0.74699998 -0.0013097399 7.2643312e-39 317 241
-0.0026264933 0.74900001 -0.0013132467 8.2720106e-39 318 241
-0.0013132467 0.74900001 -0.0013132467 8.4560403e-39 319 241
0 0.74699998 -0.0013097399 1.2038701e-38 320 241
0.0013097399 0.74699998 -0.0013097399 1.268406e-38 321 241
0.0026159731 0.74599999 -0.0013079866 1.4613323e-38 322 241
0.0039134403 0.74400002 -0.00130448 1.4981742e-38 323 241
0.0051828534 0.73900002 -0.0012957134 1.5347649e-38 324 241
0.0064697997 0.73799998 -0.0012939599 1.562459e-38 325 241
0.0077427197 0.736 -0.0012904532 1.5626384e-38 326 241
0.0090331733 0.736 -0.0012904532 1.5902966e-38 327 241
0.010323626 0.736 -0.0012904532 1.6364296e-38 328 241
0.011582521 0.73400003 -0.0012869467 1.645649e-38 329 241
0.012869466 0.73400003 -0.0012869467 1.7007145e-38 330 241
0.014156413 0.73400003 -0.0012869467 1.6822756e-38 331 241
0.01544336 0.73400003 -0.0012869467 1.7187228e-38 332 241
0.016730307 0.73400003 -0.0012869467 1.7648199e-38 333 241
0.017992707 0.73299998 -0.0012851933 1.7467757e-38 334 241
0.019277899 0.73299998 -0.0012851933 1.774434e-38 335 241
0.020563092 0.73299998 -0.0012851933 1.7652504e-38 336 241
0.021848286 0.73299998 -0.0012851933 1.7375563e-38 337 241
0.02307036 0.73100001 -0.0012816866 1.7465605e-38 338 241
0.024352046 0.73100001 -0.0012816866 1.7096828e-38 339 241
0.025633732 0.73100001 -0.0012816866 1.6819886e-38 340 241
0.026989058 0.73299998 -0.0012851933 1.6727692e-38 341 241
0.028274251 0.73299998 -0.0012851933 1.617632e-38 342 241
0.029599773 0.73400003 -0.0012869467 1.6083767e-38 343 241
0.030886721 0.73400003 -0.0012869467 1.5807902e-38 344 241
0.032261331 0.736 -0.0012904532 1.5715708e-38 345 241
0.033551786 0.736 -0.0012904532 1.5347649e-38 346 241
0.034842238 0.736 -0.0012904532 1.5255454e-38 347 241
0.036230877 0.73799998 -0.0012939599 1.4243829e-38 348 241
0.037524838 0.73799998 -0.0012939599 1.8300781e-38 349 241
0.038818799 0.73799998 -0.0012939599 1.6950985e-38 350 241
-0.048136011 0.74199998 -0.0026019465 1.5638606e-38 283 242
-0.046771921 0.741 -0.0025984398 1.7011449e-38 284 242
-0.045349967 0.73900002 -0.0025914267 1.6919255e-38 285 242
-0.044054255 0.73900002 -0.0025914267 1.7378433e-38 286 242
-0.042758539 0.73900002 -0.0025914267 1.7470627e-38 287 242
-0.041462827 0.73900002 -0.0025914267 1.7746133e-38 288 242
-0.040112756 0.73799998 -0.0025879198 1.7838686e-38 289 242
-0.038608398 0.73400003 -0.0025738934 1.7744699e-38 290 242
-0.037321456 0.73400003 -0.0025738934 1.7652504e-38 291 242
-0.036034506 0.73400003 -0.0025738934 1.7833664e-38 292 242
-0.034700219 0.73299998 -0.0025703865 1.7925858e-38 293 242
-0.033415023 0.73299998 -0.0025703865 1.7466681e-38 294 242
-0.032129832 0.73299998 -0.0025703865 1.7374487e-38 295 242
-0.03076048 0.73100001 -0.0025633732 1.7372334e-38 296 242
-0.029478792 0.73100001 -0.0025633732 1.7003916e-38 297 242
-0.028197108 0.73100001 -0.0025633732 1.7460582e-38 298 242
-0.026915418 0.73100001 -0.0025633732 1.7092164e-38 299 242
-0.025633732 0.73100001 -0.0025633732 1.7274759e-38 300 242
-0.024352046 0.73100001 -0.0025633732 1.7459148e-38 301 242
-0.02307036 0.73100001 -0.0025633732 1.7092882e-38 302 242
-0.021788673 0.73100001 -0.0025633732 1.7185076e-38 303 242
-0.020563092 0.73299998 -0.0025703865 1.6908493e-38 304 242
-0.019277899 0.73299998 -0.0025703865 1.6724105e-38 305 242
-0.017992707 0.73299998 -0.0025703865 1.6632269e-38 306 242
-0.016707512 0.73299998 -0.0025703865 1.6356045e-38 307 242
-0.01544336 0.73400003 -0.0025738934 1.6173092e-38 308 242
-0.014156413 0.73400003 -0.0025738934 1.6080898e-38 309 242
-0.012904533 0.736 -0.0025809065 1.5622438e-38 310 242
-0.01161408 0.736 -0.0025809065 1.5345496e-38 311 242
-0.010351679 0.73799998 -0.0025879198 1.4884166e-38 312 242
-0.0090699932 0.73900002 -0.0025914267 1.4054418e-38 313 242
-0.0077953199 0.741 -0.0025984398 1.3042793e-38 314 242
-0.0065399334 0.74599999 -0.0026159731 1.2489627e-38 315 242
-0.0052389596 0.74699998 -0.0026194798 9.8296267e-39 316 242
-0.0039292197 0.74699998 -0.0026194798 9.9218209e-39 317 242
-0.0026264933 0.74900001 -0.0026264933 1.0657581e-38 318 242
-0.0013097399 0.74699998 -0.0026194798 1.1026717e-38 319 242
0 0.74699998 -0.0026194798 1.3415516e-38 320 242
0.0013097399 0.74699998 -0.0026194798 1.3784651e-38 321 242
0.0026194798 0.74699998 -0.0026194798 1.47048e-38 322 242
0.00388714 0.73900002 -0.0025914267 1.4981383e-38 323 242
0.005161813 0.736 -0.0025809065 1.5623514e-38 324 242
0.006434733 0.73400003 -0.0025738934 1.5715708e-38 325 242
0.0077216802 0.73400003 -0.0025738934 1.6083767e-38 326 242
0.0090086265 0.73400003 -0.0025738934 1.6544739e-38 327 242
0.010295574 0.73400003 -0.0025738934 1.6546891e-38 328 242
0.011582521 0.73400003 -0.0025738934 1.6546891e-38 329 242
0.012869466 0.73400003 -0.0025738934 1.7004634e-38 330 242
0.014156413 0.73400003 -0.0025738934 1.7004634e-38 331 242
0.015422319 0.73299998 -0.0025703865 1.7372693e-38 332 242
0.016707512 0.73299998 -0.0025703865 1.7925858e-38 333 242
0.017992707 0.73299998 -0.0025703865 1.7652863e-38 334 242
0.019225299 0.73100001 -0.0025633732 1.7560669e-38 335 242
0.020506985 0.73100001 -0.0025633732 1.7835458e-38 336 242
0.021788673 0.73100001 -0.0025633732 1.7651069e-38 337 242
0.02307036 0.73100001 -0.0025633732 1.7464887e-38 338 242
0.024352046 0.73100001 -0.0025633732 1.7280499e-38 339 242
0.025633732 0.73100001 -0.0025633732 1.6911363e-38 340 242
0.026915418 0.73100001 -0.0025633732 1.663478e-38 341 242
0.028274251 0.73299998 -0.0025703865 1.608305e-38 342 242
0.029599773 0.73400003 -0.0025738934 1.608305e-38 343 242
0.030886721 0.73400003 -0.0025738934 1.5715708e-38 344 242
0.032261331 0.736 -0.0025809065 1.5530961e-38 345 242
0.033551786 0.736 -0.0025809065 1.4979948e-38 346 242
0.034842238 0.736 -0.0025809065 1.5164336e-38 347 242
0.036132693 0.736 -0.0025809065 1.4341051e-38 348 242
0.037423145 0.736 -0.0025809065 1.8213267e-38 349 242
0.038713597 0.736 -0.0025809065 1.7044265e-38 350 242
-0.048136011 0.74199998 -0.0039029196 1.5363098e-38 283 243
-0.046771921 0.741 -0.0038976599 1.6918897e-38 284 243
-0.045349967 0.73900002 -0.00388714 1.6826702e-38 285 243
-0.044054255 0.73900002 -0.00388714 1.7285162e-38 286 243
-0.042758539 0.73900002 -0.00388714 1.7377357e-38 287 243
-0.041462827 0.73900002 -0.00388714 1.7562104e-38 288 243
-0.040112756 0.73799998 -0.0038818798 1.7562104e-38 289 243
-0.038608398 0.73400003 -0.0038608401 1.7835817e-38 290 243
-0.037321456 0.73400003 -0.0038608401 1.7835817e-38 291 243
-0.036034506 0.73400003 -0.0038608401 1.7835099e-38 292 243
-0.034700219 0.73299998 -0.0038555798 1.8111323e-38 293 243
-0.033415023 0.73299998 -0.0038555798 1.7652146e-38 294 243
-0.032129832 0.73299998 -0.0038555798 1.7467757e-38 295 243
-0.03076048 0.73100001 -0.00384506 1.7649276e-38 296 243
-0.029478792 0.73100001 -0.00384506 1.7372693e-38 297 243
-0.028197108 0.73100001 -0.00384506 1.7737524e-38 298 243
-0.026915418 0.73100001 -0.00384506 1.764533e-38 299 243
-0.025633732 0.73100001 -0.00384506 1.764533e-38 300 243
-0.024352046 0.73100001 -0.00384506 1.7553135e-38 301 243
-0.023038799 0.73000002 -0.0038397999 1.7462735e-38 302 243
-0.021758866 0.73000002 -0.0038397999 1.7554929e-38 303 243
-0.020506985 0.73100001 -0.00384506 1.718687e-38 304 243
-0.019225299 0.73100001 -0.00384506 1.6910287e-38 305 243
-0.017943613 0.73100001 -0.00384506 1.6725898e-38 306 243
-0.016661927 0.73100001 -0.00384506 1.6448957e-38 307 243
-0.015422319 0.73299998 -0.0038555798 1.6356404e-38 308 243
-0.014156413 0.73400003 -0.0038608401 1.6356404e-38 309 243
-0.012869466 0.73400003 -0.0038608401 1.580575e-38 310 243
-0.01161408 0.736 -0.0038713599 1.5529526e-38 311 243
-0.010323626 0.736 -0.0038713599 1.5160032e-38 312 243
-0.0090577193 0.73799998 -0.0038818798 1.4514672e-38 313 243
-0.0077637597 0.73799998 -0.0038818798 1.4236654e-38 314 243
-0.0064697997 0.73799998 -0.0038818798 1.3591653e-38 315 243
-0.0051758396 0.73799998 -0.0038818798 1.1665978e-38 316 243
-0.0039292197 0.74699998 -0.0039292197 1.1389036e-38 317 243
-0.0026194798 0.74699998 -0.0039292197 1.2218426e-38 318 243
-0.0013097399 0.74699998 -0.0039292197 1.2956338e-38 319 243
0 0.74699998 -0.0039292197 1.4243111e-38 320 243
0.0013097399 0.74699998 -0.0039292197 1.4519694e-38 321 243
0.0025738934 0.73400003 -0.0038608401 1.5347649e-38 322 243
0.0038555798 0.73299998 -0.0038555798 1.5532037e-38 323 243
0.005140773 0.73299998 -0.0038555798 1.5991215e-38 324 243
0.0064259665 0.73299998 -0.0038555798 1.5991215e-38 325 243
0.0077111595 0.73299998 -0.0038555798 1.6358556e-38 326 243
0.0089963535 0.73299998 -0.0038555798 1.6543304e-38 327 243
0.010281546 0.73299998 -0.0038555798 1.6726616e-38 328 243
0.011582521 0.73400003 -0.0038608401 1.681881e-38 329 243
0.012851933 0.73299998 -0.0038555798 1.718687e-38 330 243
0.014137126 0.73299998 -0.0038555798 1.7555647e-38 331 243
0.015422319 0.73299998 -0.0038555798 1.7466681e-38 332 243
0.016707512 0.73299998 -0.0038555798 1.7835458e-38 333 243
0.017943613 0.73100001 -0.00384506 1.7652146e-38 334 243
0.019225299 0.73100001 -0.00384506 1.774434e-38 335 243
0.020506985 0.73100001 -0.00384506 1.7745057e-38 336 243
0.021788673 0.73100001 -0.00384506 1.7560669e-38 337 243
0.02307036 0.73100001 -0.00384506 1.7189022e-38 338 243
0.024352046 0.73100001 -0.00384506 1.6912439e-38 339 243
0.025633732 0.73100001 -0.00384506 1.6634422e-38 340 243
0.026915418 0.73100001 -0.00384506 1.6542227e-38 341 243
0.028274251 0.73299998 -0.0038555798 1.608305e-38 342 243
0.029599773 0.73400003 -0.0038608401 1.5990497e-38 343 243
0.030886721 0.73400003 -0.0038608401 1.5714991e-38 344 243
0.032261331 0.736 -0.0038713599 1.5530243e-38 345 243
0.033551786 0.736 -0.0038713599 1.4796277e-38 346 243
0.034936916 0.73799998 -0.0038818798 1.4980307e-38 347 243
0.036132693 0.736 -0.0038713599 1.4253901e-38 348 243
0.037423145 0.736 -0.0038713599 1.8126118e-38 349 243
-0.048136011 0.74199998 -0.0052038929 1.5088672e-38 283 244
-0.046771921 0.741 -0.0051968796 1.682742e-38 284 244
-0.045349967 0.73900002 -0.0051828534 1.6735226e-38 285 244
-0.044054255 0.73900002 -0.0051828534 1.6917103e-38 286 244
-0.042700678 0.73799998 -0.0051758396 1.7009297e-38 287 244
-0.041406717 0.73799998 -0.0051758396 1.7284445e-38 288 244
-0.040004052 0.736 -0.005161813 1.7468475e-38 289 244
-0.038608398 0.73400003 -0.0051477868 1.7743622e-38 290 244
-0.037321456 0.73400003 -0.0051477868 1.7743622e-38 291 244
-0.035985414 0.73299998 -0.005140773 1.8019129e-38 292 244
-0.034700219 0.73299998 -0.005140773 1.8111682e-38 293 244
-0.033323854 0.73100001 -0.0051267464 1.7744699e-38 294 244
-0.032042164 0.73100001 -0.0051267464 1.7467757e-38 295 244
-0.030718399 0.73000002 -0.0051197335 1.7833664e-38 296 244
-0.029438468 0.73000002 -0.0051197335 1.7649634e-38 297 244
-0.028158534 0.73000002 -0.0051197335 1.7740394e-38 298 244
-0.026915418 0.73100001 -0.0051267464 1.7832947e-38 299 244
-0.025633732 0.73100001 -0.0051267464 1.7834382e-38 300 244
-0.024352046 0.73100001 -0.0051267464 1.7742187e-38 301 244
-0.023038799 0.73000002 -0.0051197335 1.783474e-38 302 244
-0.021758866 0.73000002 -0.0051197335 1.783474e-38 303 244
-0.020506985 0.73100001 -0.0051267464 1.7373052e-38 304 244
-0.019225299 0.73100001 -0.0051267464 1.6820245e-38 305 244
-0.017943613 0.73100001 -0.0051267464 1.6725898e-38 306 244
-0.016661927 0.73100001 -0.0051267464 1.654151e-38 307 244
-0.01538024 0.73100001 -0.0051267464 1.6356404e-38 308 244
-0.014098554 0.73100001 -0.0051267464 1.626421e-38 309 244
-0.012869466 0.73400003 -0.0051477868 1.5897585e-38 310 244
-0.011582521 0.73400003 -0.0051477868 1.5712838e-38 311 244
-0.010323626 0.736 -0.005161813 1.5251867e-38 312 244
-0.0090331733 0.736 -0.005161813 1.506712e-38 313 244
-0.0077427197 0.736 -0.005161813 1.4512161e-38 314 244
-0.0064522666 0.736 -0.005161813 1.3683489e-38 315 244
-0.005161813 0.736 -0.005161813 1.2765134e-38 316 244
-0.0038713599 0.736 -0.005161813 1.2765134e-38 317 244
-0.0025598668 0.73000002 -0.0051197335 1.3319734e-38 318 244
-0.0012869467 0.73400003 -0.0051477868 1.3965094e-38 319 244
0 0.73400003 -0.0051477868 1.4703724e-38 320 244
0.0012869467 0.73400003 -0.0051477868 1.4979948e-38 321 244
0.0025703865 0.73299998 -0.005140773 1.5807902e-38 322 244
0.0038555798 0.73299998 -0.005140773 1.5992649e-38 323 244
0.005140773 0.73299998 -0.005140773 1.6175244e-38 324 244
0.0064259665 0.73299998 -0.005140773 1.608305e-38 325 244
0.0077111595 0.73299998 -0.005140773 1.6633346e-38 326 244
0.0089963535 0.73299998 -0.005140773 1.6541151e-38 327 244
0.010281546 0.73299998 -0.005140773 1.7092523e-38 328 244
0.011566739 0.73299998 -0.005140773 1.727727e-38 329 244
0.012851933 0.73299998 -0.005140773 1.7097545e-38 330 244
0.014137126 0.73299998 -0.005140773 1.7466681e-38 331 244
0.01538024 0.73100001 -0.0051267464 1.7468116e-38 332 244
0.016661927 0.73100001 -0.0051267464 1.7191892e-38 333 244
0.017943613 0.73100001 -0.0051267464 1.746704e-38 334 244
0.019225299 0.73100001 -0.0051267464 1.7743264e-38 335 244
0.020506985 0.73100001 -0.0051267464 1.7559593e-38 336 244
0.021788673 0.73100001 -0.0051267464 1.7006427e-38 337 244
0.02307036 0.73100001 -0.0051267464 1.7003557e-38 338 244
0.024352046 0.73100001 -0.0051267464 1.6726975e-38 339 244
0.025633732 0.73100001 -0.0051267464 1.6358556e-38 340 244
0.026915418 0.73100001 -0.0051267464 1.6358556e-38 341 244
0.028274251 0.73299998 -0.005140773 1.5807902e-38 342 244
0.029599773 0.73400003 -0.0051477868 1.5715708e-38 343 244
0.030886721 0.73400003 -0.0051477868 1.5346931e-38 344 244
0.032261331 0.736 -0.005161813 1.5254737e-38 345 244
0.033642959 0.73799998 -0.0051758396 1.4704083e-38 346 244
0.034936916 0.73799998 -0.0051758396 1.5072501e-38 347 244
0.036230877 0.73799998 -0.0051758396 1.4626647e-38 348 244
0.037524838 0.73799998 -0.0051758396 1.8314112e-38 349 244
-0.048136011 0.74199998 -0.0065048663 1.5183391e-38 283 245
-0.046645679 0.73900002 -0.0064785667 1.6829931e-38 284 245
-0.045349967 0.73900002 -0.0064785667 1.6184571e-38 285 245
-0.044054255 0.73900002 -0.0064785667 1.6733791e-38 286 245
-0.042584959 0.736 -0.0064522666 1.6641238e-38 287 245
-0.041294504 0.736 -0.0064522666 1.7100415e-38 288 245
-0.040004052 0.736 -0.0064522666 1.7100415e-38 289 245
-0.038608398 0.73400003 -0.006434733 1.7559951e-38 290 245
-0.037321456 0.73400003 -0.006434733 1.7652504e-38 291 245
-0.035985414 0.73299998 -0.0064259665 1.7928728e-38 292 245
-0.034700219 0.73299998 -0.0064259665 1.7744699e-38 293 245
-0.033323854 0.73100001 -0.006408433 1.7652504e-38 294 245
-0.032042164 0.73100001 -0.006408433 1.7652504e-38 295 245
-0.030718399 0.73000002 -0.0063996664 1.7743622e-38 296 245
-0.029438468 0.73000002 -0.0063996664 1.746704e-38 297 245
-0.028158534 0.73000002 -0.0063996664 1.7650352e-38 298 245
-0.026878599 0.73000002 -0.0063996664 1.7742546e-38 299 245
-0.025598666 0.73000002 -0.0063996664 1.7835458e-38 300 245
-0.024318734 0.73000002 -0.0063996664 1.7927652e-38 301 245
-0.023038799 0.73000002 -0.0063996664 1.7835458e-38 302 245
-0.021758866 0.73000002 -0.0063996664 1.7743264e-38 303 245
-0.020478934 0.73000002 -0.0063996664 1.7465605e-38 304 245
-0.019199001 0.73000002 -0.0063996664 1.7004634e-38 305 245
-0.017919067 0.73000002 -0.0063996664 1.7002481e-38 306 245
-0.016661927 0.73100001 -0.006408433 1.6633704e-38 307 245
-0.01538024 0.73100001 -0.006408433 1.6448957e-38 308 245
-0.014098554 0.73100001 -0.006408433 1.6356763e-38 309 245
-0.012851933 0.73299998 -0.0064259665 1.608018e-38 310 245
-0.011582521 0.73400003 -0.006434733 1.5895433e-38 311 245
-0.010295574 0.73400003 -0.006434733 1.5710686e-38 312 245
-0.0090331733 0.736 -0.0064522666 1.515752e-38 313 245
-0.0077427197 0.736 -0.0064522666 1.4969903e-38 314 245
-0.0064522666 0.736 -0.0064522666 1.4418173e-38 315 245
-0.005161813 0.736 -0.0064522666 1.3499818e-38 316 245
-0.0038713599 0.736 -0.0064522666 1.3776042e-38 317 245
-0.0025598668 0.73000002 -0.0063996664 1.3962941e-38 318 245
-0.0012799334 0.73000002 -0.0063996664 1.4423913e-38 319 245
0 0.73100001 -0.006408433 1.534729e-38 320 245
0.0012816866 0.73100001 -0.006408433 1.5624231e-38 321 245
0.0025633732 0.73100001 -0.006408433 1.6268156e-38 322 245
0.00384506 0.73100001 -0.006408433 1.6544739e-38 323 245
0.0051267464 0.73100001 -0.006408433 1.6542227e-38 324 245
0.006408433 0.73100001 -0.006408433 1.6357839e-38 325 245
0.00769012 0.73100001 -0.006408433 1.6817017e-38 326 245
0.0089718066 0.73100001 -0.006408433 1.6909211e-38 327 245
0.010253493 0.73100001 -0.006408433 1.7094675e-38 328 245
0.01153518 0.73100001 -0.006408433 1.7555647e-38 329 245
0.012816866 0.73100001 -0.006408433 1.7375204e-38 330 245
0.014098554 0.73100001 -0.006408433 1.7467398e-38 331 245
0.01538024 0.73100001 -0.006408433 1.7284086e-38 332 245
0.016661927 0.73100001 -0.006408433 1.7007503e-38 333 245
0.017943613 0.73100001 -0.006408433 1.709898e-38 334 245
0.019225299 0.73100001 -0.006408433 1.728301e-38 335 245
0.020506985 0.73100001 -0.006408433 1.7006427e-38 336 245
0.021788673 0.73100001 -0.006408433 1.6545097e-38 337 245
0.02307036 0.73100001 -0.006408433 1.6726616e-38 338 245
0.024352046 0.73100001 -0.006408433 1.6634422e-38 339 245
0.025633732 0.73100001 -0.006408433 1.6175244e-38 340 245
0.026915418 0.73100001 -0.006408433 1.6175244e-38 341 245
0.028274251 0.73299998 -0.0064259665 1.5532396e-38 342 245
0.029599773 0.73400003 -0.006434733 1.5440202e-38 343 245
0.030886721 0.73400003 -0.006434733 1.5162901e-38 344 245
0.032261331 0.736 -0.0064522666 1.5162901e-38 345 245
0.033551786 0.736 -0.0064522666 1.4336023e-38 346 245
0.034842238 0.736 -0.0064522666 1.4981383e-38 347 245
0.036230877 0.73799998 -0.0064697997 1.5001187e-38 348 245
0.037524838 0.73799998 -0.0064697997 1.8043642e-38 349 245
-0.048136011 0.74199998 -0.0078058392 1.5000442e-38 283 246
-0.046645679 0.73900002 -0.0077742799 1.6645901e-38 284 246
-0.045349967 0.73900002 -0.0077742799 1.6369318e-38 285 246
-0.044054255 0.73900002 -0.0077742799 1.6824909e-38 286 246
-0.042584959 0.736 -0.0077427197 1.6824909e-38 287 246
-0.041294504 0.736 -0.0077427197 1.709898e-38 288 246
-0.040004052 0.736 -0.0077427197 1.728301e-38 289 246
-0.038608398 0.73400003 -0.0077216802 1.7743264e-38 290 246
-0.037321456 0.73400003 -0.0077216802 1.7928011e-38 291 246
-0.035985414 0.73299998 -0.0077111595 1.783761e-38 292 246
-0.034700219 0.73299998 -0.0077111595 1.7745416e-38 293 246
-0.033323854 0.73100001 -0.00769012 1.7562104e-38 294 246
-0.032042164 0.73100001 -0.00769012 1.7377715e-38 295 246
-0.030718399 0.73000002 -0.0076795998 1.7467757e-38 296 246
-0.029438468 0.73000002 -0.0076795998 1.7283369e-38 297 246
-0.028158534 0.73000002 -0.0076795998 1.7647482e-38 298 246
-0.026878599 0.73000002 -0.0076795998 1.7739676e-38 299 246
-0.025598666 0.73000002 -0.0076795998 1.7647482e-38 300 246
-0.024318734 0.73000002 -0.0076795998 1.7647482e-38 301 246
-0.023038799 0.73000002 -0.0076795998 1.7648199e-38 302 246
-0.021758866 0.73000002 -0.0076795998 1.7740394e-38 303 246
-0.020478934 0.73000002 -0.0076795998 1.7281934e-38 304 246
-0.019199001 0.73000002 -0.0076795998 1.7005351e-38 305 246
-0.017919067 0.73000002 -0.0076795998 1.7004275e-38 306 246
-0.016639132 0.73000002 -0.0076795998 1.6451109e-38 307 246
-0.01538024 0.73100001 -0.00769012 1.6357839e-38 308 246
-0.014098554 0.73100001 -0.00769012 1.6173451e-38 309 246
-0.012851933 0.73299998 -0.0077111595 1.626421e-38 310 246
-0.011582521 0.73400003 -0.0077216802 1.5987986e-38 311 246
-0.010295574 0.73400003 -0.0077216802 1.5709968e-38 312 246
-0.0090331733 0.736 -0.0077427197 1.5433386e-38 313 246
