# .PCD v.7 - Point Cloud Data file format
FIELDS x y z rgb imX imY
SIZE 4 4 4 4 4 4
TYPE F F F F F F
COUNT 1 1 1 1 1 1
WIDTH 841
HEIGHT 1
VIEWPOINT 0 0 0 1 0 0 0
POINTS 841
DATA ascii
0.1154307 0.69300002 -0.058322877 9.1032286e-39 415 288
0.11614079 0.69 -0.058070395 8.645493e-39 416 288
0.11701045 0.68800002 -0.057902083 8.7376887e-39 417 288
0.11804491 0.68699998 -0.057817914 6.722337e-39 418 288
0.11907588 0.68599999 -0.057733759 6.9063681e-39 419 288
0.119928 0.68400002 -0.057565439 5.9894537e-39 420 288
0.12095019 0.68300003 -0.057481278 6.0816493e-39 421 288
0.12214772 0.68300003 -0.057481278 5.6213943e-39 422 288
0.12352584 0.68400002 -0.057565439 5.0682205e-39 423 288
0.12472512 0.68400002 -0.057565439 6.2656707e-39 424 288
0.12592439 0.68400002 -0.057565439 8.9393439e-39 425 288
0.12712367 0.68400002 -0.057565439 1.4379609e-38 426 288
-0.069863312 0.68699998 -0.059022456 1.5578538e-38 262 289
-0.068658777 0.68699998 -0.059022456 1.3734984e-38 263 289
-0.067159683 0.68400002 -0.058764715 8.8428267e-39 264 289
-0.065863967 0.68300003 -0.05867881 4.4174365e-39 265 289
-0.064666435 0.68300003 -0.05867881 6.3564019e-39 266 289
-0.063468911 0.68300003 -0.05867881 6.9095757e-39 267 289
-0.06227139 0.68300003 -0.05867881 6.5404443e-39 268 289
-0.060984433 0.68199998 -0.058592889 6.3560516e-39 269 289
-0.059788663 0.68199998 -0.058592889 6.0791088e-39 270 289
-0.05867881 0.68300003 -0.05867881 5.7103263e-39 271 289
-0.057481278 0.68300003 -0.05867881 6.99208e-39 272 289
-0.05768466 0.69999999 -0.060139328 6.7158532e-39 273 289
-0.056457333 0.69999999 -0.060139328 8.7315692e-39 274 289
-0.0554667 0.70300001 -0.06039707 8.455341e-39 275 289
-0.054542694 0.70700002 -0.060740728 8.8212495e-39 276 289
-0.053378478 0.708 -0.060826641 8.7290539e-39 277 289
-0.052137118 0.708 -0.060826641 8.5457416e-39 278 289
-0.050895758 0.708 -0.060826641 8.5457416e-39 279 289
-0.049654398 0.708 -0.060826641 8.0872844e-39 280 289
-0.049165215 0.71899998 -0.061771683 8.0872844e-39 281 289
-0.048104454 0.722 -0.062029421 7.9958048e-39 282 289
-0.046838548 0.722 -0.062029421 7.9036092e-39 283 289
-0.045888241 0.727 -0.062458992 6.8944935e-39 284 289
-0.044981763 0.73299998 -0.062974468 6.8944935e-39 285 289
-0.043756187 0.73400003 -0.063060381 6.6193514e-39 286 289
-0.042700678 0.73799998 -0.063404039 6.711547e-39 287 289
-0.041406717 0.73799998 -0.063404039 6.7115498e-39 288 289
-0.040167112 0.73900002 -0.063489959 6.8037455e-39 289 289
-0.0388714 0.73900002 -0.063489959 7.2640047e-39 290 289
-0.037677377 0.741 -0.063661776 7.448396e-39 291 289
-0.036427252 0.74199998 -0.063747689 8.1830828e-39 292 289
-0.035220962 0.74400002 -0.063919522 8.2752784e-39 293 289
-0.034007654 0.74599999 -0.064091347 8.5504262e-39 294 289
-0.032699663 0.74599999 -0.064091347 8.5504262e-39 295 289
-0.031433757 0.74699998 -0.06417726 8.5504262e-39 296 289
-0.030124018 0.74699998 -0.06417726 8.5504262e-39 297 289
-0.028891427 0.74900001 -0.064349085 8.8252124e-39 298 289
-0.027578179 0.74900001 -0.064349085 8.9174094e-39 299 289
-0.026264934 0.74900001 -0.064349085 8.9163318e-39 300 289
-0.024951685 0.74900001 -0.064349085 8.5475507e-39 301 289
-0.02363844 0.74900001 -0.064349085 8.8205432e-39 302 289
-0.022325192 0.74900001 -0.064349085 8.7283476e-39 303 289
-0.021011947 0.74900001 -0.064349085 8.637231e-39 304 289
-0.0196987 0.74900001 -0.064349085 8.7294266e-39 305 289
-0.018409999 0.75 -0.064434998 8.5468318e-39 306 289
-0.017095 0.75 -0.064434998 8.5468318e-39 307 289
-0.01578 0.75 -0.064434998 8.7301469e-39 308 289
-0.014465 0.75 -0.064434998 8.8223425e-39 309 289
-0.01315 0.75 -0.064434998 8.7294266e-39 310 289
-0.011835 0.75 -0.064434998 8.7294266e-39 311 289
-0.01052 0.75 -0.064434998 9.0964071e-39 312 289
-0.0092049995 0.75 -0.064434998 9.2807997e-39 313 289
-0.00789 0.75 -0.064434998 9.1925544e-39 314 289
-0.0065925326 0.75199997 -0.064606823 1.0298901e-38 315 289
-0.0052740262 0.75199997 -0.064606823 1.0949267e-38 316 289
-0.0039555198 0.75199997 -0.064606823 1.1410247e-38 317 289
-0.0026370131 0.75199997 -0.064606823 1.1039292e-38 318 289
-0.0013185065 0.75199997 -0.064606823 9.380135e-39 319 289
0 0.75199997 -0.064606823 9.3769218e-39 320 289
0.0013185065 0.75199997 -0.064606823 8.7315524e-39 321 289
0.0026370131 0.75199997 -0.064606823 8.730486e-39 322 289
0.0039555198 0.75199997 -0.064606823 8.730486e-39 323 289
0.00526 0.75 -0.064434998 8.9134479e-39 324 289
0.006575 0.75 -0.064434998 8.9134479e-39 325 289
0.00789 0.75 -0.064434998 9.0967602e-39 326 289
0.0092049995 0.75 -0.064434998 9.0045646e-39 327 289
0.010548052 0.75199997 -0.064606823 9.0045646e-39 328 289
0.011866559 0.75199997 -0.064606823 9.0967602e-39 329 289
0.013185065 0.75199997 -0.064606823 8.7297769e-39 330 289
0.014503572 0.75199997 -0.064606823 8.7297769e-39 331 289
0.015822079 0.75199997 -0.064606823 8.7297797e-39 332 289
0.017140586 0.75199997 -0.064606823 8.7297797e-39 333 289
0.018459093 0.75199997 -0.064606823 8.638303e-39 334 289
0.0197776 0.75199997 -0.064606823 8.638303e-39 335 289
0.021096105 0.75199997 -0.064606823 8.547185e-39 336 289
0.022355 0.75 -0.064434998 8.547185e-39 337 289
0.023669999 0.75 -0.064434998 8.5471878e-39 338 289
0.024984999 0.75 -0.064434998 8.5471878e-39 339 289
0.0263 0.75 -0.064434998 8.7297825e-39 340 289
0.027615 0.75 -0.064434998 8.7297825e-39 341 289
0.028929999 0.75 -0.064434998 8.7305e-39 342 289
0.030325651 0.75199997 -0.064606823 8.5461074e-39 343 289
0.031644158 0.75199997 -0.064606823 8.6379372e-39 344 289
0.032962665 0.75199997 -0.064606823 8.6379372e-39 345 289
0.034281172 0.75199997 -0.064606823 8.455341e-39 346 289
0.035505001 0.75 -0.064434998 8.455341e-39 347 289
0.036819998 0.75 -0.064434998 8.4549851e-39 348 289
0.038135 0.75 -0.064434998 8.3627895e-39 349 289
0.039449997 0.75 -0.064434998 8.4549879e-39 350 289
0.040764999 0.75 -0.064434998 8.3627923e-39 351 289
0.04219221 0.75199997 -0.064606823 8.5461074e-39 352 289
0.04351072 0.75199997 -0.064606823 8.5461074e-39 353 289
0.044829223 0.75199997 -0.064606823 8.3627951e-39 354 289
0.04614773 0.75199997 -0.064606823 8.4549907e-39 355 289
0.047339998 0.75 -0.064434998 8.4549907e-39 356 289
0.048655 0.75 -0.064434998 8.4549907e-39 357 289
0.049969997 0.75 -0.064434998 8.2709596e-39 358 289
0.051216617 0.74900001 -0.064349085 8.2709596e-39 359 289
0.052529868 0.74900001 -0.064349085 8.3635084e-39 360 289
0.053843111 0.74900001 -0.064349085 8.3635084e-39 361 289
0.055156358 0.74900001 -0.064349085 8.4549851e-39 362 289
0.056544997 0.75 -0.064434998 8.4549851e-39 363 289
0.057859998 0.75 -0.064434998 8.3627951e-39 364 289
0.059175 0.75 -0.064434998 8.0858495e-39 365 289
0.060489997 0.75 -0.064434998 7.4422807e-39 366 289
0.061804999 0.75 -0.064434998 7.4422807e-39 367 289
0.06312 0.75 -0.064434998 7.1692882e-39 368 289
0.064434998 0.75 -0.064434998 7.2614838e-39 369 289
0.065749995 0.75 -0.064434998 8.3627923e-39 370 289
0.067065001 0.75 -0.064434998 8.3627923e-39 371 289
0.068379998 0.75 -0.064434998 8.8212467e-39 372 289
0.069694996 0.75 -0.064434998 8.8212467e-39 373 289
0.071010001 0.75 -0.064434998 8.6379344e-39 374 289
0.072324999 0.75 -0.064434998 8.5457388e-39 375 289
0.073639996 0.75 -0.064434998 8.7290511e-39 376 289
0.074954994 0.75 -0.064434998 8.7290511e-39 377 289
0.076269999 0.75 -0.064434998 8.6379344e-39 378 289
0.077584997 0.75 -0.064434998 8.9141626e-39 379 289
0.078899994 0.75 -0.064434998 8.7308531e-39 380 289
0.080108039 0.74900001 -0.064349085 8.6386561e-39 381 289
0.081421293 0.74900001 -0.064349085 8.6383002e-39 382 289
0.08273454 0.74900001 -0.064349085 8.6383002e-39 383 289
0.084047787 0.74900001 -0.064349085 8.6379499e-39 384 289
0.085133098 0.74699998 -0.06417726 8.8223425e-39 385 289
0.086442836 0.74699998 -0.06417726 9.0974875e-39 386 289
0.087752573 0.74699998 -0.06417726 1.0296031e-38 387 289
0.089062311 0.74699998 -0.06417726 1.0945339e-38 388 289
0.090372056 0.74699998 -0.06417726 1.1314482e-38 389 289
0.091559067 0.74599999 -0.064091347 1.1405583e-38 390 289
0.092867047 0.74599999 -0.064091347 9.2847234e-39 391 289
0.093922555 0.74400002 -0.063919522 8.365281e-39 392 289
0.094971053 0.74199998 -0.063747689 1.2053098e-38 393 289
0.096272022 0.74199998 -0.063747689 1.168863e-38 394 289
0.097441494 0.741 -0.063661776 1.2241804e-38 395 289
0.098740712 0.741 -0.063661776 1.2702801e-38 396 289
0.099634908 0.73799998 -0.063404039 1.2149629e-38 397 289
0.10065536 0.736 -0.063232213 9.7421296e-39 398 289
0.10166879 0.73400003 -0.063060381 7.990414e-39 399 289
0.10253493 0.73100001 -0.062802643 8.1819982e-39 400 289
0.1036746 0.73000002 -0.06271673 8.1819982e-39 401 289
0.10466698 0.72799999 -0.062544905 8.1809164e-39 402 289
0.10579788 0.727 -0.062458992 7.9046882e-39 403 289
0.106778 0.72500002 -0.062287167 8.2709596e-39 404 289
0.10775109 0.72299999 -0.062115334 8.2709596e-39 405 289
0.10901875 0.72299999 -0.062115334 8.2709624e-39 406 289
0.1098288 0.72000003 -0.061857603 8.363158e-39 407 289
0.1109369 0.71899998 -0.061771683 8.27204e-39 408 289
0.10970081 0.70300001 -0.06039707 8.5486255e-39 409 289
0.11061779 0.70099998 -0.060225245 8.7326482e-39 410 289
0.11168733 0.69999999 -0.060139328 8.7326482e-39 411 289
0.11259206 0.69800001 -0.059967503 8.7333671e-39 412 289
0.11348975 0.69599998 -0.059795678 8.8255627e-39 413 289
0.11421563 0.69300002 -0.05953794 8.9184842e-39 414 289
0.11459786 0.68800002 -0.059108373 8.9184842e-39 415 289
0.11563583 0.68699998 -0.059022456 8.6444182e-39 416 289
0.11684038 0.68699998 -0.059022456 9.0132008e-39 417 289
0.11787309 0.68599999 -0.058936544 6.8152515e-39 418 289
0.11872872 0.68400002 -0.058764715 6.9074471e-39 419 289
0.11975267 0.68300003 -0.05867881 6.0820025e-39 420 289
0.1207731 0.68199998 -0.058592889 6.0820025e-39 421 289
0.12196887 0.68199998 -0.058592889 5.8039863e-39 422 289
0.12316464 0.68199998 -0.058592889 5.0664212e-39 423 289
0.12436043 0.68199998 -0.058592889 7.9237599e-39 424 289
0.1257403 0.68300003 -0.05867881 1.0966576e-38 425 289
-0.068259016 0.68300003 -0.059876334 1.4564743e-38 263 290
-0.067061491 0.68300003 -0.059876334 1.0966203e-38 264 290
-0.065863967 0.68300003 -0.059876334 5.6184978e-39 265 290
-0.064571753 0.68199998 -0.059788663 5.8943448e-39 266 290
-0.063375987 0.68199998 -0.059788663 7.092888e-39 267 290
-0.062180214 0.68199998 -0.059788663 6.7241223e-39 268 290
-0.060984433 0.68199998 -0.059788663 6.3556985e-39 269 290
-0.059788663 0.68199998 -0.059788663 6.0787529e-39 270 290
-0.058592889 0.68199998 -0.059788663 5.8947217e-39 271 290
-0.057481278 0.68300003 -0.059876334 6.6258184e-39 272 290
-0.056283753 0.68300003 -0.059876334 6.4414271e-39 273 290
-0.056699295 0.70300001 -0.061629668 8.5486227e-39 274 290
-0.0554667 0.70300001 -0.061629668 8.3645916e-39 275 290
-0.054542694 0.70700002 -0.061980337 8.9134423e-39 276 290
-0.053378478 0.708 -0.062068 8.7290511e-39 277 290
-0.052137118 0.708 -0.062068 8.4539061e-39 278 290
-0.050895758 0.708 -0.062068 8.4539061e-39 279 290
-0.049654398 0.708 -0.062068 8.0869285e-39 280 290
-0.048413038 0.708 -0.062068 8.0869285e-39 281 290
-0.047171678 0.708 -0.062068 7.9954517e-39 282 290
-0.047422405 0.73100001 -0.064084329 7.9954517e-39 283 290
-0.046140719 0.73100001 -0.064084329 7.2614838e-39 284 290
-0.044859033 0.73100001 -0.064084329 7.2614838e-39 285 290
-0.043696571 0.73299998 -0.064259663 6.7115498e-39 286 290
-0.042469237 0.73400003 -0.064347334 6.7115498e-39 287 290
-0.041406717 0.73799998 -0.064697996 6.2530926e-39 288 290
-0.040112756 0.73799998 -0.064697996 6.3452882e-39 289 290
-0.0388714 0.73900002 -0.064785667 6.6207961e-39 290 290
-0.037677377 0.741 -0.064960994 6.8055475e-39 291 290
-0.036378156 0.741 -0.064960994 7.9990516e-39 292 290
-0.035220962 0.74400002 -0.065223999 8.1830828e-39 293 290
-0.033916477 0.74400002 -0.065223999 8.5504262e-39 294 290
-0.032699663 0.74599999 -0.065399326 8.6426232e-39 295 290
-0.031391677 0.74599999 -0.065399326 8.8259326e-39 296 290
-0.030124018 0.74699998 -0.065486997 8.8259326e-39 297 290
-0.028814279 0.74699998 -0.065486997 8.9174094e-39 298 290
-0.027504537 0.74699998 -0.065486997 8.7330167e-39 299 290
-0.026264934 0.74900001 -0.065662332 8.9148941e-39 300 290
-0.024951685 0.74900001 -0.065662332 8.6379471e-39 301 290
-0.02363844 0.74900001 -0.065662332 8.8205432e-39 302 290
-0.022325192 0.74900001 -0.065662332 8.7283476e-39 303 290
-0.021011947 0.74900001 -0.065662332 8.5450354e-39 304 290
-0.0196987 0.74900001 -0.065662332 8.637231e-39 305 290
-0.018385453 0.74900001 -0.065662332 8.4549907e-39 306 290
-0.017072206 0.74900001 -0.065662332 8.4549907e-39 307 290
-0.01575896 0.74900001 -0.065662332 8.7301301e-39 308 290
-0.014445714 0.74900001 -0.065662332 8.7301301e-39 309 290
-0.013132467 0.74900001 -0.065662332 8.8215998e-39 310 290
-0.01181922 0.74900001 -0.065662332 8.8215998e-39 311 290
-0.010505973 0.74900001 -0.065662332 9.0971105e-39 312 290
-0.0091927266 0.74900001 -0.065662332 9.1893076e-39 313 290
-0.0078794798 0.74900001 -0.065662332 9.1911208e-39 314 290
-0.006575 0.75 -0.065749995 9.5602635e-39 315 290
-0.00526 0.75 -0.065749995 1.0209924e-38 316 290
-0.003945 0.75 -0.065749995 1.1777608e-38 317 290
-0.00263 0.75 -0.065749995 1.0675551e-38 318 290
-0.001315 0.75 -0.065749995 8.9241931e-39 319 290
0 0.75 -0.065749995 9.10213e-39 320 290
0.001315 0.75 -0.065749995 8.5489576e-39 321 290
0.00263 0.75 -0.065749995 8.9145185e-39 322 290
0.003945 0.75 -0.065749995 8.730486e-39 323 290
0.00526 0.75 -0.065749995 9.0045646e-39 324 290
0.006575 0.75 -0.065749995 9.0045646e-39 325 290
0.00789 0.75 -0.065749995 9.0042086e-39 326 290
0.0092049995 0.75 -0.065749995 9.0042086e-39 327 290
0.01052 0.75 -0.065749995 8.913092e-39 328 290
0.011835 0.75 -0.065749995 8.913092e-39 329 290
0.01315 0.75 -0.065749995 8.7297797e-39 330 290
0.014465 0.75 -0.065749995 8.6375841e-39 331 290
0.01578 0.75 -0.065749995 8.6379471e-39 332 290
0.017095 0.75 -0.065749995 8.7305028e-39 333 290
0.018409999 0.75 -0.065749995 8.7312217e-39 334 290
0.0196987 0.74900001 -0.065662332 8.5468318e-39 335 290
0.021011947 0.74900001 -0.065662332 8.7305e-39 336 290
0.022325192 0.74900001 -0.065662332 8.7305e-39 337 290
0.02363844 0.74900001 -0.065662332 8.7305e-39 338 290
0.024951685 0.74900001 -0.065662332 8.638303e-39 339 290
0.026264934 0.74900001 -0.065662332 8.7312217e-39 340 290
0.027578179 0.74900001 -0.065662332 8.4546348e-39 341 290
0.028891427 0.74900001 -0.065662332 8.638303e-39 342 290
0.030204674 0.74900001 -0.065662332 8.638303e-39 343 290
0.031517919 0.74900001 -0.065662332 8.5464577e-39 344 290
0.032831166 0.74900001 -0.065662332 8.6386533e-39 345 290
0.034189999 0.75 -0.065749995 8.3638587e-39 346 290
0.03545766 0.74900001 -0.065662332 8.3638587e-39 347 290
0.036770906 0.74900001 -0.065662332 8.3635084e-39 348 290
0.038084153 0.74900001 -0.065662332 8.2713127e-39 349 290
0.0393974 0.74900001 -0.065662332 8.4535558e-39 350 290
0.040710647 0.74900001 -0.065662332 8.5457514e-39 351 290
0.042023893 0.74900001 -0.065662332 8.3627951e-39 352 290
0.04333714 0.74900001 -0.065662332 8.3627951e-39 353 290
0.044650383 0.74900001 -0.065662332 8.3627895e-39 354 290
0.045963634 0.74900001 -0.065662332 8.3627895e-39 355 290
0.047276881 0.74900001 -0.065662332 8.4549851e-39 356 290
0.048590127 0.74900001 -0.065662332 8.3627895e-39 357 290
0.04990337 0.74900001 -0.065662332 8.3631552e-39 358 290
0.051216617 0.74900001 -0.065662332 8.3631552e-39 359 290
0.052529868 0.74900001 -0.065662332 8.3631552e-39 360 290
0.053843111 0.74900001 -0.065662332 8.3631552e-39 361 290
0.055156358 0.74900001 -0.065662332 8.6379471e-39 362 290
0.056469604 0.74900001 -0.065662332 8.6379471e-39 363 290
0.057782855 0.74900001 -0.065662332 8.2709596e-39 364 290
0.059096102 0.74900001 -0.065662332 7.9947328e-39 365 290
0.060409348 0.74900001 -0.065662332 7.6270237e-39 366 290
0.061722592 0.74900001 -0.065662332 7.7192193e-39 367 290
0.063035838 0.74900001 -0.065662332 7.8124926e-39 368 290
0.064349085 0.74900001 -0.065662332 7.9046882e-39 369 290
0.065662332 0.74900001 -0.065662332 8.3627895e-39 370 290
0.066975579 0.74900001 -0.065662332 8.4549851e-39 371 290
0.068288825 0.74900001 -0.065662332 8.6379344e-39 372 290
0.069602072 0.74900001 -0.065662332 8.6379344e-39 373 290
0.070915319 0.74900001 -0.065662332 8.6379344e-39 374 290
0.072228566 0.74900001 -0.065662332 8.6379344e-39 375 290
0.073541813 0.74900001 -0.065662332 8.7290483e-39 376 290
0.074855059 0.74900001 -0.065662332 8.8216026e-39 377 290
0.076168306 0.74900001 -0.065662332 8.6386533e-39 378 290
0.077481553 0.74900001 -0.065662332 8.6386533e-39 379 290
0.0787948 0.74900001 -0.065662332 8.7301329e-39 380 290
0.080108039 0.74900001 -0.065662332 8.7301329e-39 381 290
0.081421293 0.74900001 -0.065662332 8.6386561e-39 382 290
0.082513615 0.74699998 -0.065486997 8.6386561e-39 383 290
0.083823353 0.74699998 -0.065486997 8.4549907e-39 384 290
0.085133098 0.74699998 -0.065486997 8.5471878e-39 385 290
0.086442836 0.74699998 -0.065486997 9.7439163e-39 386 290
0.0876351 0.74599999 -0.065399326 1.1587469e-38 387 290
0.088943094 0.74599999 -0.065399326 1.2513019e-38 388 290
0.090251073 0.74599999 -0.065399326 1.2605215e-38 389 290
0.091559067 0.74599999 -0.065399326 1.2052763e-38 390 290
0.092618078 0.74400002 -0.065223999 9.4712852e-39 391 290
0.093670078 0.74199998 -0.065048665 8.2795818e-39 392 290
0.094971053 0.74199998 -0.065048665 1.2059603e-38 393 290
0.096142277 0.741 -0.064960994 1.3534354e-38 394 290
0.097441494 0.741 -0.064960994 1.3073735e-38 395 290
0.098340951 0.73799998 -0.064697996 1.3166634e-38 396 290
0.099364907 0.736 -0.064522661 1.1875895e-38 397 290
0.10038184 0.73400003 -0.064347334 9.9275788e-39 398 290
0.10153027 0.73299998 -0.064259663 7.9914818e-39 399 290
0.10253493 0.73100001 -0.064084329 8.9181157e-39 400 290
0.10339055 0.72799999 -0.063821331 9.0103113e-39 401 290
0.10466698 0.72799999 -0.063821331 8.6404554e-39 402 290
0.10579788 0.727 -0.06373366 8.3635084e-39 403 290
0.106778 0.72500002 -0.063558333 8.3635112e-39 404 290
0.10775109 0.72299999 -0.063382991 8.2713155e-39 405 290
0.10901875 0.72299999 -0.063382991 8.0876473e-39 406 290
0.1098288 0.72000003 -0.06312 8.0876473e-39 407 290
0.1110912 0.72000003 -0.06312 8.3631552e-39 408 290
0.10923266 0.69999999 -0.061366666 8.6401022e-39 409 290
0.11046 0.69999999 -0.061366666 8.7333727e-39 410 290
0.11136822 0.69800001 -0.061191335 8.7333727e-39 411 290
0.11243074 0.69700003 -0.061103668 8.8259186e-39 412 290
0.11267446 0.69099998 -0.060577665 8.8259186e-39 413 290
0.11339158 0.68800002 -0.060314666 8.8255655e-39 414 290
0.11443129 0.68699998 -0.060226995 9.0099582e-39 415 290
0.11546752 0.68599999 -0.060139328 8.2777965e-39 416 290
0.11633015 0.68400002 -0.059964001 8.6469392e-39 417 290
0.11752943 0.68400002 -0.059964001 6.5401066e-39 418 290
0.11838155 0.68199998 -0.059788663 6.6323022e-39 419 290
0.11922666 0.68000001 -0.059613332 6.0820053e-39 420 290
0.12024184 0.67900002 -0.059525665 5.9894509e-39 421 290
0.12143236 0.67900002 -0.059525665 5.6195824e-39 422 290
0.12262288 0.67900002 -0.059525665 4.2366479e-39 423 290
0.12399573 0.68000001 -0.059613332 9.211612e-39 424 290
0.1257403 0.68300003 -0.059876334 1.326858e-38 425 290
-0.068259016 0.68300003 -0.061073858 1.4565465e-38 263 291
-0.0669633 0.68199998 -0.060984433 1.2995952e-38 264 291
-0.065767527 0.68199998 -0.060984433 8.9393439e-39 265 291
-0.064571753 0.68199998 -0.060984433 5.9829517e-39 266 291
-0.063375987 0.68199998 -0.060984433 7.0892979e-39 267 291
-0.062180214 0.68199998 -0.060984433 6.6330084e-39 268 291
-0.0608056 0.68000001 -0.0608056 6.3560628e-39 269 291
-0.059613332 0.68000001 -0.0608056 5.9883607e-39 270 291
-0.058592889 0.68199998 -0.060984433 5.7117752e-39 271 291
-0.05739712 0.68199998 -0.060984433 6.260633e-39 272 291
-0.056201346 0.68199998 -0.060984433 6.0762403e-39 273 291
-0.055086225 0.68300003 -0.061073858 8.5489786e-39 274 291
-0.053888701 0.68300003 -0.061073858 8.3645888e-39 275 291
-0.05292261 0.68599999 -0.061342116 8.9141654e-39 276 291
-0.051719822 0.68599999 -0.061342116 8.6379372e-39 277 291
-0.050885238 0.69099998 -0.061789215 8.3627951e-39 278 291
-0.047250576 0.69099998 -0.061789215 8.0865753e-39 281 291
-0.047357533 0.73000002 -0.0652766 7.8121394e-39 283 291
-0.046077598 0.73000002 -0.0652766 7.1692854e-39 284 291
-0.044797666 0.73000002 -0.0652766 7.1692854e-39 285 291
-0.043577347 0.73100001 -0.065366022 6.2527269e-39 286 291
-0.042469237 0.73400003 -0.06563428 6.2527269e-39 287 291
-0.041294504 0.736 -0.065813117 5.7027901e-39 288 291
-0.040112756 0.73799998 -0.06599196 5.7027901e-39 289 291
-0.038818799 0.73799998 -0.06599196 6.3456442e-39 290 291
-0.037575684 0.73900002 -0.066081382 6.714068e-39 291 291
-0.036378156 0.741 -0.066260219 7.8150205e-39 292 291
-0.03512628 0.74199998 -0.066349633 8.0919661e-39 293 291
-0.033825304 0.74199998 -0.066349633 8.3671111e-39 294 291
-0.032612 0.74400002 -0.066528477 8.4593081e-39 295 291
-0.031391677 0.74599999 -0.066707321 8.6426176e-39 296 291
-0.03008369 0.74599999 -0.066707321 8.6426176e-39 297 291
-0.028775707 0.74599999 -0.066707321 8.8255683e-39 298 291
-0.027504537 0.74699998 -0.066796735 8.7333727e-39 299 291
-0.026194798 0.74699998 -0.066796735 9.0052918e-39 300 291
-0.024885058 0.74699998 -0.066796735 8.9130948e-39 301 291
-0.023575317 0.74699998 -0.066796735 8.637231e-39 302 291
-0.022265578 0.74699998 -0.066796735 8.5450354e-39 303 291
-0.020955838 0.74699998 -0.066796735 8.5450326e-39 304 291
-0.019646099 0.74699998 -0.066796735 8.6372282e-39 305 291
-0.018385453 0.74900001 -0.066975579 8.4549907e-39 306 291
-0.017072206 0.74900001 -0.066975579 8.5471878e-39 307 291
-0.01575896 0.74900001 -0.066975579 8.6386533e-39 308 291
-0.014445714 0.74900001 -0.066975579 8.6386533e-39 309 291
-0.013132467 0.74900001 -0.066975579 8.9145185e-39 310 291
-0.01181922 0.74900001 -0.066975579 8.730486e-39 311 291
-0.010505973 0.74900001 -0.066975579 8.9141626e-39 312 291
-0.0091927266 0.74900001 -0.066975579 9.006717e-39 313 291
-0.0078794798 0.74900001 -0.066975579 9.0985623e-39 314 291
-0.0065662335 0.74900001 -0.066975579 9.1907579e-39 315 291
-0.0052529867 0.74900001 -0.066975579 9.5588117e-39 316 291
-0.0039397399 0.74900001 -0.066975579 1.0204181e-38 317 291
-0.0026264933 0.74900001 -0.066975579 1.0204171e-38 318 291
-0.0013132467 0.74900001 -0.066975579 9.9272257e-39 319 291
0 0.74900001 -0.066975579 9.0981909e-39 320 291
0.0013132467 0.74900001 -0.066975579 9.0981909e-39 321 291
0.0026264933 0.74900001 -0.066975579 8.9141654e-39 322 291
0.0039292197 0.74699998 -0.066796735 8.7301329e-39 323 291
0.0052389596 0.74699998 -0.066796735 9.0045646e-39 324 291
0.0065486995 0.74699998 -0.066796735 9.0967602e-39 325 291
0.0078794798 0.74900001 -0.066975579 8.913092e-39 326 291
0.0091927266 0.74900001 -0.066975579 8.913092e-39 327 291
0.010505973 0.74900001 -0.066975579 8.8208992e-39 328 291
0.01181922 0.74900001 -0.066975579 8.8208992e-39 329 291
0.013132467 0.74900001 -0.066975579 8.7297825e-39 330 291
0.014445714 0.74900001 -0.066975579 8.7297825e-39 331 291
0.01575896 0.74900001 -0.066975579 8.6379499e-39 332 291
0.017072206 0.74900001 -0.066975579 8.7301469e-39 333 291
0.018385453 0.74900001 -0.066975579 8.5468346e-39 334 291
0.019646099 0.74699998 -0.066796735 8.5468346e-39 335 291
0.020955838 0.74699998 -0.066796735 8.7305028e-39 336 291
0.022265578 0.74699998 -0.066796735 8.7305028e-39 337 291
0.023575317 0.74699998 -0.066796735 8.5471878e-39 338 291
0.024885058 0.74699998 -0.066796735 8.5471878e-39 339 291
0.026194798 0.74699998 -0.066796735 8.7304972e-39 340 291
0.027504537 0.74699998 -0.066796735 8.7304972e-39 341 291
0.028814279 0.74699998 -0.066796735 8.6386561e-39 342 291
0.030124018 0.74699998 -0.066796735 8.7308531e-39 343 291
0.031517919 0.74900001 -0.066975579 8.4553382e-39 344 291
0.032831166 0.74900001 -0.066975579 8.4553382e-39 345 291
0.034144413 0.74900001 -0.066975579 8.4553382e-39 346 291
0.035362978 0.74699998 -0.066796735 8.4553382e-39 347 291
0.036672719 0.74699998 -0.066796735 8.2713155e-39 348 291
0.03798246 0.74699998 -0.066796735 8.0872844e-39 349 291
0.0393974 0.74900001 -0.066975579 8.4535558e-39 350 291
0.040710647 0.74900001 -0.066975579 8.5457514e-39 351 291
0.042023893 0.74900001 -0.066975579 8.4549879e-39 352 291
0.04333714 0.74900001 -0.066975579 8.3627923e-39 353 291
0.044650383 0.74900001 -0.066975579 8.3627923e-39 354 291
0.045963634 0.74900001 -0.066975579 8.3627923e-39 355 291
0.047150634 0.74699998 -0.066796735 8.3631552e-39 356 291
0.048460379 0.74699998 -0.066796735 8.3631552e-39 357 291
0.049770117 0.74699998 -0.066796735 8.4549907e-39 358 291
0.051079858 0.74699998 -0.066796735 8.4549907e-39 359 291
0.052389596 0.74699998 -0.066796735 8.4549907e-39 360 291
0.053699337 0.74699998 -0.066796735 8.3627951e-39 361 291
0.055009075 0.74699998 -0.066796735 8.4549907e-39 362 291
0.056318816 0.74699998 -0.066796735 8.4549907e-39 363 291
0.057628557 0.74699998 -0.066796735 8.2709596e-39 364 291
0.058938295 0.74699998 -0.066796735 8.0869285e-39 365 291
0.060248036 0.74699998 -0.066796735 7.7202941e-39 366 291
0.061557774 0.74699998 -0.066796735 7.8124898e-39 367 291
0.062867515 0.74699998 -0.066796735 8.3631454e-39 368 291
0.06417726 0.74699998 -0.066796735 8.3631454e-39 369 291
0.065486997 0.74699998 -0.066796735 8.5461045e-39 370 291
0.066796735 0.74699998 -0.066796735 8.5461045e-39 371 291
0.068106472 0.74699998 -0.066796735 8.5461017e-39 372 291
0.069416218 0.74699998 -0.066796735 8.6386561e-39 373 291
0.070725955 0.74699998 -0.066796735 8.6386533e-39 374 291
0.072035693 0.74699998 -0.066796735 8.5464577e-39 375 291
0.073345438 0.74699998 -0.066796735 8.6379372e-39 376 291
0.074655175 0.74699998 -0.066796735 8.7301329e-39 377 291
0.07596492 0.74699998 -0.066796735 8.7308531e-39 378 291
0.07727465 0.74699998 -0.066796735 8.7308531e-39 379 291
0.0787948 0.74900001 -0.066975579 8.7301329e-39 380 291
0.079894133 0.74699998 -0.066796735 8.9141654e-39 381 291
0.081203878 0.74699998 -0.066796735 8.5461045e-39 382 291
0.082403161 0.74599999 -0.066707321 8.6383002e-39 383 291
0.08371114 0.74599999 -0.066707321 8.6386561e-39 384 291
0.085019127 0.74599999 -0.066707321 8.6386561e-39 385 291
0.086327121 0.74599999 -0.066707321 1.094462e-38 386 291
0.087400153 0.74400002 -0.066528477 1.241975e-38 387 291
0.088466182 0.74199998 -0.066349633 1.2973643e-38 388 291
0.089767151 0.74199998 -0.066349633 1.1682904e-38 389 291
0.091068126 0.74199998 -0.066349633 1.0668028e-38 390 291
0.092369102 0.74199998 -0.066349633 8.7319195e-39 391 291
0.093543842 0.741 -0.066260219 7.813196e-39 392 291
0.094843052 0.741 -0.066260219 1.0947489e-38 393 291
0.095882788 0.73900002 -0.066081382 1.1596431e-38 394 291
0.097178504 0.73900002 -0.066081382 1.1228009e-38 395 291
0.098340951 0.73799998 -0.06599196 1.058299e-38 396 291
0.099364907 0.736 -0.065813117 9.6606735e-39 397 291
0.10038184 0.73400003 -0.06563428 9.9300956e-39 398 291
0.10125324 0.73100001 -0.065366022 9.9300956e-39 399 291
0.10239466 0.73000002 -0.0652766 1.0852059e-38 400 291
0.10339055 0.72799999 -0.065097757 1.0482916e-38 401 291
0.1045232 0.727 -0.065008335 9.4669664e-39 402 291
0.10550684 0.72500002 -0.064829499 9.2825752e-39 403 291
0.106778 0.72500002 -0.064829499 8.2723931e-39 404 291
0.10775109 0.72299999 -0.064650662 8.1801961e-39 405 291
0.10901875 0.72299999 -0.064650662 8.179843e-39 406 291
0.11028641 0.72299999 -0.064650662 8.179843e-39 407 291
0.10800533 0.69999999 -0.062593997 8.6379471e-39 408 291
0.10923266 0.69999999 -0.062593997 8.9148941e-39 409 291
0.1101444 0.69800001 -0.062415157 8.7333727e-39 410 291
0.11120867 0.69700003 -0.062325738 8.9177653e-39 411 291
0.11178552 0.69300002 -0.061968062 8.9188345e-39 412 291
0.1125114 0.69 -0.061699796 8.8266389e-39 413 291
0.11306194 0.68599999 -0.061342116 8.9181185e-39 414 291
0.11426473 0.68599999 -0.061342116 8.9181185e-39 415 291
0.11479424 0.68199998 -0.060984433 7.8196924e-39 416 291
0.11564986 0.68000001 -0.0608056 8.1888351e-39 417 291
0.11684213 0.68000001 -0.0608056 6.1742009e-39 418 291
0.11786082 0.67900002 -0.060716182 6.358232e-39 419 291
0.11887599 0.67799997 -0.060626756 6.0816522e-39 420 291
0.11971059 0.676 -0.06044792 5.9894565e-39 421 291
0.12089584 0.676 -0.06044792 5.709627e-39 422 291
0.12208109 0.676 -0.06044792 4.7873106e-39 423 291
0.12326635 0.676 -0.06044792 1.0320125e-38 424 291
0.1255562 0.68199998 -0.060984433 1.4284537e-38 425 291
-0.068259016 0.68300003 -0.06227139 1.456331e-38 263 292
-0.0669633 0.68199998 -0.062180214 1.3826804e-38 264 292
-0.065574668 0.68000001 -0.061997864 1.161411e-38 265 292
-0.064382397 0.68000001 -0.061997864 7.9194159e-39 266 292
-0.063190132 0.68000001 -0.061997864 6.1673387e-39 267 292
-0.061997864 0.68000001 -0.061997864 7.4598726e-39 268 292
-0.0608056 0.68000001 -0.061997864 7.2754814e-39 269 292
-0.059613332 0.68000001 -0.061997864 6.1731037e-39 270 292
-0.058421064 0.68000001 -0.061997864 5.8965154e-39 271 292
-0.057228796 0.68000001 -0.061997864 6.3528286e-39 272 292
-0.056201346 0.68199998 -0.062180214 6.0762403e-39 273 292
-0.055086225 0.68300003 -0.06227139 7.4498309e-39 274 292
-0.053888701 0.68300003 -0.06227139 7.1736042e-39 275 292
-0.05292261 0.68599999 -0.062544905 8.7308503e-39 276 292
-0.051719822 0.68599999 -0.062544905 8.5464577e-39 277 292
-0.050885238 0.69099998 -0.063000768 8.5461045e-39 278 292
-0.049673684 0.69099998 -0.063000768 8.4539089e-39 279 292
-0.047357533 0.73000002 -0.066556528 7.7199438e-39 283 292
-0.046077598 0.73000002 -0.066556528 7.4451492e-39 284 292
-0.044797666 0.73000002 -0.066556528 7.3529536e-39 285 292
-0.043517731 0.73000002 -0.066556528 6.25308e-39 286 292
-0.042411376 0.73299998 -0.066830046 6.1605256e-39 287 292
-0.041182294 0.73400003 -0.066921227 5.3354495e-39 288 292
-0.040004052 0.736 -0.067103572 5.4276451e-39 289 292
-0.038818799 0.73799998 -0.067285918 5.8868338e-39 290 292
-0.037524838 0.73799998 -0.067285918 6.1630606e-39 291 292
-0.036279973 0.73900002 -0.06737709 7.6313551e-39 292 292
-0.035078939 0.741 -0.067559443 7.8161051e-39 293 292
-0.033779722 0.741 -0.067559443 8.458955e-39 294 292
-0.032524332 0.74199998 -0.067650609 8.458955e-39 295 292
-0.031307522 0.74400002 -0.067832954 8.7351691e-39 296 292
-0.030003037 0.74400002 -0.067832954 8.6429735e-39 297 292
-0.028775707 0.74599999 -0.068015307 8.8255683e-39 298 292
-0.027467718 0.74599999 -0.068015307 8.5486227e-39 299 292
-0.026159734 0.74599999 -0.068015307 8.9138151e-39 300 292
-0.024851745 0.74599999 -0.068015307 8.7297825e-39 301 292
-0.023543758 0.74599999 -0.068015307 8.5461074e-39 302 292
-0.022235774 0.74599999 -0.068015307 8.5461074e-39 303 292
-0.020927785 0.74599999 -0.068015307 8.5461074e-39 304 292
-0.019619798 0.74599999 -0.068015307 8.5461074e-39 305 292
-0.018336359 0.74699998 -0.068106472 8.4549879e-39 306 292
-0.017026618 0.74699998 -0.068106472 8.4549879e-39 307 292
-0.015716879 0.74699998 -0.068106472 8.5475409e-39 308 292
-0.014407139 0.74699998 -0.068106472 8.4549851e-39 309 292
-0.013097399 0.74699998 -0.068106472 8.9141654e-39 310 292
-0.011787659 0.74699998 -0.068106472 8.9141654e-39 311 292
-0.010477919 0.74699998 -0.068106472 9.0056422e-39 312 292
-0.0091681797 0.74699998 -0.068106472 9.0978378e-39 313 292
-0.0078584393 0.74699998 -0.068106472 9.0978406e-39 314 292
-0.0065486995 0.74699998 -0.068106472 9.0978406e-39 315 292
-0.0052389596 0.74699998 -0.068106472 9.2811683e-39 316 292
-0.0039292197 0.74699998 -0.068106472 9.0971371e-39 317 292
-0.0026194798 0.74699998 -0.068106472 9.1882566e-39 318 292
-0.0013097399 0.74699998 -0.068106472 9.3726478e-39 319 292
0 0.74699998 -0.068106472 8.7305028e-39 320 292
0.0013097399 0.74699998 -0.068106472 8.7305028e-39 321 292
0.0026194798 0.74699998 -0.068106472 9.0967602e-39 322 292
0.0039239596 0.74599999 -0.068015307 9.0967602e-39 323 292
0.0052319462 0.74599999 -0.068015307 9.0964043e-39 324 292
0.0065399334 0.74599999 -0.068015307 9.0964043e-39 325 292
0.0078479191 0.74599999 -0.068015307 8.913092e-39 326 292
0.0091681797 0.74699998 -0.068106472 8.913092e-39 327 292
0.010477919 0.74699998 -0.068106472 8.9130948e-39 328 292
0.011787659 0.74699998 -0.068106472 8.8208992e-39 329 292
0.013097399 0.74699998 -0.068106472 9.0038555e-39 330 292
0.014407139 0.74699998 -0.068106472 9.0964099e-39 331 292
0.015716879 0.74699998 -0.068106472 8.6379499e-39 332 292
0.017026618 0.74699998 -0.068106472 8.7301469e-39 333 292
0.018336359 0.74699998 -0.068106472 8.7301469e-39 334 292
0.019646099 0.74699998 -0.068106472 8.7301469e-39 335 292
0.020955838 0.74699998 -0.068106472 8.7301469e-39 336 292
0.022265578 0.74699998 -0.068106472 8.6379499e-39 337 292
0.023575317 0.74699998 -0.068106472 8.638303e-39 338 292
0.024885058 0.74699998 -0.068106472 8.8226956e-39 339 292
0.026194798 0.74699998 -0.068106472 8.7297769e-39 340 292
0.027467718 0.74599999 -0.068015307 8.7297769e-39 341 292
0.028775707 0.74599999 -0.068015307 8.7301329e-39 342 292
0.030124018 0.74699998 -0.068106472 8.7301329e-39 343 292
0.031433757 0.74699998 -0.068106472 8.7301301e-39 344 292
0.032743499 0.74699998 -0.068106472 8.6379344e-39 345 292
0.034053236 0.74699998 -0.068106472 8.5461017e-39 346 292
0.035362978 0.74699998 -0.068106472 8.5461017e-39 347 292
0.036672719 0.74699998 -0.068106472 8.3627951e-39 348 292
0.03798246 0.74699998 -0.068106472 8.2702407e-39 349 292
0.039292198 0.74699998 -0.068106472 8.3624392e-39 350 292
0.040601939 0.74699998 -0.068106472 8.4546348e-39 351 292
0.041911677 0.74699998 -0.068106472 8.3624392e-39 352 292
0.043221418 0.74699998 -0.068106472 8.3624392e-39 353 292
0.044531155 0.74699998 -0.068106472 8.363158e-39 354 292
0.045840897 0.74699998 -0.068106472 8.363158e-39 355 292
0.047150634 0.74699998 -0.068106472 8.3631608e-39 356 292
0.048460379 0.74699998 -0.068106472 8.3631608e-39 357 292
0.04970349 0.74599999 -0.068015307 8.4546348e-39 358 292
0.051011477 0.74599999 -0.068015307 8.4546348e-39 359 292
0.052319467 0.74599999 -0.068015307 8.5461074e-39 360 292
0.053627454 0.74599999 -0.068015307 8.5461074e-39 361 292
0.054788161 0.74400002 -0.067832954 8.5450326e-39 362 292
0.056092639 0.74400002 -0.067832954 8.6372282e-39 363 292
0.057551414 0.74599999 -0.068015307 8.3627923e-39 364 292
0.058859397 0.74599999 -0.068015307 8.2705967e-39 365 292
0.06016738 0.74599999 -0.068015307 8.0872816e-39 366 292
0.06147537 0.74599999 -0.068015307 8.0872816e-39 367 292
0.062783353 0.74599999 -0.068015307 8.5450326e-39 368 292
0.063919522 0.74400002 -0.067832954 8.5450326e-39 369 292
0.065223999 0.74400002 -0.067832954 8.5461074e-39 370 292
0.066707321 0.74599999 -0.068015307 8.5461074e-39 371 292
0.067832954 0.74400002 -0.067832954 8.4549851e-39 372 292
0.069137439 0.74400002 -0.067832954 8.4549851e-39 373 292
0.070441924 0.74400002 -0.067832954 8.4549851e-39 374 292
0.07193926 0.74599999 -0.068015307 8.4549851e-39 375 292
0.073247254 0.74599999 -0.068015307 8.5461045e-39 376 292
0.074555233 0.74599999 -0.068015307 8.7304972e-39 377 292
0.07596492 0.74699998 -0.068106472 8.7304972e-39 378 292
0.07727465 0.74699998 -0.068106472 8.8230516e-39 379 292
0.078584395 0.74699998 -0.068106472 8.7297769e-39 380 292
0.079787187 0.74599999 -0.068015307 8.7297769e-39 381 292
0.081095167 0.74599999 -0.068015307 8.638303e-39 382 292
0.082182243 0.74400002 -0.067832954 8.5461074e-39 383 292
0.083486721 0.74400002 -0.067832954 8.4546348e-39 384 292
0.084791198 0.74400002 -0.067832954 9.0078086e-39 385 292
0.085864238 0.74199998 -0.067650609 1.0116642e-38 386 292
0.087165214 0.74199998 -0.067650609 1.1960555e-38 387 292
0.088466182 0.74199998 -0.067650609 1.2145274e-38 388 292
0.089767151 0.74199998 -0.067650609 1.0946731e-38 389 292
0.091068126 0.74199998 -0.067650609 9.2854324e-39 390 292
0.092244618 0.741 -0.067559443 8.64007e-39 391 292
0.093291357 0.73900002 -0.06737709 8.3645649e-39 392 292
0.094587073 0.73900002 -0.06737709 1.0762011e-38 393 292
0.095753036 0.73799998 -0.067285918 1.1132589e-38 394 292
0.097046994 0.73799998 -0.067285918 1.0579415e-38 395 292
0.098074451 0.736 -0.067103572 1.0206702e-38 396 292
0.09909489 0.73400003 -0.066921227 9.6535283e-39 397 292
0.10024507 0.73299998 -0.066830046 9.7504001e-39 398 292
0.10125324 0.73100001 -0.066647708 1.0671996e-38 399 292
0.10211413 0.72799999 -0.066374183 1.0581931e-38 400 292
0.10324854 0.727 -0.06628301 9.7521699e-39 401 292
0.10423566 0.72500002 -0.066100664 9.1014139e-39 402 292
0.10521577 0.72299999 -0.065918319 8.9166639e-39 403 292
0.10648344 0.72299999 -0.065918319 8.3645916e-39 404 292
0.10775109 0.72299999 -0.065918319 8.1801989e-39 405 292
0.10901875 0.72299999 -0.065918319 8.4549879e-39 406 292
0.106778 0.69999999 -0.063821331 8.547185e-39 407 292
0.10800533 0.69999999 -0.063821331 8.5471878e-39 408 292
0.10892057 0.69800001 -0.063638985 8.8234145e-39 409 292
0.1101444 0.69800001 -0.063638985 8.8259354e-39 410 292
0.11120867 0.69700003 -0.06354782 8.9181311e-39 411 292
0.11178552 0.69300002 -0.063183114 9.0099582e-39 412 292
0.11202221 0.68699998 -0.062636077 8.9177625e-39 413 292
0.11256751 0.68300003 -0.06227139 8.6422532e-39 414 292
0.11359847 0.68199998 -0.062180214 8.9184814e-39 415 292
0.11428928 0.67900002 -0.061906695 7.3612352e-39 416 292
0.11547979 0.67900002 -0.061906695 7.8222134e-39 417 292
0.11649848 0.67799997 -0.061815511 6.357516e-39 418 292
0.11768723 0.67799997 -0.061815511 6.357516e-39 419 292
0.11852533 0.676 -0.061633173 6.3560908e-39 420 292
0.11971059 0.676 -0.061633173 6.079504e-39 421 292
0.120717 0.67500001 -0.061542001 5.3440843e-39 422 292
0.1219005 0.67500001 -0.061542001 6.173845e-39 423 292
0.123084 0.67500001 -0.061542001 1.2071118e-38 424 292
-0.066766933 0.68000001 -0.063190132 1.4195959e-38 264 293
-0.065574668 0.68000001 -0.063190132 1.3458394e-38 265 293
-0.064382397 0.68000001 -0.063190132 1.0872565e-38 266 293
-0.063190132 0.68000001 -0.063190132 7.1843802e-39 267 293
-0.061997864 0.68000001 -0.063190132 6.1723834e-39 268 293
-0.0608056 0.68000001 -0.063190132 7.0017854e-39 269 293
-0.059613332 0.68000001 -0.063190132 6.0820025e-39 270 293
-0.058335152 0.67900002 -0.063097201 5.8054156e-39 271 293
-0.057144642 0.67900002 -0.063097201 6.3531944e-39 272 293
-0.056036532 0.68000001 -0.063190132 6.0769676e-39 273 293
-0.055005573 0.68199998 -0.063375987 7.6327831e-39 274 293
-0.053809796 0.68199998 -0.063375987 7.6327831e-39 275 293
-0.05276832 0.68400002 -0.063561834 8.7312161e-39 276 293
-0.051569041 0.68400002 -0.063561834 8.4549879e-39 277 293
-0.050811596 0.69 -0.064119399 8.3627951e-39 278 293
-0.049673684 0.69099998 -0.06421233 8.2702407e-39 279 293
-0.04846213 0.69099998 -0.06421233 7.9043351e-39 280 293
-0.047357533 0.73000002 -0.067836471 7.8121366e-39 283 293
-0.046077598 0.73000002 -0.067836471 7.261481e-39 284 293
-0.044674929 0.72799999 -0.067650609 7.261481e-39 285 293
-0.043398503 0.72799999 -0.067650609 5.7939067e-39 286 293
-0.0422378 0.73000002 -0.067836471 5.7939067e-39 287 293
-0.041126184 0.73299998 -0.068115242 5.2432497e-39 288 293
-0.039895348 0.73400003 -0.068208173 5.3354467e-39 289 293
-0.038608398 0.73400003 -0.068208173 5.978298e-39 290 293
-0.037423145 0.736 -0.06839402 6.2552436e-39 291 293
-0.036230877 0.73799998 -0.068579875 7.6309894e-39 292 293
-0.034984261 0.73900002 -0.068672806 7.9997705e-39 293 293
-0.033688545 0.73900002 -0.068672806 8.5504234e-39 294 293
-0.032480497 0.741 -0.068858653 8.734816e-39 295 293
-0.031223357 0.74199998 -0.068951584 8.7351691e-39 296 293
-0.029922385 0.74199998 -0.068951584 8.6429735e-39 297 293
-0.02869856 0.74400002 -0.069137439 8.7333727e-39 298 293
-0.027394081 0.74400002 -0.069137439 8.5486227e-39 299 293
-0.026089599 0.74400002 -0.069137439 8.6375841e-39 300 293
-0.024851745 0.74599999 -0.069323286 8.6375841e-39 301 293
-0.023543758 0.74599999 -0.069323286 8.638303e-39 302 293
-0.022235774 0.74599999 -0.069323286 8.638303e-39 303 293
-0.020927785 0.74599999 -0.069323286 8.5457514e-39 304 293
-0.019619798 0.74599999 -0.069323286 8.6379471e-39 305 293
-0.018336359 0.74699998 -0.069416218 8.6379471e-39 306 293
-0.017026618 0.74699998 -0.069416218 8.7305028e-39 307 293
-0.015716879 0.74699998 -0.069416218 8.5471878e-39 308 293
-0.014407139 0.74699998 -0.069416218 8.7312189e-39 309 293
-0.013097399 0.74699998 -0.069416218 8.7305028e-39 310 293
-0.011787659 0.74699998 -0.069416218 8.7305028e-39 311 293
-0.010477919 0.74699998 -0.069416218 9.0052918e-39 312 293
-0.0091681797 0.74699998 -0.069416218 9.0974875e-39 313 293
-0.0078479191 0.74599999 -0.069323286 9.005645e-39 314 293
-0.0065399334 0.74599999 -0.069323286 8.9134479e-39 315 293
-0.0052319462 0.74599999 -0.069323286 9.1882342e-39 316 293
-0.0039134403 0.74400002 -0.069137439 9.2807899e-39 317 293
-0.00260896 0.74400002 -0.069137439 9.0056422e-39 318 293
-0.00130448 0.74400002 -0.069137439 9.0056422e-39 319 293
0 0.74400002 -0.069137439 8.7308531e-39 320 293
0.00130448 0.74400002 -0.069137439 8.7308531e-39 321 293
0.00260896 0.74400002 -0.069137439 8.9134479e-39 322 293
0.0039134403 0.74400002 -0.069137439 9.005645e-39 323 293
0.0052179201 0.74400002 -0.069137439 9.005289e-39 324 293
0.0065223998 0.74400002 -0.069137439 9.0978434e-39 325 293
0.0078268806 0.74400002 -0.069137439 8.9141682e-39 326 293
0.0091313599 0.74400002 -0.069137439 8.7297769e-39 327 293
0.010463892 0.74599999 -0.069323286 8.8208936e-39 328 293
0.011771879 0.74599999 -0.069323286 8.8208936e-39 329 293
0.013079867 0.74599999 -0.069323286 9.0045646e-39 330 293
0.014387853 0.74599999 -0.069323286 9.0967602e-39 331 293
0.015695838 0.74599999 -0.069323286 8.6383002e-39 332 293
0.017003827 0.74599999 -0.069323286 8.7304972e-39 333 293
0.018311813 0.74599999 -0.069323286 8.7297769e-39 334 293
0.019619798 0.74599999 -0.069323286 8.9141682e-39 335 293
0.020927785 0.74599999 -0.069323286 8.5475409e-39 336 293
0.022235774 0.74599999 -0.069323286 8.5475409e-39 337 293
0.023543758 0.74599999 -0.069323286 8.7301329e-39 338 293
0.02478512 0.74400002 -0.069137439 8.9141654e-39 339 293
0.026089599 0.74400002 -0.069137439 8.7297769e-39 340 293
0.027394081 0.74400002 -0.069137439 8.7297769e-39 341 293
0.02869856 0.74400002 -0.069137439 8.7297769e-39 342 293
0.030003037 0.74400002 -0.069137439 8.7297769e-39 343 293
0.031307522 0.74400002 -0.069137439 8.6375813e-39 344 293
0.032612 0.74400002 -0.069137439 8.6375813e-39 345 293
0.033916477 0.74400002 -0.069137439 8.3624392e-39 346 293
0.035220962 0.74400002 -0.069137439 8.2702435e-39 347 293
0.036525439 0.74400002 -0.069137439 8.4528397e-39 348 293
0.037829921 0.74400002 -0.069137439 8.5450354e-39 349 293
0.039134398 0.74400002 -0.069137439 8.3627951e-39 350 293
0.040438879 0.74400002 -0.069137439 8.3627951e-39 351 293
0.04174336 0.74400002 -0.069137439 8.3627951e-39 352 293
0.043047838 0.74400002 -0.069137439 8.4549907e-39 353 293
0.044352323 0.74400002 -0.069137439 8.4546376e-39 354 293
0.045779534 0.74599999 -0.069323286 8.362442e-39 355 293
0.047087517 0.74599999 -0.069323286 8.5457542e-39 356 293
0.048395503 0.74599999 -0.069323286 8.6379499e-39 357 293
0.04957024 0.74400002 -0.069137439 8.5461074e-39 358 293
0.050874721 0.74400002 -0.069137439 8.638303e-39 359 293
0.052179199 0.74400002 -0.069137439 8.5461017e-39 360 293
0.05348368 0.74400002 -0.069137439 8.4539061e-39 361 293
0.054640878 0.74199998 -0.068951584 8.5457416e-39 362 293
0.05594185 0.74199998 -0.068951584 8.6379372e-39 363 293
0.057242822 0.74199998 -0.068951584 8.2705967e-39 364 293
0.058701597 0.74400002 -0.069137439 8.2705967e-39 365 293
0.060006075 0.74400002 -0.069137439 8.4531929e-39 366 293
0.061310563 0.74400002 -0.069137439 8.4531929e-39 367 293
0.062615044 0.74400002 -0.069137439 8.4535558e-39 368 293
0.063747689 0.74199998 -0.068951584 8.4535558e-39 369 293
0.065048665 0.74199998 -0.068951584 8.3627923e-39 370 293
0.066528477 0.74400002 -0.069137439 8.4549879e-39 371 293
0.067650609 0.74199998 -0.068951584 8.4549851e-39 372 293
0.068951584 0.74199998 -0.068951584 8.5475409e-39 373 293
0.07025256 0.74199998 -0.068951584 8.4549879e-39 374 293
0.071746401 0.74400002 -0.069137439 8.3627923e-39 375 293
0.073050879 0.74400002 -0.069137439 8.6379471e-39 376 293
0.074355356 0.74400002 -0.069137439 8.5457514e-39 377 293
0.075659841 0.74400002 -0.069137439 8.6379471e-39 378 293
0.076964319 0.74400002 -0.069137439 8.6379471e-39 379 293
0.078268796 0.74400002 -0.069137439 8.638303e-39 380 293
0.079359367 0.74199998 -0.068951584 8.638303e-39 381 293
0.080660343 0.74199998 -0.068951584 8.5461045e-39 382 293
0.081961311 0.74199998 -0.068951584 8.6383002e-39 383 293
0.083262287 0.74199998 -0.068951584 8.6379471e-39 384 293
0.084563263 0.74199998 -0.068951584 8.7305028e-39 385 293
0.085748516 0.741 -0.068858653 8.9141682e-39 386 293
0.087047733 0.741 -0.068858653 9.2829507e-39 387 293
0.088346958 0.741 -0.068858653 9.0999818e-39 388 293
0.089646183 0.741 -0.068858653 8.823755e-39 389 293
0.090945393 0.741 -0.068858653 9.0067114e-39 390 293
0.091995649 0.73900002 -0.068672806 9.6520808e-39 391 293
0.093165115 0.73799998 -0.068579875 1.0487217e-38 392 293
0.094459072 0.73799998 -0.068579875 1.2699552e-38 393 293
0.095493548 0.736 -0.06839402 1.2331483e-38 394 293
0.096783996 0.736 -0.06839402 1.0395374e-38 395 293
0.097807944 0.73400003 -0.068208173 9.1053768e-39 396 293
0.09909489 0.73400003 -0.068208173 8.9209855e-39 397 293
0.099971563 0.73100001 -0.067929395 9.6567555e-39 398 293
0.10111474 0.73000002 -0.067836471 1.0117374e-38 399 293
0.10211413 0.72799999 -0.067650609 1.0299601e-38 400 293
0.1029645 0.72500002 -0.067371838 9.6542318e-39 401 293
0.10394812 0.72299999 -0.067185976 8.2723931e-39 402 293
0.10507025 0.722 -0.067093052 8.5489786e-39 403 293
0.10633615 0.722 -0.067093052 8.3642384e-39 404 293
0.10760206 0.722 -0.067093052 8.3642384e-39 405 293
0.10570145 0.70099998 -0.065141588 8.3645888e-39 406 293
0.106778 0.69999999 -0.065048665 8.3645888e-39 407 293
0.10800533 0.69999999 -0.065048665 8.548973e-39 408 293
0.10892057 0.69800001 -0.06486281 8.6415274e-39 409 293
0.1101444 0.69800001 -0.06486281 8.8259186e-39 410 293
0.11120867 0.69700003 -0.064769886 8.9181157e-39 411 293
0.11178552 0.69300002 -0.064398177 9.1936264e-39 412 293
0.11136997 0.68300003 -0.063468911 9.1014307e-39 413 293
0.11190825 0.67900002 -0.063097201 8.6429735e-39 414 293
0.11309877 0.67900002 -0.063097201 8.5507765e-39 415 293
0.11412095 0.67799997 -0.063004278 7.0860805e-39 416 293
0.11530972 0.67799997 -0.063004278 7.4545029e-39 417 293
0.11615483 0.676 -0.062818423 6.2642427e-39 418 293
0.11734008 0.676 -0.062818423 6.3567971e-39 419 293
0.11835 0.67500001 -0.062725499 5.896542e-39 420 293
0.11935642 0.67400002 -0.062632568 4.88203e-39 421 293
0.12018047 0.67199999 -0.062446721 5.3444402e-39 422 293
0.12135871 0.67199999 -0.062446721 9.401048e-39 423 293
-0.066766933 0.68000001 -0.064382397 1.3919379e-38 264 294
-0.065478235 0.67900002 -0.064287722 1.4195606e-38 265 294
-0.064287722 0.67900002 -0.064287722 1.290339e-38 266 294
-0.063097201 0.67900002 -0.064287722 9.6765432e-39 267 294
-0.061906695 0.67900002 -0.064287722 6.4489675e-39 268 294
-0.060716182 0.67900002 -0.064287722 6.5411631e-39 269 294
-0.059525665 0.67900002 -0.064287722 6.4500591e-39 270 294
-0.058335152 0.67900002 -0.064287722 6.1734722e-39 271 294
-0.057144642 0.67900002 -0.064287722 6.2624281e-39 272 294
-0.055954125 0.67900002 -0.064287722 6.0780368e-39 273 294
-0.054844268 0.68000001 -0.064382397 6.3506734e-39 274 294
-0.053809796 0.68199998 -0.064571753 6.1662822e-39 275 294
-0.052614026 0.68199998 -0.064571753 8.0905214e-39 276 294
-0.051569041 0.68400002 -0.064761117 7.8139359e-39 277 294
-0.050664321 0.68800002 -0.065139838 8.6386561e-39 278 294
-0.049601797 0.69 -0.065329194 8.4539061e-39 279 294
-0.044490833 0.72500002 -0.068643004 7.0770897e-39 285 294
-0.043219667 0.72500002 -0.068643004 6.0690517e-39 286 294
-0.042064216 0.727 -0.06883236 5.9768546e-39 287 294
-0.040845651 0.72799999 -0.068927035 5.0599374e-39 288 294
-0.039840993 0.73299998 -0.069400437 5.0599374e-39 289 294
-0.038555797 0.73299998 -0.069400437 5.7953515e-39 290 294
-0.037321456 0.73400003 -0.069495119 6.0722985e-39 291 294
-0.036034506 0.73400003 -0.069495119 7.173251e-39 292 294
-0.034936916 0.73799998 -0.069873832 7.4498365e-39 293 294
