# .PCD v0.7 - Point Cloud Data file format
VERSION 0.7
FIELDS x y z
SIZE 4 4 4
TYPE F F F
COUNT 1 1 1
WIDTH 1300
HEIGHT 1
VIEWPOINT 0 0 0 1 0 0 0
POINTS 1300
DATA ascii
-0.035952725 0.02002573 0.017418912
-0.034584709 0.02002573 0.015389284
-0.037637018 0.02002573 0.020678062
-0.0413118 0.010248281 0.023937214
-0.041103013 0.010248281 0.023224249
-0.041103013 0.012132201 0.023937214
-0.040883861 0.01350743 0.023937214
-0.042199463 0.010248281 0.027196366
-0.041735433 0.01350743 0.027196366
-0.041103013 0.01350743 0.024720117
-0.0400929 0.016766582 0.023937214
-0.038874991 0.02002573 0.023937214
-0.037843861 0.02002573 0.021179549
-0.041103013 0.016375743 0.027196366
-0.041003115 0.016766582 0.027196366
-0.03993734 0.02002573 0.027196366
-0.034584709 0.022770174 0.017418912
-0.034307953 0.023284882 0.017418912
-0.03208087 0.026544034 0.017418912
-0.03132556 0.026544034 0.016467977
-0.03602263 0.023284882 0.020678062
-0.034584709 0.023284882 0.017883468
-0.034584709 0.025715768 0.020678062
-0.034052894 0.026544034 0.020678062
-0.03132556 0.027451545 0.017418912
-0.031369656 0.029803187 0.020678062
-0.03132556 0.029803187 0.020602997
-0.03132556 0.029850118 0.020678062
-0.037843861 0.022353016 0.023937214
-0.03845045 0.023284882 0.027196366
-0.037843861 0.023284882 0.025300514
-0.037843861 0.024493679 0.027196366
-0.037378997 0.023284882 0.023937214
-0.035390154 0.026544034 0.023937214
-0.034584709 0.026544034 0.021893781
-0.03664704 0.026544034 0.027196366
-0.034584709 0.027785666 0.023937214
-0.033045519 0.029803187 0.023937214
-0.03132556 0.031632908 0.023937214
-0.034584709 0.029480919 0.027196366
-0.034333952 0.029803187 0.027196366
-0.03132556 0.032917306 0.027196366
-0.043026678 0.010248281 0.030455515
-0.042540364 0.01350743 0.030455515
-0.043680947 0.010248281 0.033714667
-0.043223031 0.01350743 0.033714667
-0.04172466 0.016766582 0.030455515
-0.041103013 0.016766582 0.027648546
-0.041103013 0.018928826 0.030455515
-0.04075196 0.02002573 0.030455515
-0.042430952 0.016766582 0.033714667
-0.041356064 0.02002573 0.033714667
-0.041103013 0.02002573 0.032232285
-0.04404844 0.010248281 0.036973815
-0.04361172 0.01350743 0.036973815
-0.042810649 0.016766582 0.036973815
-0.041653968 0.02002573 0.036973815
-0.039352946 0.023284882 0.030455515
-0.037843861 0.026096188 0.030455515
-0.041103013 0.020692639 0.033714667
-0.039924562 0.023284882 0.033714667
-0.038128302 0.026544034 0.033714667
-0.037843861 0.026544034 0.031817243
-0.037581276 0.026544034 0.030455515
-0.037843861 0.027033962 0.033714667
-0.035250403 0.029803187 0.030455515
-0.034584709 0.029803187 0.027975708
-0.034584709 0.030622296 0.030455515
-0.032245718 0.033062339 0.030455515
-0.03132556 0.033062339 0.027642991
-0.035874575 0.029803187 0.033714667
-0.034584709 0.031331226 0.033714667
-0.032921173 0.033062339 0.033714667
-0.041103013 0.021300048 0.036973815
-0.040122788 0.023284882 0.036973815
-0.038364917 0.026544034 0.036973815
-0.037843861 0.027465239 0.036973815
-0.03615991 0.029803187 0.036973815
-0.034584709 0.031630822 0.036973815
-0.033204716 0.033062339 0.036973815
-0.029078037 0.029803187 0.017418912
-0.02806641 0.029803187 0.016298555
-0.02806641 0.030746393 0.017418912
-0.025187463 0.033062339 0.017418912
-0.024807259 0.033062339 0.0170433
-0.02806641 0.032865867 0.020678062
-0.027814191 0.033062339 0.020678062
-0.021548107 0.033062339 0.014416425
-0.029713413 0.033062339 0.023937214
-0.02806641 0.033062339 0.02105936
-0.031159541 0.033062339 0.027196366
-0.03132556 0.033904791 0.030455515
-0.03132556 0.034567706 0.033714667
-0.03132556 0.034841403 0.036973815
-0.024807259 0.033318445 0.017418912
-0.024807259 0.035218276 0.020678062
-0.021548107 0.035291731 0.017418912
-0.019272719 0.036321484 0.017418912
-0.018288955 0.036321484 0.016775683
-0.018288955 0.0367084 0.017418912
-0.022874683 0.036321484 0.020678062
-0.021548107 0.036321484 0.01932206
-0.021548107 0.036986649 0.020678062
-0.018288955 0.038516819 0.020678062
-0.02806641 0.034366041 0.023937214
-0.025285758 0.036321484 0.023937214
-0.024807259 0.036321484 0.023184709
-0.024807259 0.036610149 0.023937214
-0.02806641 0.035595134 0.027196366
-0.027038071 0.036321484 0.027196366
-0.024807259 0.037778586 0.027196366
-0.021548107 0.038516678 0.023937214
-0.01927913 0.039580636 0.023937214
-0.018288955 0.039580636 0.023000129
-0.02175691 0.039580636 0.027196366
-0.021548107 0.039580636 0.026847165
-0.018288955 0.039969735 0.023937214
-0.021548107 0.039687835 0.027196366
-0.018288955 0.041196905 0.027196366
-0.015029807 0.036321484 0.015140396
-0.015029807 0.037850834 0.017418912
-0.011770654 0.038668387 0.017418912
-0.015196949 0.039580636 0.020678062
-0.015029807 0.039580636 0.020578403
-0.011770654 0.039580636 0.019040462
-0.008511506 0.039165206 0.017418912
-0.008511506 0.039580636 0.018153388
-0.015029807 0.039627567 0.020678062
-0.011770654 0.040418208 0.020678062
-0.008511506 0.04091198 0.020678062
-0.015029807 0.041090436 0.023937214
-0.011770654 0.041849315 0.023937214
-0.015029807 0.042213582 0.027196366
-0.011770654 0.042775266 0.027196366
-0.008511506 0.042264506 0.023937214
-0.011231285 0.042839788 0.027196366
-0.008511506 0.042839788 0.026015051
-0.008511506 0.043120354 0.027196366
-0.028338613 0.036321484 0.030455515
-0.02806641 0.036321484 0.029692434
-0.02806641 0.03651201 0.030455515
-0.024807259 0.038742431 0.030455515
-0.029245527 0.036321484 0.033714667
-0.02806641 0.037213668 0.033714667
-0.024807259 0.039444931 0.033714667
-0.023407154 0.039580636 0.030455515
-0.024567474 0.039580636 0.033714667
-0.021548107 0.040614709 0.030455515
-0.018288955 0.042148337 0.030455515
-0.021548107 0.041252822 0.033714667
-0.018288955 0.04275573 0.033714667
-0.029640842 0.036321484 0.036973815
-0.02806641 0.03759338 0.036973815
-0.025023676 0.039580636 0.036973815
-0.024807259 0.039580636 0.034662705
-0.024807259 0.039580636 0.038752437
-0.024807259 0.039689727 0.036973815
-0.021548107 0.041335598 0.036973815
-0.018288955 0.04282815 0.036973815
-0.015890878 0.042839788 0.030455515
-0.015029807 0.042839788 0.029705577
-0.011770654 0.042839788 0.027489688
-0.015029807 0.043026857 0.030455515
-0.011770654 0.043584086 0.030455515
-0.018051594 0.042839788 0.033714667
-0.015029807 0.043760918 0.033714667
-0.011770654 0.044462338 0.033714667
-0.008511506 0.043995276 0.030455515
-0.008511506 0.044881292 0.033714667
-0.018258862 0.042839788 0.036973815
-0.015029807 0.043975115 0.036973815
-0.011770654 0.044825532 0.036973815
-0.008511506 0.045244724 0.036973815
-0.043667752 0.010248281 0.04349212
-0.043122508 0.01350743 0.04349212
-0.04266084 0.010248281 0.046751268
-0.042222984 0.01350743 0.046751268
-0.042155456 0.016766582 0.04349212
-0.041103013 0.020001553 0.04349212
-0.041103013 0.02002573 0.043445759
-0.041094638 0.02002573 0.04349212
-0.04139813 0.016766582 0.046751268
-0.041103013 0.017749161 0.046751268
-0.040330295 0.02002573 0.046751268
-0.041542657 0.010248281 0.05001042
-0.042080872 0.010248281 0.048380844
-0.04249645 0.011877853 0.046751268
-0.041939065 0.011877853 0.048380844
-0.041720718 0.01350743 0.048380844
-0.041412197 0.011877853 0.05001042
-0.041253537 0.01350743 0.05001042
-0.041732565 0.008618705 0.05001042
-0.041262388 0.008618705 0.051639993
-0.041103013 0.0099460408 0.051639993
-0.041103013 0.010248281 0.051546995
-0.041103013 0.008618705 0.052173477
-0.041078672 0.010248281 0.051639993
-0.040741734 0.008618705 0.053269569
-0.04062891 0.010248281 0.053269569
-0.041103013 0.011877853 0.051205445
-0.041103013 0.01350743 0.050657969
-0.041003779 0.011877853 0.051639993
-0.040905476 0.01350743 0.051639993
-0.040623989 0.011877853 0.053269569
-0.040576555 0.01350743 0.053269569
-0.041848682 0.015137006 0.046751268
-0.041386534 0.015137006 0.048380844
-0.041103013 0.016232699 0.048380844
-0.041103013 0.016766582 0.04783326
-0.041103013 0.01446436 0.05001042
-0.041103013 0.015137006 0.049430247
-0.040953405 0.016766582 0.048380844
-0.040966347 0.015137006 0.05001042
-0.040554829 0.016766582 0.05001042
-0.040896814 0.018396154 0.046751268
-0.040446788 0.018396154 0.048380844
-0.03987335 0.02002573 0.048380844
-0.040049899 0.018396154 0.05001042
-0.039473437 0.019963883 0.05001042
-0.039473437 0.02002573 0.049913116
-0.039448351 0.02002573 0.05001042
-0.040649526 0.015137006 0.051639993
-0.040226754 0.016766582 0.051639993
-0.040327754 0.015137006 0.053269569
-0.039857991 0.016766582 0.053269569
-0.03967043 0.018396154 0.051639993
-0.039473437 0.01889915 0.051639993
-0.038987197 0.02002573 0.051639993
-0.039473437 0.017776042 0.053269569
-0.039473437 0.018396154 0.052403603
-0.039203145 0.018396154 0.053269569
-0.038381916 0.02002573 0.053269569
-0.039742015 0.023284882 0.04349212
-0.038038917 0.026544034 0.04349212
-0.038978852 0.023284882 0.046751268
-0.037843861 0.025600247 0.046751268
-0.037843861 0.026544034 0.044639625
-0.037273139 0.026544034 0.046751268
-0.037843861 0.026870333 0.04349212
-0.035595402 0.029803187 0.04349212
-0.034584709 0.030937582 0.04349212
-0.032530446 0.033062339 0.04349212
-0.034660898 0.029803187 0.046751268
-0.034584709 0.029887885 0.046751268
-0.031541765 0.033062339 0.046751268
-0.037931599 0.023284882 0.05001042
-0.037843861 0.023456447 0.05001042
-0.038727902 0.021655306 0.05001042
-0.038169492 0.021655306 0.051639993
-0.037843861 0.022252515 0.051639993
-0.037843861 0.023284882 0.05024536
-0.037843861 0.020996764 0.053269569
-0.037843861 0.021655306 0.052429933
-0.035922617 0.026544034 0.05001042
-0.037257463 0.023284882 0.051639993
-0.037464641 0.021655306 0.053269569
-0.036482602 0.023284882 0.053269569
-0.037027217 0.024914458 0.05001042
-0.036256731 0.024914458 0.051639993
-0.036214285 0.026144899 0.05001042
-0.036214285 0.024979673 0.051639993
-0.035100035 0.026544034 0.051639993
-0.036214285 0.023711078 0.053269569
-0.036214285 0.024914458 0.051725026
-0.035411514 0.024914458 0.053269569
-0.034584709 0.026045248 0.053269569
-0.034584709 0.026544034 0.052577566
-0.034198396 0.026544034 0.053269569
-0.034584709 0.028244577 0.05001042
-0.034584709 0.029803187 0.046961255
-0.03326837 0.029803187 0.05001042
-0.03132556 0.031981193 0.05001042
-0.03132556 0.033062339 0.047392927
-0.034642234 0.028173611 0.05001042
-0.034584709 0.027201518 0.051639993
-0.034584709 0.028173611 0.050126616
-0.033790302 0.028173611 0.051639993
-0.032955136 0.029188871 0.051639993
-0.032955136 0.029803187 0.050650965
-0.032450099 0.029803187 0.051639993
-0.032955136 0.02808056 0.053269569
-0.032955136 0.028173611 0.05313674
-0.032878868 0.028173611 0.053269569
-0.031534314 0.029803187 0.053269569
-0.032955136 0.030161105 0.05001042
-0.031827103 0.031432763 0.05001042
-0.03132556 0.03111764 0.051639993
-0.03132556 0.031432763 0.05108479
-0.03132556 0.030054711 0.053269569
-0.040097844 0.008618705 0.054899145
-0.040096246 0.010248281 0.054899145
-0.039473437 0.008618705 0.056319993
-0.03937811 0.008618705 0.056528721
-0.039473437 0.010248281 0.056511108
-0.039466031 0.010248281 0.056528721
-0.040161721 0.011877853 0.054899145
-0.040132679 0.01350743 0.054899145
-0.03957488 0.011877853 0.056528721
-0.039473437 0.010342527 0.056528721
-0.039538942 0.01350743 0.056528721
-0.038571052 0.008618705 0.058158297
-0.038690113 0.010248281 0.058158297
-0.037843861 0.008618705 0.059391279
-0.037843861 0.010248281 0.059558619
-0.039473437 0.011877853 0.056775261
-0.038819976 0.011877853 0.058158297
-0.039473437 0.01350743 0.056686182
-0.038782075 0.01350743 0.058158297
-0.037843861 0.011877853 0.059767943
-0.037843861 0.01350743 0.059751365
-0.037576757 0.008618705 0.059787873
-0.03768567 0.010248281 0.059787873
-0.037830129 0.011877853 0.059787873
-0.037819661 0.01350743 0.059787873
-0.039854631 0.015137006 0.054899145
-0.039473437 0.016347773 0.054899145
-0.039473437 0.016766582 0.054473709
-0.039309762 0.016766582 0.054899145
-0.039473437 0.01401313 0.056528721
-0.039473437 0.015137006 0.05591749
-0.039216839 0.015137006 0.056528721
-0.038590007 0.016766582 0.056528721
-0.03853377 0.018396154 0.054899145
-0.037843861 0.019629665 0.054899145
-0.037843861 0.02002573 0.054441582
-0.037843861 0.018197462 0.056528721
-0.037843861 0.018396154 0.056305211
-0.038434219 0.015137006 0.058158297
-0.037843861 0.016612161 0.058158297
-0.037843861 0.016766582 0.058015902
-0.037843861 0.015137006 0.059212577
-0.037613526 0.02002573 0.054899145
-0.037729271 0.018396154 0.056528721
-0.036770314 0.02002573 0.056528721
-0.03776836 0.016766582 0.058158297
-0.037484266 0.015137006 0.059787873
-0.03681476 0.016766582 0.059787873
-0.036871471 0.018396154 0.058158297
-0.036214285 0.019527763 0.058158297
-0.036214285 0.02002573 0.057614069
-0.035936218 0.02002573 0.058158297
-0.036214285 0.017901175 0.059787873
-0.036214285 0.018396154 0.059322778
-0.035932705 0.018396154 0.059787873
-0.035027482 0.02002573 0.059787873
-0.036230225 0.008618705 0.061417449
-0.036214285 0.0083482079 0.061417449
-0.036362596 0.010248281 0.061417449
-0.036214285 0.008618705 0.061434004
-0.034584709 0.008618705 0.062916651
-0.036214285 0.010248281 0.061575551
-0.034632422 0.010248281 0.063047022
-0.034584709 0.0098655783 0.063047022
-0.034426443 0.008618705 0.063047022
-0.036533251 0.011877853 0.061417449
-0.036562048 0.01350743 0.061417449
-0.036214285 0.011877853 0.061755817
-0.034813948 0.011877853 0.063047022
-0.036214285 0.01350743 0.061791409
-0.034854747 0.01350743 0.063047022
-0.034584709 0.010248281 0.063087478
-0.032955136 0.008618705 0.064222068
-0.032371435 0.008618705 0.064676598
-0.032955136 0.010248281 0.064411908
-0.03261736 0.010248281 0.064676598
-0.03132556 0.008618705 0.065475956
-0.03132556 0.010248281 0.065673128
-0.034584709 0.011877853 0.063238978
-0.034584709 0.01350743 0.06327045
-0.032955136 0.011877853 0.064535454
-0.032771707 0.011877853 0.064676598
-0.032955136 0.01350743 0.064544529
-0.032780848 0.01350743 0.064676598
-0.03132556 0.011877853 0.065788388
-0.03132556 0.01350743 0.065791905
-0.036259003 0.015137006 0.061417449
-0.036214285 0.015281454 0.061417449
-0.036214285 0.016766582 0.060664315
-0.035625026 0.016766582 0.061417449
-0.036214285 0.015137006 0.061468866
-0.034613699 0.015137006 0.063047022
-0.034584709 0.015251018 0.063047022
-0.034584709 0.016766582 0.062544927
-0.034050025 0.016766582 0.063047022
-0.034768291 0.018396154 0.061417449
-0.034584709 0.018718094 0.061417449
-0.034584709 0.02002573 0.060470041
-0.034584709 0.018396154 0.061636899
-0.033852808 0.02002573 0.061417449
-0.03319212 0.018396154 0.063047022
-0.032955136 0.018786848 0.063047022
-0.032955136 0.02002573 0.062359121
-0.032178119 0.02002573 0.063047022
-0.034584709 0.015137006 0.063072056
-0.032955136 0.015137006 0.064389229
-0.032581255 0.015137006 0.064676598
-0.032955136 0.016766582 0.063977793
-0.032074548 0.016766582 0.064676598
-0.03132556 0.015137006 0.065646976
-0.03132556 0.016766582 0.065261528
-0.032955136 0.018396154 0.063255399
-0.03132556 0.018208697 0.064676598
-0.03132556 0.018396154 0.064585045
-0.03132556 0.02002573 0.063724771
-0.036655735 0.021655306 0.054899145
-0.036214285 0.022402167 0.054899145
-0.036214285 0.023284882 0.053807873
-0.035672672 0.023284882 0.054899145
-0.036214285 0.021001615 0.056528721
-0.036214285 0.021655306 0.055782843
-0.035853185 0.021655306 0.056528721
-0.034902416 0.023284882 0.056528721
-0.034584709 0.024883792 0.054899145
-0.034584709 0.024914458 0.054855127
-0.034584709 0.02377592 0.056528721
-0.034562223 0.024914458 0.054899145
-0.033281393 0.026544034 0.054899145
-0.033753358 0.024914458 0.056528721
-0.032955136 0.025875285 0.056528721
-0.032955136 0.026544034 0.055483047
-0.032364123 0.026544034 0.056528721
-0.035078414 0.021655306 0.058158297
-0.034584709 0.022577696 0.058158297
-0.034584709 0.023284882 0.057234634
-0.034584709 0.020888939 0.059787873
-0.034584709 0.021655306 0.059125189
-0.034157254 0.023284882 0.058158297
-0.03419945 0.021655306 0.059787873
-0.033226036 0.023284882 0.059787873
-0.032955136 0.024871662 0.058158297
-0.032955136 0.024914458 0.058089409
-0.032917537 0.024914458 0.058158297
-0.031374387 0.026544034 0.058158297
-0.032955136 0.023648299 0.059787873
-0.031812981 0.024914458 0.059787873
-0.03132556 0.025380529 0.059787873
-0.03132556 0.026544034 0.058232326
-0.032955136 0.02693712 0.054899145
-0.031909034 0.028173611 0.054899145
-0.03132556 0.028864063 0.054899145
-0.03132556 0.029803187 0.053624775
-0.03132556 0.027692162 0.056528721
-0.03132556 0.028173611 0.055843119
-0.03132556 0.026593558 0.058158297
-0.032955136 0.021625109 0.061417449
-0.032955136 0.021655306 0.061398845
-0.032937359 0.021655306 0.061417449
-0.032955136 0.023284882 0.060160633
-0.031735267 0.023284882 0.061417449
-0.03132556 0.021228768 0.063047022
-0.03132556 0.021655306 0.06279707
-0.03132556 0.023284882 0.061736312
-0.03132556 0.023706377 0.061417449
-0.03132556 0.024914458 0.060313601
-0.030259483 0.033062339 0.05001042
-0.03104143 0.031432763 0.051639993
-0.029695984 0.032825544 0.051639993
-0.029695984 0.033062339 0.05116478
-0.029449258 0.033062339 0.051639993
-0.030126609 0.031432763 0.053269569
-0.029695984 0.031895421 0.053269569
-0.02849086 0.033062339 0.053269569
-0.03021103 0.008618705 0.066306174
-0.030478531 0.010248281 0.066306174
-0.030638179 0.011877853 0.066306174
-0.030648828 0.01350743 0.066306174
-0.030462569 0.015137006 0.066306174
-0.029949913 0.016766582 0.066306174
-0.031207468 0.018396154 0.064676598
-0.03001681 0.02002573 0.064676598
-0.029695984 0.017283499 0.066306174
-0.029695984 0.018396154 0.065808162
-0.028974488 0.018396154 0.066306174
-0.029695984 0.02002573 0.064897984
-0.02806641 0.019455135 0.066306174
-0.02806641 0.02002573 0.065962672
-0.027503511 0.02002573 0.066306174
-0.030072493 0.026544034 0.059787873
-0.030535923 0.029803187 0.054899145
-0.030893661 0.028173611 0.056528721
-0.029695984 0.02954641 0.056528721
-0.029695984 0.029803187 0.056195009
-0.029475469 0.029803187 0.056528721
-0.029695984 0.030781567 0.054899145
-0.029695984 0.031432763 0.053979065
-0.029104521 0.031432763 0.054899145
-0.02806641 0.032465465 0.054899145
-0.02806641 0.033062339 0.053918388
-0.02806641 0.031365596 0.056528721
-0.02806641 0.031432763 0.056435313
-0.027384484 0.033062339 0.054899145
-0.028001783 0.031432763 0.056528721
-0.026436834 0.032870986 0.056528721
-0.026436834 0.033062339 0.056202691
-0.02619312 0.033062339 0.056528721
-0.029808516 0.028173611 0.058158297
-0.029695984 0.028295428 0.058158297
-0.028324697 0.029803187 0.058158297
-0.029695984 0.026900925 0.059787873
-0.029695984 0.028173611 0.058314722
-0.028422108 0.028173611 0.059787873
-0.02806641 0.028541945 0.059787873
-0.02806641 0.029803187 0.058486674
-0.026865229 0.029803187 0.059787873
-0.02806641 0.030088507 0.058158297
-0.02678862 0.031432763 0.058158297
-0.026436834 0.031773463 0.058158297
-0.024810016 0.033062339 0.058158297
-0.026436834 0.030250922 0.059787873
-0.026436834 0.031432763 0.058576044
-0.025201 0.031432763 0.059787873
-0.024807259 0.031754993 0.059787873
-0.024807259 0.033062339 0.058161061
-0.023177683 0.032778561 0.059787873
-0.023177683 0.033062339 0.059445959
-0.022594899 0.033062339 0.059787873
-0.030969562 0.021655306 0.063047022
-0.029695984 0.022879481 0.063047022
-0.029695984 0.023284882 0.062767029
-0.029196132 0.023284882 0.063047022
-0.029935665 0.024914458 0.061417449
-0.029695984 0.025108531 0.061417449
-0.029695984 0.026544034 0.06014936
-0.028091479 0.026544034 0.061417449
-0.029695984 0.024914458 0.06157073
-0.02806641 0.024216533 0.063047022
-0.02806641 0.024914458 0.062570632
-0.02806641 0.026544034 0.061435375
-0.027313178 0.024914458 0.063047022
-0.026436834 0.025813878 0.063047022
-0.026436834 0.026544034 0.062578157
-0.025751311 0.026544034 0.063047022
-0.029695984 0.020392992 0.064676598
-0.029695984 0.021655306 0.063871309
-0.028382836 0.021655306 0.064676598
-0.02806641 0.02192837 0.064676598
-0.02806641 0.023284882 0.06370154
-0.02806641 0.021655306 0.064871743
-0.026556836 0.023284882 0.064676598
-0.026436834 0.02104903 0.066306174
-0.026436834 0.021655306 0.065906569
-0.025797047 0.021655306 0.066306174
-0.026436834 0.023284882 0.064759031
-0.024807259 0.022592291 0.066306174
-0.024807259 0.023284882 0.065853655
-0.026436834 0.02339945 0.064676598
-0.026436834 0.024914458 0.063629881
-0.024928618 0.024914458 0.064676598
-0.024807259 0.025042526 0.064676598
-0.024807259 0.026544034 0.063688487
-0.024807259 0.024914458 0.064761743
-0.024077218 0.023284882 0.066306174
-0.023369033 0.026544034 0.064676598
-0.023177683 0.024152793 0.066306174
-0.023177683 0.024914458 0.065847382
-0.022397172 0.024914458 0.066306174
-0.023177683 0.026544034 0.064806595
-0.021548107 0.02572044 0.066306174
-0.021548107 0.026544034 0.065818891
-0.020632245 0.026544034 0.066306174
-0.02806641 0.026568711 0.061417449
-0.02806641 0.028173611 0.060125519
-0.026501521 0.028173611 0.061417449
-0.026436834 0.028240845 0.061417449
-0.026436834 0.029803187 0.060183715
-0.024853192 0.029803187 0.061417449
-0.026436834 0.028173611 0.061466444
-0.024807259 0.027526021 0.063047022
-0.024807259 0.028173611 0.062613949
-0.024807259 0.029803187 0.06144907
-0.024807259 0.029845126 0.061417449
-0.024807259 0.031432763 0.060100954
-0.024147023 0.028173611 0.063047022
-0.023177683 0.029026061 0.063047022
-0.023177683 0.029803187 0.062455107
-0.022094361 0.029803187 0.063047022
-0.023177683 0.031092353 0.061417449
-0.023177683 0.031432763 0.061126072
-0.022595815 0.031432763 0.061417449
-0.021548107 0.031966574 0.061417449
-0.021548107 0.033062339 0.060341913
-0.021548107 0.030129731 0.063047022
-0.021548107 0.031432763 0.061896693
-0.019918531 0.032744251 0.061417449
-0.019918531 0.033062339 0.061131384
-0.019323211 0.033062339 0.061417449
-0.019918531 0.030943505 0.063047022
-0.019918531 0.031432763 0.062586486
-0.01884973 0.031432763 0.063047022
-0.018288955 0.031709239 0.063047022
-0.018288955 0.033062339 0.061935034
-0.023177683 0.02673731 0.064676598
-0.023177683 0.028173611 0.063672423
-0.021578252 0.028173611 0.064676598
-0.021548107 0.028197229 0.064676598
-0.021548107 0.029803187 0.063336238
-0.021548107 0.028173611 0.064694792
-0.019918531 0.029283307 0.064676598
-0.019918531 0.029803187 0.064172968
-0.018888112 0.029803187 0.064676598
-0.019918531 0.027144521 0.066306174
-0.019918531 0.028173611 0.065611005
-0.018465616 0.028173611 0.066306174
-0.018288955 0.028278477 0.066306174
-0.018288955 0.029803187 0.064955771
-0.018288955 0.030070245 0.064676598
-0.018288955 0.031432763 0.063300401
-0.016659383 0.032699697 0.063047022
-0.016659383 0.033062339 0.062789679
-0.016135946 0.033062339 0.063047022
-0.016659383 0.029074937 0.066306174
-0.016659383 0.029803187 0.065643489
-0.015029807 0.029660836 0.066306174
-0.015029807 0.029803187 0.066180974
-0.014522754 0.029803187 0.066306174
-0.016659383 0.03078948 0.064676598
-0.016659383 0.031432763 0.06407094
-0.015196268 0.031432763 0.064676598
-0.015029807 0.031499885 0.064676598
-0.015029807 0.033062339 0.063485414
-0.015029807 0.031432763 0.064733967
-0.013400231 0.031961121 0.064676598
-0.013400231 0.033062339 0.063848898
-0.011770654 0.032033935 0.064676598
-0.011770654 0.033062339 0.063910559
-0.013400231 0.03001307 0.066306174
-0.013400231 0.031432763 0.065106899
-0.011770654 0.030022673 0.066306174
-0.011770654 0.031432763 0.065150663
-0.010308858 0.029803187 0.066306174
-0.010141078 0.02977033 0.066306174
-0.010141078 0.029803187 0.066278711
-0.008511506 0.029546842 0.066306174
-0.008511506 0.029803187 0.066095963
-0.0068819299 0.029480249 0.066306174
-0.0068819299 0.029803187 0.066059366
-0.010141078 0.031837508 0.064676598
-0.010141078 0.033062339 0.06380029
-0.008511506 0.031675696 0.064676598
-0.008511506 0.033062339 0.06372337
-0.010141078 0.031432763 0.064978853
-0.008511506 0.031432763 0.064848766
-0.0068819299 0.031741291 0.064676598
-0.0068819299 0.033062339 0.063790888
-0.0068819299 0.031432763 0.064885974
-0.03132556 0.034225486 0.04349212
-0.03132556 0.033275597 0.046751268
-0.028912891 0.036321484 0.04349212
-0.02806641 0.036923721 0.04349212
-0.024807259 0.038821727 0.04349212
-0.02806641 0.036108531 0.046751268
-0.02806641 0.036321484 0.046025973
-0.027767705 0.036321484 0.046751268
-0.024807259 0.03814064 0.046751268
-0.023229629 0.039580636 0.04349212
-0.021889407 0.039580636 0.046751268
-0.021548107 0.040405899 0.04349212
-0.018288955 0.042051658 0.04349212
-0.021548107 0.039733134 0.046751268
-0.018288955 0.041207515 0.046751268
-0.02806641 0.034930147 0.05001042
-0.026032723 0.036321484 0.05001042
-0.024807259 0.037058264 0.05001042
-0.029695984 0.033584274 0.05001042
-0.028376341 0.034691907 0.05001042
-0.02806641 0.034242921 0.051639993
-0.02806641 0.034691907 0.050598178
-0.02806641 0.033426739 0.053269569
-0.027456485 0.034691907 0.051639993
-0.026436834 0.036067143 0.05001042
-0.026436834 0.035377979 0.051639993
-0.024920214 0.036321484 0.051639993
-0.026436834 0.034636095 0.053269569
-0.026436834 0.034691907 0.053154547
-0.026351888 0.034691907 0.053269569
-0.024807259 0.035656609 0.053269569
-0.024807259 0.036321484 0.051798943
-0.024807259 0.036388822 0.051639993
-0.024285052 0.03795106 0.048380844
-0.024807259 0.037662208 0.048380844
-0.024807259 0.03795106 0.047450464
-0.023177683 0.038980946 0.046751268
-0.023177683 0.038509704 0.048380844
-0.021548107 0.039262302 0.048380844
-0.021548107 0.039580636 0.04731619
-0.023177683 0.037950881 0.05001042
-0.023177683 0.03795106 0.050009921
-0.023177326 0.03795106 0.05001042
-0.021548107 0.038739003 0.05001042
-0.02081953 0.039580636 0.048380844
-0.019918531 0.039469182 0.05001042
-0.019918531 0.039580636 0.049642213
-0.019662194 0.039580636 0.05001042
-0.023692165 0.036321484 0.053269569
-0.023177683 0.037332319 0.051639993
-0.022022735 0.03795106 0.051639993
-0.021548107 0.038191818 0.051639993
-0.023177683 0.036625825 0.053269569
-0.021548107 0.037563443 0.053269569
-0.021548107 0.03795106 0.052308891
-0.019918531 0.038974918 0.051639993
-0.018575612 0.039580636 0.051639993
-0.020825326 0.03795106 0.053269569
-0.019918531 0.038410701 0.053269569
-0.018288955 0.039188355 0.053269569
-0.018288955 0.039580636 0.052076239
-0.019918531 0.040468074 0.046751268
-0.019918531 0.039973743 0.048380844
-0.018288955 0.04068961 0.048380844
-0.018288955 0.040176563 0.05001042
-0.018288955 0.039707318 0.051639993
-0.01631726 0.042839788 0.04349212
-0.015029807 0.043267243 0.04349212
-0.011770654 0.044076435 0.04349212
-0.015029807 0.042541616 0.046751268
-0.015029807 0.042839788 0.04563586
-0.014114205 0.042839788 0.046751268
-0.011770654 0.04337205 0.046751268
-0.008511506 0.044435412 0.04349212
-0.008511506 0.043662481 0.046751268
-0.017427344 0.039580636 0.053269569
-0.018282969 0.041210212 0.046751268
-0.017081764 0.041210212 0.048380844
-0.016659383 0.041916735 0.046751268
-0.016659383 0.041389547 0.048380844
-0.015029807 0.042025805 0.048380844
-0.016659383 0.040885106 0.05001042
-0.016659383 0.041210212 0.048944
-0.015866 0.041210212 0.05001042
-0.015029807 0.041519351 0.05001042
-0.013400231 0.042537257 0.048380844
-0.013400231 0.042839788 0.047438014
-0.012043394 0.042839788 0.048380844
-0.013400231 0.042012215 0.05001042
-0.011770654 0.042350717 0.05001042
-0.011770654 0.042839788 0.048521712
-0.013400231 0.043036334 0.046751268
-0.011770654 0.042887196 0.048380844
-0.016659383 0.040426902 0.051639993
-0.015029807 0.041077092 0.051639993
-0.015029807 0.041210212 0.051125336
-0.016659383 0.039925314 0.053269569
-0.015029807 0.040608011 0.053269569
-0.01463623 0.041210212 0.051639993
-0.013400231 0.041560508 0.051639993
-0.011770654 0.041875742 0.051639993
-0.013400231 0.041128993 0.053269569
-0.013400231 0.041210212 0.052980173
-0.013064895 0.041210212 0.053269569
-0.011770654 0.041441143 0.053269569
-0.010141078 0.042548425 0.05001042
-0.010141078 0.042839788 0.049118094
-0.008511506 0.042633355 0.05001042
-0.008511506 0.042839788 0.04937565
-0.0068819299 0.042633899 0.05001042
-0.0068819299 0.042839788 0.049378157
-0.010141078 0.043570541 0.046751268
-0.010141078 0.043084547 0.048380844
-0.008511506 0.043166369 0.048380844
-0.0068819299 0.043668404 0.046751268
-0.0068819299 0.043167688 0.048380844
-0.010141078 0.042046629 0.051639993
-0.008511506 0.042111382 0.051639993
-0.010141078 0.041570999 0.053269569
-0.008511506 0.041586116 0.053269569
-0.0068819299 0.042097628 0.051639993
-0.0068819299 0.041534953 0.053269569
-0.026436834 0.033789761 0.054899145
-0.025061555 0.034691907 0.054899145
-0.024807259 0.034845084 0.054899145
-0.024807259 0.034003988 0.056528721
-0.024807259 0.034691907 0.055199321
-0.024807259 0.033064127 0.058158297
-0.023177683 0.035808168 0.054899145
-0.023177683 0.036321484 0.053903174
-0.022302106 0.036321484 0.054899145
-0.02360145 0.034691907 0.056528721
-0.023177683 0.034919612 0.056528721
-0.021548107 0.035813384 0.056528721
-0.021548107 0.036321484 0.05567823
-0.020653442 0.036321484 0.056528721
-0.021548107 0.036760747 0.054899145
-0.019918531 0.037670739 0.054899145
-0.019918531 0.03795106 0.054338027
-0.019379139 0.03795106 0.054899145
-0.018288955 0.038488947 0.054899145
-0.019918531 0.036739551 0.056528721
-0.018288955 0.037624888 0.056528721
-0.018288955 0.03795106 0.055939358
-0.023177683 0.033971325 0.058158297
-0.023177683 0.034691907 0.056936409
-0.021707948 0.034691907 0.058158297
-0.021548107 0.034773111 0.058158297
-0.021548107 0.033553042 0.059787873
-0.021548107 0.034691907 0.058278758
-0.019918531 0.035680041 0.058158297
-0.019918531 0.036321484 0.05719487
-0.018852957 0.036321484 0.058158297
-0.019918531 0.034402199 0.059787873
-0.019918531 0.034691907 0.05945329
-0.019442424 0.034691907 0.059787873
-0.018288955 0.035459958 0.059787873
-0.018288955 0.036321484 0.058670763
-0.018288955 0.036657915 0.058158297
-0.018288955 0.033721335 0.061417449
-0.018288955 0.034691907 0.06058364
-0.016659383 0.039262541 0.054899145
-0.016659383 0.039580636 0.05418079
-0.01596757 0.039580636 0.054899145
-0.017649472 0.03795106 0.056528721
-0.016659383 0.038446441 0.056528721
-0.015029807 0.039241187 0.056528721
-0.015029807 0.039580636 0.055814359
-0.014271624 0.039580636 0.056528721
-0.01703335 0.036321484 0.059787873
-0.016659383 0.037583821 0.058158297
-0.016659383 0.03795106 0.057471145
-0.01596763 0.03795106 0.058158297
-0.015029807 0.038424827 0.058158297
-0.016659383 0.036565207 0.059787873
-0.015029807 0.037448362 0.059787873
-0.015029807 0.03795106 0.059006374
-0.013400231 0.03914503 0.058158297
-0.013400231 0.039580636 0.057278279
-0.011857729 0.039580636 0.058158297
-0.013804369 0.03795106 0.059787873
-0.013400231 0.038091339 0.059787873
-0.011770654 0.038488694 0.059787873
-0.011770654 0.039580636 0.058188375
-0.010141078 0.038606346 0.059787873
-0.010141078 0.039580636 0.058436524
-0.008511506 0.038548447 0.059787873
-0.008511506 0.039580636 0.058312338
-0.0076451823 0.039580636 0.058158297
-0.0068819299 0.03949178 0.058158297
-0.0068819299 0.039580636 0.057979215
-0.0068819299 0.038396873 0.059787873
-0.015029807 0.039990515 0.054899145
-0.013400231 0.040587045 0.054899145
-0.011770654 0.04094243 0.054899145
-0.011770654 0.041210212 0.054069277
-0.013400231 0.039919242 0.056528721
-0.011770654 0.040335216 0.056528721
-0.011770654 0.039596334 0.058158297
-0.010141078 0.041050889 0.054899145
-0.010141078 0.041210212 0.054425154
-0.008511506 0.041011661 0.054899145
-0.008511506 0.041210212 0.054356929
-0.010141078 0.040453047 0.056528721
-0.008511506 0.040381715 0.056528721
-0.0068819299 0.040909134 0.054899145
-0.0068819299 0.041210212 0.054139737
-0.0068819299 0.040232219 0.056528721
-0.010141078 0.039730564 0.058158297
-0.008511506 0.039660439 0.058158297
-0.01703351 0.034691907 0.061417449
-0.016659383 0.034995981 0.061417449
-0.016659383 0.036321484 0.060105462
-0.015029807 0.036012232 0.061417449
-0.015029807 0.036321484 0.061128896
-0.016659383 0.034691907 0.061651547
-0.015029807 0.033722863 0.063047022
-0.015029807 0.034691907 0.062416773
-0.014194146 0.036321484 0.061417449
-0.013400231 0.034247071 0.063047022
-0.013400231 0.034691907 0.062754631
-0.011770654 0.034324862 0.063047022
-0.011770654 0.034691907 0.06280461
-0.013400231 0.036321484 0.061574873
-0.011770654 0.036321484 0.061693911
-0.013400231 0.03651052 0.061417449
-0.013400231 0.03795106 0.059962112
-0.011770654 0.036696695 0.061417449
-0.011770654 0.03795106 0.060353655
-0.010141078 0.034190722 0.063047022
-0.010141078 0.034691907 0.062724039
-0.008511506 0.034095392 0.063047022
-0.008511506 0.034691907 0.062664971
-0.010141078 0.036321484 0.061666567
-0.008511506 0.036321484 0.061605651
-0.0068819299 0.034184866 0.063047022
-0.0068819299 0.034691907 0.062709898
-0.0068819299 0.036321484 0.061572794
-0.010141078 0.036687642 0.061417449
-0.010141078 0.03795106 0.060435165
-0.008511506 0.036600113 0.061417449
-0.008511506 0.03795106 0.060378712
-0.0068819299 0.036533378 0.061417449
-0.0068819299 0.03795106 0.060250286
-0.029695984 0.008618705 0.06668365
-0.02806641 0.008618705 0.067860782
-0.029695984 0.010248281 0.066874579
-0.028185133 0.010248281 0.06793575
-0.02806641 0.0093517154 0.06793575
-0.02806641 0.010248281 0.068016872
-0.027960455 0.008618705 0.06793575
-0.026436834 0.008618705 0.068979457
-0.025487859 0.008618705 0.069565326
-0.026436834 0.010248281 0.069092244
-0.025642436 0.010248281 0.069565326
-0.029695984 0.011877853 0.06699653
-0.028347654 0.011877853 0.06793575
-0.029695984 0.01350743 0.067012474
-0.028364247 0.01350743 0.06793575
-0.02806641 0.011877853 0.068123519
-0.02806641 0.01350743 0.068129942
-0.026436834 0.011877853 0.069158569
-0.025722653 0.011877853 0.069565326
-0.026436834 0.01350743 0.069129571
-0.025643315 0.01350743 0.069565326
-0.024807259 0.008618705 0.069946066
-0.024807259 0.010248281 0.070016742
-0.024807259 0.011877853 0.070037141
-0.024807259 0.01350743 0.069983318
-0.023177683 0.008618705 0.070749342
-0.022081673 0.008618705 0.071194902
-0.023177683 0.010248281 0.070786342
-0.022134054 0.010248281 0.071194902
-0.021548107 0.008618705 0.071385458
-0.021548107 0.010248281 0.071397707
-0.019918531 0.008618705 0.071875483
-0.018288955 0.008618705 0.072210401
-0.019918531 0.010248281 0.071878195
-0.018288955 0.010248281 0.072236702
-0.023177683 0.011877853 0.070763856
-0.022003431 0.011877853 0.071194902
-0.023177683 0.01350743 0.070689246
-0.021739677 0.01350743 0.071194902
-0.021548107 0.011877853 0.071343943
-0.021548107 0.01350743 0.071255803
-0.019918531 0.011877853 0.071815237
-0.018288955 0.011877853 0.072207958
-0.019918531 0.01350743 0.071734414
-0.018288955 0.01350743 0.072170958
-0.029695984 0.015137006 0.066872269
-0.02812277 0.015137006 0.06793575
-0.029695984 0.016766582 0.066489741
-0.02806641 0.015343256 0.06793575
-0.02806641 0.016766582 0.067573488
-0.02806641 0.015137006 0.067970932
-0.027454659 0.016766582 0.06793575
-0.026436834 0.015137006 0.068936199
-0.025263492 0.015137006 0.069565326
-0.026436834 0.016766582 0.068508595
-0.024807259 0.016163416 0.069565326
-0.024807259 0.016766582 0.069381714
-0.02806641 0.018396154 0.066884071
-0.026436834 0.018159173 0.06793575
-0.026436834 0.018396154 0.067820698
-0.026224447 0.018396154 0.06793575
-0.026436834 0.02002573 0.066933975
-0.024807259 0.019854143 0.06793575
-0.024807259 0.02002573 0.067841351
-0.024807259 0.018396154 0.068698511
-0.024807259 0.015137006 0.069792747
-0.024446338 0.016766582 0.069565326
-0.024631217 0.02002573 0.06793575
-0.023177683 0.018364623 0.069565326
-0.023177683 0.018396154 0.069550499
-0.023148037 0.018396154 0.069565326
-0.023177683 0.02002573 0.068704814
-0.021548107 0.01997368 0.069565326
-0.021548107 0.02002573 0.069537073
-0.021491136 0.02002573 0.069565326
-0.023177683 0.015137006 0.07052578
-0.021548107 0.014394391 0.071194902
-0.021548107 0.015137006 0.071130157
-0.023177683 0.016766582 0.070174277
-0.021548107 0.016766582 0.070862845
-0.021354999 0.015137006 0.071194902
-0.020657316 0.016766582 0.071194902
-0.019918531 0.015137006 0.071647882
-0.018288955 0.015137006 0.072129175
-0.019918531 0.016766582 0.071450546
-0.018288955 0.016766582 0.071984708
-0.021548107 0.018396154 0.070327833
-0.019918531 0.017847672 0.071194902
-0.019918531 0.018396154 0.071016997
-0.019455843 0.018396154 0.071194902
-0.019918531 0.02002573 0.070315287
-0.018288955 0.019634292 0.071194902
-0.018288955 0.02002573 0.071033552
-0.018288955 0.018396154 0.071624696
-0.016659383 0.008618705 0.07236594
-0.015029807 0.008618705 0.072386816
-0.016659383 0.010248281 0.072471008
-0.015029807 0.010248281 0.072606474
-0.013400231 0.008618705 0.07233502
-0.011770654 0.008618705 0.072218969
-0.013400231 0.010248281 0.072656974
-0.011770654 0.010248281 0.072597101
-0.016659383 0.011877853 0.072534278
-0.015029807 0.011877853 0.072793469
-0.016659383 0.01350743 0.07258299
-0.015603665 0.01350743 0.072824478
-0.015029807 0.012185376 0.072824478
-0.014793321 0.011877853 0.072824478
-0.013400231 0.011142157 0.072824478
-0.011770654 0.011272684 0.072824478
-0.010141078 0.008618705 0.072048351
-0.008511506 0.008618705 0.071868822
-0.010141078 0.010248281 0.072431907
-0.008511506 0.010248281 0.072223321
-0.0068819299 0.008618705 0.071727142
-0.0068819299 0.010248281 0.072035521
-0.010420114 0.011877853 0.072824478
-0.010141078 0.011877853 0.072787464
-0.008511506 0.011877853 0.072549775
-0.010141078 0.012066398 0.072824478
-0.008511506 0.013505921 0.072824478
-0.0068819299 0.011877853 0.072315052
-0.0085101239 0.01350743 0.072824478
-0.0068819299 0.01350743 0.072558776
-0.016659383 0.015137006 0.072601423
-0.015843123 0.015137006 0.072824478
-0.016659383 0.016766582 0.072504461
-0.015590873 0.016766582 0.072824478
-0.017899916 0.02002573 0.071194902
-0.016659383 0.018396154 0.072208539
-0.015029807 0.01795271 0.072824478
-0.015029807 0.018396154 0.072737932
-0.016659383 0.02002573 0.071694523
-0.015029807 0.02002573 0.072281286
-0.014726181 0.018396154 0.072824478
-0.013400231 0.019705415 0.072824478
-0.013400231 0.02002573 0.072725281
-0.012901329 0.02002573 0.072824478
-0.007212311 0.015137006 0.072824478
-0.0068819299 0.015137006 0.072767884
-0.0068819299 0.01566327 0.072824478
-0.0064150281 0.016766582 0.072824478
-0.0065023489 0.018396154 0.072824478
-0.008110024 0.02002573 0.072824478
-0.0068819299 0.019037522 0.072824478
-0.0068819299 0.02002573 0.072602496
-0.015029807 0.01350743 0.072940081
-0.013400231 0.011877853 0.072948694
-0.011770654 0.011877853 0.072945774
-0.013400231 0.01350743 0.073171198
-0.011770654 0.01350743 0.073213875
-0.010141078 0.01350743 0.073072121
-0.008511506 0.01350743 0.072824702
-0.015029807 0.015137006 0.073022857
-0.015029807 0.016766582 0.072976559
-0.013400231 0.015137006 0.073305517
-0.011770654 0.015137006 0.073388621
-0.013400231 0.016766582 0.073311672
-0.011770654 0.016766582 0.073446199
-0.013400231 0.018396154 0.073131114
-0.011770654 0.018396154 0.073330894
-0.011770654 0.02002573 0.072974056
-0.010141078 0.015137006 0.073279291
-0.008511506 0.015137006 0.073044106
-0.010141078 0.016766582 0.073383421
-0.008511506 0.016766582 0.073179841
-0.0068819299 0.016766582 0.072907582
-0.010141078 0.018396154 0.073326662
-0.008511506 0.018396154 0.073164329
-0.010141078 0.02002573 0.073015928
-0.008511506 0.02002573 0.072880298
-0.0068819299 0.018396154 0.072897434
-0.024807259 0.021655306 0.066892758
-0.023177683 0.02138374 0.06793575
-0.023177683 0.021655306 0.067779183
-0.022870485 0.021655306 0.06793575
-0.023177683 0.023284882 0.066822052
-0.021548107 0.022790208 0.06793575
-0.021548107 0.023284882 0.067655474
-0.021548107 0.021655306 0.068599194
-0.020958558 0.023284882 0.06793575
-0.019918531 0.021400645 0.069565326
-0.019918531 0.021655306 0.069413945
-0.019617196 0.021655306 0.069565326
-0.019918531 0.023284882 0.068437114
-0.018288955 0.022829726 0.069565326
-0.018288955 0.023284882 0.069296747
-0.021548107 0.024914458 0.066754267
-0.019918531 0.024172425 0.06793575
-0.019918531 0.024914458 0.067538217
-0.019088682 0.024914458 0.06793575
-0.019918531 0.026544034 0.066656902
-0.018288955 0.025628462 0.06793575
-0.018288955 0.026544034 0.067418054
-0.018288955 0.024914458 0.068340868
-0.018288955 0.021655306 0.070233986
-0.018288955 0.028173611 0.066382825
-0.017796192 0.023284882 0.069565326
-0.017127555 0.026544034 0.06793575
-0.016659383 0.024289794 0.069565326
-0.016659383 0.024914458 0.069183305
-0.01581445 0.024914458 0.069565326
-0.016659383 0.026544034 0.068136454
-0.015029807 0.025368661 0.069565326
-0.015029807 0.026544034 0.068745777
-0.013400231 0.025960527 0.069565326
-0.013400231 0.026544034 0.069129795
-0.011770654 0.026120916 0.069565326
-0.011770654 0.026544034 0.069229648
-0.016659383 0.02123569 0.071194902
-0.016659383 0.021655306 0.070999786
-0.016188264 0.021655306 0.071194902
-0.016659383 0.023284882 0.070147678
-0.015029807 0.022537366 0.071194902
-0.015029807 0.023284882 0.070810243
-0.015029807 0.021655306 0.071616605
-0.013620265 0.023284882 0.071194902
-0.013400231 0.021655306 0.072071224
-0.011770654 0.020479344 0.072824478
-0.011770654 0.021655306 0.072328165
-0.013400231 0.023284882 0.071240574
-0.011770654 0.023284882 0.071452707
-0.015029807 0.024914458 0.069858938
-0.013400231 0.023369394 0.071194902
-0.013400231 0.024914458 0.070281804
-0.011770654 0.02372814 0.071194902
-0.011770654 0.024914458 0.070444077
-0.010141078 0.025976695 0.069565326
-0.010141078 0.026544034 0.069095969
-0.008511506 0.025701791 0.069565326
-0.008511506 0.026544034 0.068877071
-0.0054204203 0.024914458 0.069565326
-0.0068819299 0.025345787 0.069565326
-0.0068819299 0.026544034 0.068648621
-0.010141078 0.020614117 0.072824478
-0.010141078 0.021655306 0.072371393
-0.008511506 0.020214744 0.072824478
-0.008511506 0.021655306 0.072224602
-0.010141078 0.023284882 0.071450308
-0.008511506 0.023284882 0.071273312
-0.0080292448 0.023284882 0.071194902
-0.0068819299 0.0229159 0.071194902
-0.0068819299 0.023284882 0.07096681
-0.0068819299 0.021655306 0.071919054
-0.010141078 0.023697682 0.071194902
-0.010141078 0.024914458 0.070376456
-0.008511506 0.023408659 0.071194902
-0.008511506 0.024914458 0.070166007
-0.0068819299 0.024914458 0.069877714
-0.016659383 0.02685234 0.06793575
-0.016659383 0.028173611 0.067023829
-0.015029807 0.027640522 0.06793575
-0.015029807 0.028173611 0.067531154
-0.013400231 0.028048918 0.06793575
-0.013400231 0.028173611 0.067835197
-0.011770654 0.028089114 0.06793575
-0.011770654 0.028173611 0.067864284
-0.013400231 0.029803187 0.066483349
-0.011770654 0.029803187 0.066488653
-0.010141078 0.027880095 0.06793575
-0.010141078 0.028173611 0.067678377
-0.008511506 0.027644098 0.06793575
-0.008511506 0.028173611 0.067475855
-0.0068819299 0.027438857 0.06793575
-0.0068819299 0.028173611 0.067342997
-0.0019932017 -0.019883959 0.010900611
-0.0019932017 -0.019084077 0.010481324
0.00051758811 -0.019084077 0.010900611
-0.0019932017 -0.024057437 0.014159761
-0.0019932017 -0.022343228 0.01258993
0.0012659468 -0.023258753 0.014159761
0.0012659468 -0.022343228 0.013322387
0.0012659468 -0.019084077 0.011046005
0.0039087795 -0.022343228 0.014159761
0.0045250989 -0.022107871 0.014159761
0.0045250989 -0.019084077 0.011825286
0.0077842474 -0.020636635 0.014159761
0.0077842474 -0.019084077 0.012898702
0.010464162 -0.019084077 0.014159761
0.0012659468 -0.0068718679 0.0076414607
0.0012659468 -0.0060474724 0.0075166263
0.0028512813 -0.0060474724 0.0076414607
0.0012659468 -0.012565777 0.0086172502
0.0077842474 -0.012565777 0.0096653271
0.0077842474 -0.0060474724 0.0082407501
0.014302552 -0.01599111 0.014159761
0.014302552 -0.012565777 0.012030229
0.014472365 -0.015824927 0.014159761
0.014302552 -0.015824927 0.014035031
0.017491855 -0.012565777 0.014159761
0.014302552 -0.0060474724 0.0097183418
0.014910012 -0.0093066245 0.010900611
0.014302552 -0.0099851117 0.010900611
0.014302552 -0.0093066245 0.010655047
0.01737795 -0.0060474724 0.010900611
0.017561704 -0.012484364 0.014159761
0.017561704 -0.0093066245 0.012283541
0.020007901 -0.0093066245 0.014159761
0.017561704 -0.0060474724 0.010986049
0.020820856 -0.0080295578 0.014159761
0.020820856 -0.0060474724 0.013140285
0.0012659468 0.00047082826 0.0069395378
0.0077842474 -0.00071748719 0.0076414607
0.0077842474 0.00047082826 0.0075684618
0.0082382709 0.00047082826 0.0076414607
0.014302552 0.00047082826 0.0087176878
0.017561704 -0.00577268 0.010900611
0.014302552 -0.0027883239 0.0091238674
0.017561704 -0.0027883239 0.01015549
0.019180626 -0.0027883239 0.010900611
0.017561704 0.00047082826 0.0096600633
0.020172797 0.00047082826 0.010900611
0.020820856 -0.0027883239 0.011950325
0.020820856 0.00047082826 0.011288317
0.021910675 -0.0060474724 0.014159761
0.0232981 -0.0027883239 0.014159761
0.024080001 -0.0003137216 0.014159761
0.024080001 0.00047082826 0.013946205
0.024289958 0.00047082826 0.014159761
0.020820856 0.005501315 0.010900611
0.020820856 0.0037299767 0.010979913
0.024080001 0.0037299767 0.013344163
0.024961554 0.0037299767 0.014159761
-0.0019932017 -0.026486319 0.017418912
-0.0019932017 -0.025602378 0.01606256
0.0012659468 -0.025908871 0.017418912
0.0012659468 -0.025602378 0.01695716
-0.0019932017 -0.028093709 0.020678062
0.0012659468 -0.027603732 0.020678062
0.0024673305 -0.025602378 0.017418912
0.0045250989 -0.026679505 0.020678062
0.0045250989 -0.025602378 0.018473987
0.0072809905 -0.025602378 0.020678062
0.0045250989 -0.024942499 0.017418912
0.0045250989 -0.022343228 0.014387723
0.0077842474 -0.023540132 0.017418912
0.0077842474 -0.022343228 0.015935343
0.0077842474 -0.025389416 0.020678062
-0.0019932017 -0.029090082 0.023937214
-0.0019932017 -0.02886153 0.023032937
-0.00010801852 -0.02886153 0.023937214
0.0012659468 -0.028626708 0.023937214
-0.0019932017 -0.029835194 0.027196366
0.0012659468 -0.029354746 0.027196366
0.0012659468 -0.02886153 0.024957851
0.0045250989 -0.027807958 0.023937214
0.0077842474 -0.026555771 0.023937214
0.0077842474 -0.025602378 0.021206234
0.0035893284 -0.02886153 0.027196366
0.0045250989 -0.02863422 0.027196366
0.0077842474 -0.027536843 0.027196366
0.010066509 -0.022343228 0.017418912
0.0110434 -0.021783451 0.017418912
0.0110434 -0.019084077 0.014499608
0.014302552 -0.019419411 0.017418912
0.014302552 -0.019084077 0.017034717
0.0110434 -0.02374121 0.020678062
0.0110434 -0.022343228 0.018215805
0.013305023 -0.022343228 0.020678062
0.014302552 -0.021643316 0.020678062
0.014689185 -0.019084077 0.017418912
0.017218158 -0.019084077 0.020678062
0.009912841 -0.025602378 0.023937214
0.0110434 -0.025976148 0.027196366
0.0110434 -0.025602378 0.025781717
0.011782929 -0.025602378 0.027196366
0.0110434 -0.025051277 0.023937214
0.014302552 -0.023005724 0.023937214
0.014302552 -0.022343228 0.022192176
0.014302552 -0.024077216 0.027196366
0.015238442 -0.022343228 0.023937214
0.017561704 -0.020377396 0.023937214
0.017561704 -0.019084077 0.021264121
0.018867135 -0.019084077 0.023937214
0.016645335 -0.022343228 0.027196366
0.017561704 -0.021574954 0.027196366
0.020069413 -0.019084077 0.027196366
-0.0019932017 -0.030464925 0.030455515
0.0012659468 -0.030028263 0.030455515
-0.0019932017 -0.030839223 0.033714667
0.0012659468 -0.030493207 0.033714667
0.0045250989 -0.029277314 0.030455515
0.0045250989 -0.02886153 0.028250925
0.0059811547 -0.02886153 0.030455515
0.0077842474 -0.028227445 0.030455515
0.0045250989 -0.029767582 0.033714667
0.0072297752 -0.02886153 0.033714667
0.0077842474 -0.028641135 0.033714667
-0.0019932017 -0.030844932 0.036973815
0.0012659468 -0.030515131 0.036973815
0.0045250989 -0.029864348 0.036973815
0.0074582323 -0.02886153 0.036973815
0.0077842474 -0.028722379 0.036973815
0.0110434 -0.02666454 0.030455515
0.013046861 -0.025602378 0.030455515
0.0110434 -0.027063278 0.033714667
0.013732858 -0.025602378 0.033714667
0.014302552 -0.02485049 0.030455515
0.014302552 -0.025270617 0.033714667
0.017561704 -0.022410329 0.030455515
0.017561704 -0.022343228 0.030129597
0.017644793 -0.022343228 0.030455515
0.020820856 -0.019269027 0.030455515
0.020820856 -0.019084077 0.029834259
0.017561704 -0.022935068 0.033714667
0.018318258 -0.022343228 0.033714667
0.020820856 -0.020040572 0.033714667
0.0110434 -0.027067227 0.036973815
0.013828531 -0.025602378 0.036973815
0.014302552 -0.025355777 0.036973815
0.017561704 -0.023234142 0.036973815
