# .PCD v.7 - Point Cloud Data file format
FIELDS x y z rgb imX imY
SIZE 4 4 4 4 4 4
TYPE F F F F F F
COUNT 1 1 1 1 1 1
WIDTH 828
HEIGHT 1
VIEWPOINT 0 0 0 1 0 0 0
POINTS 828
DATA ascii
0.080541119 0.792 -0.00416592 6.3409722e-39 378 243
0.081722863 0.79000002 -0.0041554002 6.3409722e-39 379 243
0.083002798 0.78899997 -0.0041501396 6.6157641e-39 380 243
0.083958365 0.78500003 -0.0041291001 6.7079597e-39 381 243
0.08511731 0.78299999 -0.0041185799 6.7079597e-39 382 243
0.086269259 0.78100002 -0.0041080597 6.8919908e-39 383 243
0.08730197 0.778 -0.0040922803 7.2593342e-39 384 243
0.088438138 0.77600002 -0.0040817601 7.3515312e-39 385 243
0.089798726 0.77600002 -0.0040817601 7.0767422e-39 386 243
0.091159306 0.77600002 -0.0040817601 7.2611335e-39 387 243
0.092281438 0.77399999 -0.0040712398 6.895588e-39 388 243
0.093517542 0.773 -0.0040659797 7.0803393e-39 389 243
0.094627403 0.77100003 -0.0040554604 5.6152762e-39 390 243
0.095730245 0.76899999 -0.0040449398 5.8000262e-39 391 243
0.097078554 0.76899999 -0.0040449398 4.8831062e-39 392 243
0.098170884 0.76700002 -0.00403442 4.7909105e-39 393 243
0.099515699 0.76700002 -0.00403442 4.9738627e-39 394 243
0.1008605 0.76700002 -0.00403442 4.6969156e-39 395 243
0.10220531 0.76700002 -0.00403442 8.112121e-39 396 243
0.10355011 0.76700002 -0.00403442 1.1431164e-38 397 243
-0.10153904 0.76200002 -0.0053441599 1.2541129e-38 244 244
-0.100203 0.76200002 -0.0053441599 9.406478e-39 245 244
-0.09873721 0.76099998 -0.0053371461 6.3611257e-39 246 244
-0.097402923 0.76099998 -0.0053371461 3.8718451e-39 247 244
-0.096194878 0.76200002 -0.0053441599 5.4337618e-39 248 244
-0.09485884 0.76200002 -0.0053441599 5.4337618e-39 249 244
-0.093522795 0.76200002 -0.0053441599 4.9742256e-39 250 244
-0.092186764 0.76200002 -0.0053441599 4.88203e-39 251 244
-0.090850718 0.76200002 -0.0053441599 4.6969184e-39 252 244
-0.089749627 0.764 -0.0053581866 4.2359417e-39 253 244
-0.088757239 0.76700002 -0.0053792265 5.2428993e-39 254 244
-0.087640367 0.76899999 -0.0053932532 4.874477e-39 255 244
-0.086516477 0.77100003 -0.0054072798 5.2396638e-39 256 244
-0.085385576 0.773 -0.0054213065 5.1474681e-39 257 244
-0.084030248 0.773 -0.0054213065 5.1474681e-39 258 244
-0.083209693 0.778 -0.0054563731 5.1474681e-39 259 244
-0.082055993 0.77999997 -0.0054703997 5.1467507e-39 260 244
-0.080998734 0.78299999 -0.0054914397 5.1467507e-39 261 244
-0.079625882 0.78299999 -0.0054914397 5.0549152e-39 262 244
-0.0784529 0.78500003 -0.0055054668 5.0549152e-39 263 244
-0.077469274 0.78899997 -0.0055335197 4.9627195e-39 264 244
-0.076182336 0.79000002 -0.0055405335 4.9627195e-39 265 244
-0.075175926 0.79400003 -0.0055685868 4.8716029e-39 266 244
-0.073969625 0.796 -0.0055826134 4.8716029e-39 267 244
-0.072756313 0.79799998 -0.0055966396 5.0549152e-39 268 244
-0.071714841 0.80199999 -0.0056246929 5.4240578e-39 269 244
-0.070396326 0.80299997 -0.0056317062 5.6102441e-39 270 244
-0.06916023 0.80500001 -0.0056457333 5.7024398e-39 271 244
-0.067917116 0.80699998 -0.0056597595 5.9779505e-39 272 244
-0.066666998 0.80900002 -0.0056737866 5.9779505e-39 273 244
-0.065248549 0.80900002 -0.0056737866 5.8853989e-39 274 244
-0.063830093 0.80900002 -0.0056737866 5.8853989e-39 275 244
-0.062411651 0.80900002 -0.0056737866 5.8871842e-39 276 244
-0.060993209 0.80900002 -0.0056737866 6.1634109e-39 277 244
-0.05972204 0.81099999 -0.0056878133 6.1641172e-39 278 244
-0.058300085 0.81099999 -0.0056878133 6.2563142e-39 279 244
-0.056878131 0.81099999 -0.0056878133 6.9020353e-39 280 244
-0.055456176 0.81099999 -0.0056878133 7.3626547e-39 281 244
-0.054034222 0.81099999 -0.0056878133 6.623652e-39 282 244
-0.052742019 0.81300002 -0.0057018399 8.4675632e-39 283 244
-0.051316559 0.81300002 -0.0057018399 1.2066068e-38 284 244
-0.049891099 0.81300002 -0.0057018399 1.3633034e-38 285 244
-0.048465639 0.81300002 -0.0057018399 1.455318e-38 286 244
-0.047040179 0.81300002 -0.0057018399 1.0404375e-38 287 244
-0.045614719 0.81300002 -0.0057018399 8.1898861e-39 288 244
-0.044189259 0.81300002 -0.0057018399 8.7430585e-39 289 244
-0.042763799 0.81300002 -0.0057018399 8.926721e-39 290 244
-0.041338343 0.81300002 -0.0057018399 8.926721e-39 291 244
-0.039912879 0.81300002 -0.0057018399 8.2842481e-39 292 244
-0.038487419 0.81300002 -0.0057018399 7.4544874e-39 293 244
-0.03706196 0.81300002 -0.0057018399 5.8810689e-39 294 244
-0.0356365 0.81300002 -0.0057018399 5.7885145e-39 295 244
-0.034295198 0.815 -0.0057158666 5.3296944e-39 296 244
-0.032866232 0.815 -0.0057158666 5.2374987e-39 297 244
-0.031437267 0.815 -0.0057158666 5.4208138e-39 298 244
-0.030008299 0.815 -0.0057158666 5.4208138e-39 299 244
-0.028579332 0.815 -0.0057158666 5.4208138e-39 300 244
-0.02708374 0.81300002 -0.0057018399 5.4208138e-39 301 244
-0.02565828 0.81300002 -0.0057018399 5.0545522e-39 302 244
-0.02423282 0.81300002 -0.0057018399 4.9623566e-39 303 244
-0.02280736 0.81300002 -0.0057018399 5.4204579e-39 304 244
-0.0213819 0.81300002 -0.0057018399 5.5126535e-39 305 244
-0.020005532 0.815 -0.0057158666 5.3293412e-39 306 244
-0.018576566 0.815 -0.0057158666 5.5133724e-39 307 244
-0.017147599 0.815 -0.0057158666 5.330416e-39 308 244
-0.015718633 0.815 -0.0057158666 5.330416e-39 309 244
-0.014289666 0.815 -0.0057158666 5.6052051e-39 310 244
-0.0128607 0.815 -0.0057158666 5.6052051e-39 311 244
-0.011431733 0.815 -0.0057158666 5.5137283e-39 312 244
-0.010002766 0.815 -0.0057158666 5.5137283e-39 313 244
-0.0085737994 0.815 -0.0057158666 5.6059239e-39 314 244
-0.007144833 0.815 -0.0057158666 5.6059239e-39 315 244
-0.0057158666 0.815 -0.0057158666 5.698121e-39 316 244
-0.0042868997 0.815 -0.0057158666 5.7903166e-39 317 244
-0.0028579333 0.815 -0.0057158666 6.2509374e-39 318 244
-0.0014289666 0.815 -0.0057158666 6.8963068e-39 319 244
0 0.815 -0.0057158666 7.5420294e-39 320 244
0.0014289666 0.815 -0.0057158666 7.911172e-39 321 244
0.0028579333 0.815 -0.0057158666 7.8171715e-39 322 244
0.0042974199 0.81699997 -0.0057298928 7.1718021e-39 323 244
0.0057298928 0.81699997 -0.0057298928 6.6182794e-39 324 244
0.0071623665 0.81699997 -0.0057298928 6.5260824e-39 325 244
0.0085948398 0.81699997 -0.0057298928 6.3431372e-39 326 244
0.010027313 0.81699997 -0.0057298928 6.8963096e-39 327 244
0.011459786 0.81699997 -0.0057298928 6.9956981e-39 328 244
0.012892259 0.81699997 -0.0057298928 1.0499133e-38 329 244
0.014324733 0.81699997 -0.0057298928 1.4561482e-38 330 244
0.015757205 0.81699997 -0.0057298928 1.5944417e-38 331 244
0.01718968 0.81699997 -0.0057298928 1.5470463e-38 332 244
0.018622151 0.81699997 -0.0057298928 1.6208028e-38 333 244
0.020054625 0.81699997 -0.0057298928 1.7503423e-38 334 244
0.021487098 0.81699997 -0.0057298928 1.6212684e-38 335 244
0.022919571 0.81699997 -0.0057298928 1.5749555e-38 336 244
0.024352046 0.81699997 -0.0057298928 1.6210532e-38 337 244
0.025784519 0.81699997 -0.0057298928 1.6487126e-38 338 244
0.027216991 0.81699997 -0.0057298928 1.5288222e-38 339 244
0.028649466 0.81699997 -0.0057298928 1.4274422e-38 340 244
0.030081939 0.81699997 -0.0057298928 1.2061726e-38 341 244
0.03151441 0.81699997 -0.0057298928 1.030246e-38 342 244
0.032946885 0.81699997 -0.0057298928 8.18161e-39 343 244
0.034379359 0.81699997 -0.0057298928 6.1659136e-39 344 244
0.03581183 0.81699997 -0.0057298928 8.9321413e-39 345 244
0.037153132 0.815 -0.0057158666 1.5663864e-38 346 244
0.038582098 0.815 -0.0057158666 1.8614124e-38 347 244
0.040011063 0.815 -0.0057158666 1.934159e-38 348 244
0.041440032 0.815 -0.0057158666 1.5838156e-38 349 244
0.042869002 0.815 -0.0057158666 1.1771475e-38 350 244
0.044297963 0.815 -0.0057158666 8.452453e-39 351 244
0.045726933 0.815 -0.0057158666 5.9711009e-39 352 244
0.047155898 0.815 -0.0057158666 6.4320735e-39 353 244
0.048584864 0.815 -0.0057158666 5.6973979e-39 354 244
0.050013833 0.815 -0.0057158666 5.8817892e-39 355 244
0.051442798 0.815 -0.0057158666 5.3322097e-39 356 244
0.052871767 0.815 -0.0057158666 5.2400141e-39 357 244
0.054433983 0.81699997 -0.0057298928 5.3322125e-39 358 244
0.055866458 0.81699997 -0.0057298928 5.0556242e-39 359 244
0.057298932 0.81699997 -0.0057298928 5.5137283e-39 360 244
0.058731399 0.81699997 -0.0057298928 5.5137283e-39 361 244
0.060016599 0.815 -0.0057158666 5.3293412e-39 362 244
0.06144556 0.815 -0.0057158666 5.3293412e-39 363 244
0.062874533 0.815 -0.0057158666 5.6048519e-39 364 244
0.064145707 0.81300002 -0.0057018399 5.9736345e-39 365 244
0.065571159 0.81300002 -0.0057018399 5.9754323e-39 366 244
0.066831805 0.81099999 -0.0056878133 6.0676294e-39 367 244
0.06808544 0.80900002 -0.0056737866 6.4364077e-39 368 244
0.069503881 0.80900002 -0.0056737866 6.0676252e-39 369 244
0.070746996 0.80699998 -0.0056597595 6.0658273e-39 370 244
0.071983099 0.80500001 -0.0056457333 5.9736317e-39 371 244
0.07339453 0.80500001 -0.0056457333 5.6974049e-39 372 244
0.074620105 0.80299997 -0.0056317062 5.6974049e-39 373 244
0.075933352 0.80199999 -0.0056246929 5.6055694e-39 374 244
0.077146664 0.80000001 -0.0056106667 5.6981238e-39 375 244
0.078352958 0.79799998 -0.0055966396 5.7903194e-39 376 244
0.079352364 0.79400003 -0.0055685868 5.882515e-39 377 244
0.080337733 0.79000002 -0.0055405335 6.340975e-39 378 244
0.081722863 0.79000002 -0.0055405335 6.340975e-39 379 244
0.082582004 0.78500003 -0.0055054668 6.6157641e-39 380 244
0.083744459 0.78299999 -0.0054914397 6.6157641e-39 381 244
0.084899902 0.78100002 -0.0054774131 6.7079597e-39 382 244
0.086158797 0.77999997 -0.0054703997 6.8919908e-39 383 244
0.08730197 0.778 -0.0054563731 7.0760219e-39 384 244
0.088438138 0.77600002 -0.0054423464 7.0760219e-39 385 244
0.089798726 0.77600002 -0.0054423464 7.0763863e-39 386 244
0.090924352 0.77399999 -0.0054283198 7.1685819e-39 387 244
0.091923758 0.77100003 -0.0054072798 6.7111995e-39 388 244
0.093033619 0.76899999 -0.0053932532 6.9877864e-39 389 244
0.094381928 0.76899999 -0.0053932532 5.3397711e-39 390 244
0.095481269 0.76700002 -0.0053792265 5.4319667e-39 391 244
0.096826084 0.76700002 -0.0053792265 4.6987177e-39 392 244
0.098170884 0.76700002 -0.0053792265 4.6987177e-39 393 244
0.09938594 0.76599997 -0.0053722127 4.6065221e-39 394 244
0.100203 0.76200002 -0.0053441599 5.0671401e-39 395 244
0.10153904 0.76200002 -0.0053441599 8.6652948e-39 396 244
0.10287508 0.76200002 -0.0053441599 1.1707749e-38 397 244
-0.10007149 0.76099998 -0.0066714329 9.8670974e-39 245 245
-0.09873721 0.76099998 -0.0066714329 7.0064951e-39 246 245
-0.097402923 0.76099998 -0.0066714329 4.056235e-39 247 245
-0.096068636 0.76099998 -0.0066714329 5.2500894e-39 248 245
-0.094734348 0.76099998 -0.0066714329 5.2500894e-39 249 245
-0.093400061 0.76099998 -0.0066714329 4.8831062e-39 250 245
-0.092065774 0.76099998 -0.0066714329 4.7909105e-39 251 245
-0.090731487 0.76099998 -0.0066714329 4.9727809e-39 252 245
-0.08951468 0.76200002 -0.0066801999 4.5118027e-39 253 245
-0.088641517 0.76599997 -0.0067152665 4.9673887e-39 254 245
-0.087412432 0.76700002 -0.006724033 4.6911619e-39 255 245
-0.086292051 0.76899999 -0.0067415666 5.4233319e-39 256 245
-0.085385576 0.773 -0.0067766332 5.4233319e-39 257 245
-0.084030248 0.773 -0.0067766332 5.3307804e-39 258 245
-0.082995787 0.77600002 -0.0068029333 5.3307804e-39 259 245
-0.082055993 0.77999997 -0.0068379994 5.1474681e-39 260 245
-0.080791846 0.78100002 -0.0068467669 5.1474681e-39 261 245
-0.079625882 0.78299999 -0.0068642995 5.1474639e-39 262 245
-0.078253016 0.78299999 -0.0068642995 5.0552683e-39 263 245
-0.077272899 0.787 -0.0068993662 4.9630755e-39 264 245
-0.076085895 0.78899997 -0.0069168997 4.9630755e-39 265 245
-0.074986562 0.792 -0.0069431998 4.9627195e-39 266 245
-0.073969625 0.796 -0.0069782664 5.0549152e-39 267 245
-0.072756313 0.79799998 -0.0069957995 5.054918e-39 268 245
-0.071714841 0.80199999 -0.0070308661 5.147115e-39 269 245
-0.070396326 0.80299997 -0.0070396326 5.3322279e-39 270 245
-0.068988405 0.80299997 -0.0070396326 5.5166192e-39 271 245
-0.0677488 0.80500001 -0.0070571667 5.6098882e-39 272 245
-0.066502176 0.80699998 -0.0070746993 5.7946382e-39 273 245
-0.065087236 0.80699998 -0.0070746993 5.7031558e-39 274 245
-0.063830093 0.80900002 -0.0070922333 5.9801015e-39 275 245
-0.062411651 0.80900002 -0.0070922333 6.1651976e-39 276 245
-0.060993209 0.80900002 -0.0070922333 6.4414243e-39 277 245
-0.05957476 0.80900002 -0.0070922333 6.806967e-39 278 245
-0.058156308 0.80900002 -0.0070922333 6.9913583e-39 279 245
-0.056737866 0.80900002 -0.0070922333 6.9016836e-39 280 245
-0.055456176 0.81099999 -0.0071097664 7.1782705e-39 281 245
-0.054034222 0.81099999 -0.0071097664 6.2559471e-39 282 245
-0.052612271 0.81099999 -0.0071097664 6.6243708e-39 283 245
-0.051190317 0.81099999 -0.0071097664 8.7470227e-39 284 245
-0.049891099 0.81300002 -0.0071272999 1.2619238e-38 285 245
-0.048465639 0.81300002 -0.0071272999 1.437311e-38 286 245
-0.046924461 0.81099999 -0.0071097664 9.2101547e-39 287 245
-0.045502506 0.81099999 -0.0071097664 8.0036927e-39 288 245
-0.044080548 0.81099999 -0.0071097664 8.6490622e-39 289 245
-0.042658597 0.81099999 -0.0071097664 8.7416137e-39 290 245
-0.041236643 0.81099999 -0.0071097664 8.6494181e-39 291 245
-0.039814692 0.81099999 -0.0071097664 7.9118727e-39 292 245
-0.038392738 0.81099999 -0.0071097664 6.8977193e-39 293 245
-0.03706196 0.81300002 -0.0071272999 6.1569313e-39 294 245
-0.0356365 0.81300002 -0.0071272999 6.0647343e-39 295 245
-0.03421104 0.81300002 -0.0071272999 5.420811e-39 296 245
-0.03278558 0.81300002 -0.0071272999 5.420811e-39 297 245
-0.03136012 0.81300002 -0.0071272999 5.4204579e-39 298 245
-0.02993466 0.81300002 -0.0071272999 5.4204579e-39 299 245
-0.0285092 0.81300002 -0.0071272999 5.3282622e-39 300 245
-0.027017111 0.81099999 -0.0071097664 5.4204579e-39 301 245
-0.025595158 0.81099999 -0.0071097664 5.0545522e-39 302 245
-0.024173206 0.81099999 -0.0071097664 4.9623566e-39 303 245
-0.022751253 0.81099999 -0.0071097664 5.2371456e-39 304 245
-0.021329299 0.81099999 -0.0071097664 5.3293412e-39 305 245
-0.020005532 0.815 -0.007144833 5.3293412e-39 306 245
-0.018576566 0.815 -0.007144833 5.3293412e-39 307 245
-0.017147599 0.815 -0.007144833 5.330416e-39 308 245
-0.015718633 0.815 -0.007144833 5.330416e-39 309 245
-0.014289666 0.815 -0.007144833 5.5137283e-39 310 245
-0.0128607 0.815 -0.007144833 5.5137283e-39 311 245
-0.011431733 0.815 -0.007144833 5.5137283e-39 312 245
-0.010002766 0.815 -0.007144833 5.5137283e-39 313 245
-0.0085737994 0.815 -0.007144833 5.6973979e-39 314 245
-0.0071272999 0.81300002 -0.0071272999 5.9739848e-39 315 245
-0.0057018399 0.81300002 -0.0071272999 6.0661776e-39 316 245
-0.0042868997 0.815 -0.007144833 6.2509276e-39 317 245
-0.00285092 0.81300002 -0.0071272999 6.4360419e-39 318 245
-0.00142546 0.81300002 -0.0071272999 6.988857e-39 319 245
0 0.81300002 -0.0071272999 7.2654467e-39 320 245
0.00142546 0.81300002 -0.0071272999 7.4498365e-39 321 245
0.00285092 0.81300002 -0.0071272999 7.356922e-39 322 245
0.0042868997 0.815 -0.007144833 6.8037483e-39 323 245
0.0057158666 0.815 -0.007144833 6.5260852e-39 324 245
0.007144833 0.815 -0.007144833 6.3416939e-39 325 245
0.0085737994 0.815 -0.007144833 5.9758023e-39 326 245
0.010002766 0.815 -0.007144833 6.3445848e-39 327 245
0.01140368 0.81300002 -0.0071272999 5.702437e-39 328 245
0.01282914 0.81300002 -0.0071272999 5.887187e-39 329 245
0.014289666 0.815 -0.007144833 1.0964032e-38 330 245
0.015718633 0.815 -0.007144833 1.5573814e-38 331 245
0.017147599 0.815 -0.007144833 1.5933589e-38 332 245
0.018576566 0.815 -0.007144833 1.5933589e-38 333 245
0.020005532 0.815 -0.007144833 1.6211605e-38 334 245
0.021487098 0.81699997 -0.0071623665 1.5382203e-38 335 245
0.022919571 0.81699997 -0.0071623665 1.5746311e-38 336 245
0.024352046 0.81699997 -0.0071623665 1.5930702e-38 337 245
0.025784519 0.81699997 -0.0071623665 1.5196362e-38 338 245
0.027216991 0.81699997 -0.0071623665 1.4735383e-38 339 245
0.028579332 0.815 -0.007144833 1.473143e-38 340 245
0.030008299 0.815 -0.007144833 1.3533246e-38 341 245
0.031437267 0.815 -0.007144833 1.0950714e-38 342 245
0.032866232 0.815 -0.007144833 8.2766825e-39 343 245
0.034295198 0.815 -0.007144833 5.9790042e-39 344 245
0.0356365 0.81300002 -0.0071272999 5.8868086e-39 345 245
0.03706196 0.81300002 -0.0071272999 1.2529213e-38 346 245
0.038487419 0.81300002 -0.0071272999 1.7323386e-38 347 245
0.039912879 0.81300002 -0.0071272999 1.9715431e-38 348 245
0.041338343 0.81300002 -0.0071272999 1.7133954e-38 349 245
0.042763799 0.81300002 -0.0071272999 1.2053113e-38 350 245
0.044189259 0.81300002 -0.0071272999 7.5355329e-39 351 245
0.045614719 0.81300002 -0.0071272999 5.785995e-39 352 245
0.047155898 0.815 -0.007144833 6.6153857e-39 353 245
0.048584864 0.815 -0.007144833 5.6059239e-39 354 245
0.050013833 0.815 -0.007144833 5.7903166e-39 355 245
0.051442798 0.815 -0.007144833 5.5158807e-39 356 245
0.052871767 0.815 -0.007144833 5.5158807e-39 357 245
0.054300729 0.815 -0.007144833 5.5151618e-39 358 245
0.055729698 0.815 -0.007144833 5.4226061e-39 359 245
0.057158664 0.815 -0.007144833 5.6052051e-39 360 245
0.058587633 0.815 -0.007144833 5.6052051e-39 361 245
0.060016599 0.815 -0.007144833 5.3293412e-39 362 245
0.061294779 0.81300002 -0.0071272999 5.3293412e-39 363 245
0.062720239 0.81300002 -0.0071272999 5.6048547e-39 364 245
0.064145707 0.81300002 -0.0071272999 5.9732785e-39 365 245
0.065409854 0.81099999 -0.0071097664 5.6999216e-39 366 245
0.066831805 0.81099999 -0.0071097664 6.0683454e-39 367 245
0.06808544 0.80900002 -0.0070922333 6.2523709e-39 368 245
0.069332056 0.80699998 -0.0070746993 6.0679783e-39 369 245
0.070571661 0.80500001 -0.0070571667 6.15766e-39 370 245
0.071983099 0.80500001 -0.0070571667 5.97291e-39 371 245
0.073212177 0.80299997 -0.0070396326 5.698121e-39 372 245
0.074620105 0.80299997 -0.0070396326 5.698121e-39 373 245
0.075933352 0.80199999 -0.0070308661 5.5144528e-39 374 245
0.077146664 0.80000001 -0.007013333 5.6070071e-39 375 245
0.078156583 0.796 -0.0069782664 5.882515e-39 376 245
0.07915248 0.792 -0.0069431998 5.882515e-39 377 245
0.080236033 0.78899997 -0.0069168997 6.1573041e-39 378 245
0.081205636 0.78500003 -0.0068818335 6.0651084e-39 379 245
0.0823716 0.78299999 -0.0068642995 6.5242873e-39 380 245
0.083530553 0.78100002 -0.0068467669 6.5242873e-39 381 245
0.084899902 0.78100002 -0.0068467669 6.6164829e-39 382 245
0.086158797 0.77999997 -0.0068379994 6.7086786e-39 383 245
0.087077543 0.77600002 -0.0068029333 6.9841865e-39 384 245
0.088438138 0.77600002 -0.0068029333 6.9841865e-39 385 245
0.089567274 0.77399999 -0.0067853997 7.0756702e-39 386 245
0.090924352 0.77399999 -0.0067853997 7.1678659e-39 387 245
0.091685303 0.76899999 -0.0067415666 6.5275313e-39 388 245
0.093033619 0.76899999 -0.0067415666 6.8037581e-39 389 245
0.094136469 0.76700002 -0.006724033 5.2464993e-39 390 245
0.095481269 0.76700002 -0.006724033 5.3386963e-39 391 245
0.096699834 0.76599997 -0.0067152665 4.6061689e-39 392 245
0.09804289 0.76599997 -0.0067152665 4.6983646e-39 393 245
0.099126451 0.764 -0.006697733 4.3324561e-39 394 245
0.100203 0.76200002 -0.0066801999 5.6231949e-39 395 245
0.10153904 0.76200002 -0.0066801999 9.3103013e-39 396 245
0.10287508 0.76200002 -0.0066801999 1.1799223e-38 397 245
-0.10007149 0.76099998 -0.0080057196 1.0420271e-38 245 246
-0.09873721 0.76099998 -0.0080057196 8.1146419e-39 246 246
-0.097402923 0.76099998 -0.0080057196 4.1502299e-39 247 246
-0.096068636 0.76099998 -0.0080057196 4.9763808e-39 248 246
-0.094734348 0.76099998 -0.0080057196 4.9763808e-39 249 246
-0.093400061 0.76099998 -0.0080057196 4.8831062e-39 250 246
-0.092065774 0.76099998 -0.0080057196 4.7909105e-39 251 246
-0.090731487 0.76099998 -0.0080057196 4.8813083e-39 252 246
-0.08951468 0.76200002 -0.0080162399 4.2359389e-39 253 246
-0.088410079 0.764 -0.0080372803 5.0603074e-39 254 246
-0.087412432 0.76700002 -0.00806884 4.5993292e-39 255 246
-0.086067624 0.76700002 -0.00806884 5.2396638e-39 256 246
-0.085164659 0.77100003 -0.0081109209 5.1474681e-39 257 246
-0.08381284 0.77100003 -0.0081109209 5.3307804e-39 258 246
-0.082781881 0.77399999 -0.0081424797 5.3307804e-39 259 246
-0.081845596 0.778 -0.0081845606 5.1474681e-39 260 246
-0.080791846 0.78100002 -0.0082161194 5.1474681e-39 261 246
-0.079625882 0.78299999 -0.0082371598 5.1474681e-39 262 246
-0.078253016 0.78299999 -0.0082371598 5.1474681e-39 263 246
-0.077272899 0.787 -0.0082792398 4.8719588e-39 264 246
-0.076085895 0.78899997 -0.0083002793 4.7794045e-39 265 246
-0.074986562 0.792 -0.0083318399 4.9627195e-39 266 246
-0.07378377 0.79400003 -0.0083528794 5.0549152e-39 267 246
-0.072756313 0.79799998 -0.0083949603 5.0549152e-39 268 246
-0.071535997 0.80000001 -0.0084159998 5.0549152e-39 269 246
-0.070308663 0.80199999 -0.0084370393 5.422976e-39 270 246
-0.068988405 0.80299997 -0.0084475596 5.607726e-39 271 246
-0.0677488 0.80500001 -0.0084686 5.6120392e-39 272 246
-0.066337362 0.80500001 -0.0084686 5.8886247e-39 273 246
-0.065087236 0.80699998 -0.0084896395 6.0733705e-39 274 246
-0.063672297 0.80699998 -0.0084896395 6.2577617e-39 275 246
-0.062257357 0.80699998 -0.0084896395 6.7172909e-39 276 246
-0.060842417 0.80699998 -0.0084896395 6.5332598e-39 277 246
-0.05957476 0.80900002 -0.0085106799 6.8991655e-39 278 246
-0.058156308 0.80900002 -0.0085106799 6.8069698e-39 279 246
-0.056737866 0.80900002 -0.0085106799 7.0835567e-39 280 246
-0.055319421 0.80900002 -0.0085106799 6.9913611e-39 281 246
-0.054034222 0.81099999 -0.0085317204 6.7115372e-39 282 246
-0.052612271 0.81099999 -0.0085317204 6.0661678e-39 283 246
-0.051190317 0.81099999 -0.0085317204 5.4304968e-39 284 246
-0.049768366 0.81099999 -0.0085317204 1.0686006e-38 285 246
-0.048346411 0.81099999 -0.0085317204 1.3730254e-38 286 246
-0.046924461 0.81099999 -0.0085317204 7.8297341e-39 287 246
-0.045502506 0.81099999 -0.0085317204 6.7115316e-39 288 246
-0.044080548 0.81099999 -0.0085317204 7.0803127e-39 289 246
-0.042658597 0.81099999 -0.0085317204 7.0813931e-39 290 246
-0.041236643 0.81099999 -0.0085317204 7.6345655e-39 291 246
-0.039814692 0.81099999 -0.0085317204 7.0839127e-39 292 246
-0.038392738 0.81099999 -0.0085317204 5.7006195e-39 293 246
-0.036970787 0.81099999 -0.0085317204 6.0654615e-39 294 246
-0.035548832 0.81099999 -0.0085317204 5.6963189e-39 295 246
-0.03421104 0.81300002 -0.0085527599 5.5130094e-39 296 246
-0.03278558 0.81300002 -0.0085527599 5.4208138e-39 297 246
-0.03136012 0.81300002 -0.0085527599 5.3282594e-39 298 246
-0.02993466 0.81300002 -0.0085527599 5.3282594e-39 299 246
-0.0285092 0.81300002 -0.0085527599 5.3282594e-39 300 246
-0.027017111 0.81099999 -0.0085317204 5.4208138e-39 301 246
-0.025595158 0.81099999 -0.0085317204 5.2371456e-39 302 246
-0.024173206 0.81099999 -0.0085317204 5.2371456e-39 303 246
-0.022751253 0.81099999 -0.0085317204 5.2371428e-39 304 246
-0.021329299 0.81099999 -0.0085317204 5.2371428e-39 305 246
-0.01995644 0.81300002 -0.0085527599 5.3296972e-39 306 246
-0.01853098 0.81300002 -0.0085527599 5.2371428e-39 307 246
-0.01710552 0.81300002 -0.0085527599 5.5130066e-39 308 246
-0.01568006 0.81300002 -0.0085527599 5.5130066e-39 309 246
-0.0142546 0.81300002 -0.0085527599 5.5130066e-39 310 246
-0.01282914 0.81300002 -0.0085527599 5.6052023e-39 311 246
-0.01140368 0.81300002 -0.0085527599 5.6977538e-39 312 246
-0.0099782199 0.81300002 -0.0085527599 5.6977538e-39 313 246
-0.0085527599 0.81300002 -0.0085527599 5.7913886e-39 314 246
-0.0071272999 0.81300002 -0.0085527599 5.9757798e-39 315 246
-0.0057018399 0.81300002 -0.0085527599 6.0690517e-39 316 246
-0.0042763799 0.81300002 -0.0085527599 6.2534429e-39 317 246
-0.00285092 0.81300002 -0.0085527599 6.6215024e-39 318 246
-0.00142546 0.81300002 -0.0085527599 6.6215024e-39 319 246
0 0.81300002 -0.0085527599 7.0806869e-39 320 246
0.00142546 0.81300002 -0.0085527599 6.9884898e-39 321 246
0.00285092 0.81300002 -0.0085527599 7.0796093e-39 322 246
0.0042868997 0.815 -0.0085737994 6.7108282e-39 323 246
0.0057018399 0.81300002 -0.0085527599 6.4331707e-39 324 246
0.0071272999 0.81300002 -0.0085527599 6.2484207e-39 325 246
0.0085527599 0.81300002 -0.0085527599 6.3416911e-39 326 246
0.0099782199 0.81300002 -0.0085527599 6.8030294e-39 327 246
0.01140368 0.81300002 -0.0085527599 7.082112e-39 328 246
0.01282914 0.81300002 -0.0085527599 6.5289382e-39 329 246
0.0142546 0.81300002 -0.0085527599 1.0036669e-38 330 246
0.01568006 0.81300002 -0.0085527599 1.5291819e-38 331 246
0.01710552 0.81300002 -0.0085527599 1.6120857e-38 332 246
0.018576566 0.815 -0.0085737994 1.5014509e-38 333 246
0.020005532 0.815 -0.0085737994 1.4367327e-38 334 246
0.021434501 0.815 -0.0085737994 1.5658066e-38 335 246
0.022919571 0.81699997 -0.0085948398 1.786861e-38 336 246
0.024292432 0.815 -0.0085737994 1.7592021e-38 337 246
0.025721399 0.815 -0.0085737994 1.6120857e-38 338 246
0.027150365 0.815 -0.0085737994 1.6120857e-38 339 246
0.028579332 0.815 -0.0085737994 1.5747756e-38 340 246
0.030008299 0.815 -0.0085737994 1.2889691e-38 341 246
0.03136012 0.81300002 -0.0085527599 1.0216393e-38 342 246
0.03278558 0.81300002 -0.0085527599 7.6349158e-39 343 246
0.03421104 0.81300002 -0.0085527599 7.815724e-39 344 246
0.0356365 0.81300002 -0.0085527599 6.7097351e-39 345 246
0.03706196 0.81300002 -0.0085527599 7.5495697e-39 346 246
0.038487419 0.81300002 -0.0085527599 1.4648633e-38 347 246
0.039912879 0.81300002 -0.0085527599 1.8796718e-38 348 246
0.041338343 0.81300002 -0.0085527599 1.6860609e-38 349 246
0.042763799 0.81300002 -0.0085527599 1.224075e-38 350 246
0.044189259 0.81300002 -0.0085527599 6.985599e-39 351 246
0.045614719 0.81300002 -0.0085527599 5.6941595e-39 352 246
0.047040179 0.81300002 -0.0085527599 6.5242719e-39 353 246
0.048465639 0.81300002 -0.0085527599 5.7885173e-39 354 246
0.050013833 0.815 -0.0085737994 5.97291e-39 355 246
0.051442798 0.815 -0.0085737994 5.5158807e-39 356 246
0.052871767 0.815 -0.0085737994 5.4233263e-39 357 246
0.054300729 0.815 -0.0085737994 5.6059239e-39 358 246
0.055729698 0.815 -0.0085737994 5.2371428e-39 359 246
0.057158664 0.815 -0.0085737994 5.6952497e-39 360 246
0.058587633 0.815 -0.0085737994 5.7874453e-39 361 246
0.059869319 0.81300002 -0.0085527599 5.3293441e-39 362 246
0.061294779 0.81300002 -0.0085527599 5.3293441e-39 363 246
0.062720239 0.81300002 -0.0085527599 5.6963245e-39 364 246
0.064145707 0.81300002 -0.0085527599 5.7885201e-39 365 246
0.065409854 0.81099999 -0.0085317204 5.8828682e-39 366 246
0.066831805 0.81099999 -0.0085317204 6.2512905e-39 367 246
0.06808544 0.80900002 -0.0085106799 5.9775819e-39 368 246
0.06916023 0.80500001 -0.0084686 5.7009936e-39 369 246
0.070571661 0.80500001 -0.0084686 6.0658273e-39 370 246
0.071983099 0.80500001 -0.0084686 5.9736317e-39 371 246
0.073212177 0.80299997 -0.0084475596 5.6070043e-39 372 246
0.074620105 0.80299997 -0.0084475596 5.8832311e-39 373 246
0.075933352 0.80199999 -0.0084370393 5.425127e-39 374 246
0.077146664 0.80000001 -0.0084159998 5.3329314e-39 375 246
0.077960216 0.79400003 -0.0083528794 5.8828682e-39 376 246
0.07915248 0.792 -0.0083318399 5.8828682e-39 377 246
0.079829268 0.78500003 -0.0082582003 6.3402534e-39 378 246
0.081205636 0.78500003 -0.0082582003 6.3402534e-39 379 246
0.0823716 0.78299999 -0.0082371598 6.3402562e-39 380 246
0.083530553 0.78100002 -0.0082161194 6.5242873e-39 381 246
0.084791191 0.77999997 -0.0082055992 6.6164801e-39 382 246
0.08593788 0.778 -0.0081845606 6.7086758e-39 383 246
0.087077543 0.77600002 -0.0081635201 6.9845424e-39 384 246
0.088210195 0.77399999 -0.0081424797 6.9845424e-39 385 246
0.089567274 0.77399999 -0.0081424797 6.8008742e-39 386 246
0.09057194 0.77100003 -0.0081109209 6.8930712e-39 387 246
0.091685303 0.76899999 -0.0080898795 6.4364077e-39 388 246
0.093033619 0.76899999 -0.0080898795 6.6207989e-39 389 246
0.094136469 0.76700002 -0.00806884 5.1550197e-39 390 246
0.095481269 0.76700002 -0.00806884 4.9709886e-39 391 246
0.096699834 0.76599997 -0.0080583189 4.6058004e-39 392 246
0.09804289 0.76599997 -0.0080583189 4.697996e-39 393 246
0.099126451 0.764 -0.0080372803 4.7916294e-39 394 246
0.100203 0.76200002 -0.0080162399 7.0046846e-39 395 246
0.10153904 0.76200002 -0.0080162399 9.8631177e-39 396 246
-0.10007149 0.76099998 -0.0093400059 1.1157117e-38 245 247
-0.098477714 0.759 -0.00931546 9.3128278e-39 246 247
-0.097146936 0.759 -0.00931546 4.2424283e-39 247 247
-0.095816158 0.759 -0.00931546 4.883825e-39 248 247
-0.09448538 0.759 -0.00931546 4.883825e-39 249 247
-0.093154602 0.759 -0.00931546 4.7916294e-39 250 247
-0.091823816 0.759 -0.00931546 4.6994338e-39 251 247
-0.090731487 0.76099998 -0.0093400059 4.9727809e-39 252 247
-0.089397199 0.76099998 -0.0093400059 4.7887483e-39 253 247
-0.088178635 0.76200002 -0.0093522798 5.0599402e-39 254 247
-0.08729846 0.76599997 -0.0094013726 4.8751902e-39 255 247
-0.086067624 0.76700002 -0.0094136465 5.4233319e-39 256 247
-0.084943734 0.76899999 -0.0094381925 5.3307762e-39 257 247
-0.083595425 0.76899999 -0.0094381925 5.3307804e-39 258 247
-0.082674921 0.773 -0.0094872871 5.3307804e-39 259 247
-0.081635199 0.77600002 -0.009524107 5.3307804e-39 260 247
-0.080688395 0.77999997 -0.0095731998 5.3307804e-39 261 247
-0.079422489 0.78100002 -0.0095854728 5.3307804e-39 262 247
-0.078253016 0.78299999 -0.0096100196 5.3307804e-39 263 247
-0.077076539 0.78500003 -0.0096345674 4.9630755e-39 264 247
-0.07589303 0.787 -0.0096591124 4.9630755e-39 265 247
-0.074702516 0.78899997 -0.0096836593 4.8719588e-39 266 247
-0.073597915 0.792 -0.0097204801 4.8719588e-39 267 247
-0.072391629 0.79400003 -0.0097450269 4.8716029e-39 268 247
-0.071357153 0.79799998 -0.0097941197 4.8716029e-39 269 247
-0.070308663 0.80199999 -0.0098432126 4.9645188e-39 270 247
-0.068902493 0.80199999 -0.0098432126 5.5176926e-39 271 247
-0.067580476 0.80299997 -0.0098554865 5.7957046e-39 272 247
-0.066172548 0.80299997 -0.0098554865 6.5332696e-39 273 247
-0.064925931 0.80500001 -0.0098800333 6.3503105e-39 274 247
-0.063672297 0.80699998 -0.0099045793 6.1659192e-39 275 247
-0.062257357 0.80699998 -0.0099045793 6.2556079e-39 276 247
-0.060842417 0.80699998 -0.0099045793 6.1634109e-39 277 247
-0.059427481 0.80699998 -0.0099045793 6.7144183e-39 278 247
-0.058012534 0.80699998 -0.0099045793 7.0835595e-39 279 247
-0.056597594 0.80699998 -0.0099045793 7.4498211e-39 280 247
-0.055182658 0.80699998 -0.0099045793 7.08104e-39 281 247
-0.053900972 0.80900002 -0.0099291261 6.6197045e-39 282 247
-0.052482527 0.80900002 -0.0099291261 6.250922e-39 283 247
-0.051064078 0.80900002 -0.0099291261 5.7931696e-39 284 247
-0.049645633 0.80900002 -0.0099291261 1.1601493e-38 285 247
-0.048346411 0.81099999 -0.009953673 1.400432e-38 286 247
-0.046924461 0.81099999 -0.009953673 7.5506263e-39 287 247
-0.045502506 0.81099999 -0.009953673 7.630597e-39 288 247
-0.044080548 0.81099999 -0.009953673 1.1041835e-38 289 247
-0.042658597 0.81099999 -0.009953673 1.1778327e-38 290 247
-0.041236643 0.81099999 -0.009953673 1.131735e-38 291 247
-0.039814692 0.81099999 -0.009953673 8.4560585e-39 292 247
-0.038392738 0.81099999 -0.009953673 6.7969029e-39 293 247
-0.036970787 0.81099999 -0.009953673 5.6984713e-39 294 247
-0.035548832 0.81099999 -0.009953673 5.3300475e-39 295 247
-0.034126882 0.81099999 -0.009953673 5.420811e-39 296 247
-0.032704927 0.81099999 -0.009953673 5.3286154e-39 297 247
-0.031282969 0.81099999 -0.009953673 5.3282594e-39 298 247
-0.02986102 0.81099999 -0.009953673 5.3282594e-39 299 247
-0.028439065 0.81099999 -0.009953673 5.1456689e-39 300 247
-0.027017111 0.81099999 -0.009953673 5.0534732e-39 301 247
-0.025595158 0.81099999 -0.009953673 5.14495e-39 302 247
-0.024173206 0.81099999 -0.009953673 5.2371456e-39 303 247
-0.022751253 0.81099999 -0.009953673 5.1456689e-39 304 247
-0.021329299 0.81099999 -0.009953673 5.1456689e-39 305 247
-0.01995644 0.81300002 -0.0099782199 5.2371428e-39 306 247
-0.01853098 0.81300002 -0.0099782199 5.2371428e-39 307 247
-0.01710552 0.81300002 -0.0099782199 5.5130094e-39 308 247
-0.01568006 0.81300002 -0.0099782199 5.5130094e-39 309 247
-0.0142546 0.81300002 -0.0099782199 5.5130094e-39 310 247
-0.01282914 0.81300002 -0.0099782199 5.6052051e-39 311 247
-0.01140368 0.81300002 -0.0099782199 5.6062771e-39 312 247
-0.0099782199 0.81300002 -0.0099782199 5.8828654e-39 313 247
-0.0085527599 0.81300002 -0.0099782199 6.1598012e-39 314 247
-0.0071272999 0.81300002 -0.0099782199 6.6207807e-39 315 247
-0.0057018399 0.81300002 -0.0099782199 6.8055209e-39 316 247
-0.0042763799 0.81300002 -0.0099782199 6.8977165e-39 317 247
-0.00285092 0.81300002 -0.0099782199 6.8962914e-39 318 247
-0.00142546 0.81300002 -0.0099782199 6.7119001e-39 319 247
0 0.81300002 -0.0099782199 6.4356888e-39 320 247
0.00142546 0.81300002 -0.0099782199 6.3434932e-39 321 247
0.00285092 0.81300002 -0.0099782199 6.3431372e-39 322 247
0.0042763799 0.81300002 -0.0099782199 6.2509416e-39 323 247
0.0057018399 0.81300002 -0.0099782199 6.1573069e-39 324 247
0.0071272999 0.81300002 -0.0099782199 5.9729156e-39 325 247
0.0085527599 0.81300002 -0.0099782199 5.8821619e-39 326 247
0.0099782199 0.81300002 -0.0099782199 6.5275313e-39 327 247
0.01140368 0.81300002 -0.0099782199 6.7158532e-39 328 247
0.01282914 0.81300002 -0.0099782199 6.6236576e-39 329 247
0.0142546 0.81300002 -0.0099782199 1.003055e-38 330 247
0.01568006 0.81300002 -0.0099782199 1.4548136e-38 331 247
0.01710552 0.81300002 -0.0099782199 1.7225757e-38 332 247
0.01853098 0.81300002 -0.0099782199 1.6027573e-38 333 247
0.01995644 0.81300002 -0.0099782199 1.4915812e-38 334 247
0.0213819 0.81300002 -0.0099782199 1.6574974e-38 335 247
0.022863466 0.815 -0.010002766 1.8976752e-38 336 247
0.024292432 0.815 -0.010002766 1.8331383e-38 337 247
0.02565828 0.81300002 -0.0099782199 1.6674406e-38 338 247
0.02708374 0.81300002 -0.0099782199 1.6121233e-38 339 247
0.0285092 0.81300002 -0.0099782199 1.5752442e-38 340 247
0.02993466 0.81300002 -0.0099782199 1.1972421e-38 341 247
0.03136012 0.81300002 -0.0099782199 1.0215314e-38 342 247
0.03278558 0.81300002 -0.0099782199 7.4498057e-39 343 247
0.03421104 0.81300002 -0.0099782199 7.1718021e-39 344 247
0.0356365 0.81300002 -0.0099782199 6.1580103e-39 345 247
0.03706196 0.81300002 -0.0099782199 5.7038621e-39 346 247
0.038392738 0.81099999 -0.009953673 1.0405839e-38 347 247
0.039814692 0.81099999 -0.009953673 1.6032647e-38 348 247
0.041338343 0.81300002 -0.0099782199 1.492594e-38 349 247
0.042763799 0.81300002 -0.0099782199 1.1137288e-38 350 247
0.044189259 0.81300002 -0.0099782199 6.988843e-39 351 247
0.045614719 0.81300002 -0.0099782199 6.0632965e-39 352 247
0.047040179 0.81300002 -0.0099782199 6.4317203e-39 353 247
0.048465639 0.81300002 -0.0099782199 5.8807172e-39 354 247
0.049891099 0.81300002 -0.0099782199 5.9729128e-39 355 247
0.051316559 0.81300002 -0.0099782199 5.5155248e-39 356 247
0.052742019 0.81300002 -0.0099782199 5.4233291e-39 357 247
0.054167479 0.81300002 -0.0099782199 5.5137283e-39 358 247
0.055592939 0.81300002 -0.0099782199 5.3296972e-39 359 247
0.057018399 0.81300002 -0.0099782199 5.5119346e-39 360 247
0.058443859 0.81300002 -0.0099782199 5.6963245e-39 361 247
0.059869319 0.81300002 -0.0099782199 5.6959686e-39 362 247
0.061294779 0.81300002 -0.0099782199 5.5119374e-39 363 247
0.062720239 0.81300002 -0.0099782199 5.5126591e-39 364 247
0.064145707 0.81300002 -0.0099782199 5.6970518e-39 365 247
0.065409854 0.81099999 -0.009953673 5.3318594e-39 366 247
0.066831805 0.81099999 -0.009953673 5.9772288e-39 367 247
0.06808544 0.80900002 -0.0099291261 5.9775791e-39 368 247
0.06916023 0.80500001 -0.0098800333 5.8853835e-39 369 247
0.070571661 0.80500001 -0.0098800333 6.1576572e-39 370 247
0.071983099 0.80500001 -0.0098800333 6.0654615e-39 371 247
0.07339453 0.80500001 -0.0098800333 5.4258459e-39 372 247
0.074620105 0.80299997 -0.0098554865 5.5180415e-39 373 247
0.075743996 0.80000001 -0.0098186666 5.2428867e-39 374 247
0.076760925 0.796 -0.0097695729 5.1506911e-39 375 247
0.077763841 0.792 -0.0097204801 5.8828682e-39 376 247
0.078852654 0.78899997 -0.0096836593 5.7906725e-39 377 247
0.079625882 0.78299999 -0.0096100196 6.2477018e-39 378 247
0.080998734 0.78299999 -0.0096100196 6.3402562e-39 379 247
0.082161196 0.78100002 -0.0095854728 6.3402562e-39 380 247
0.083423592 0.77999997 -0.0095731998 6.5242873e-39 381 247
0.084573783 0.778 -0.0095486529 6.6164829e-39 382 247
0.08593788 0.778 -0.0095486529 6.7086786e-39 383 247
0.086853117 0.77399999 -0.0094995592 7.0760191e-39 384 247
0.088096231 0.773 -0.0094872871 7.0760191e-39 385 247
0.089220122 0.77100003 -0.0094627403 7.0760219e-39 386 247
0.090336986 0.76899999 -0.0094381925 7.168219e-39 387 247
0.091446854 0.76700002 -0.0094136465 6.7111967e-39 388 247
0.092791654 0.76700002 -0.0094136465 6.895588e-39 389 247
0.094013728 0.76599997 -0.0094013726 5.2464965e-39 390 247
0.095356777 0.76599997 -0.0094013726 5.3390522e-39 391 247
0.096447356 0.764 -0.0093768267 4.4235601e-39 392 247
0.097786903 0.764 -0.0093768267 4.3310058e-39 393 247
0.098866954 0.76200002 -0.0093522798 4.7919853e-39 394 247
0.100203 0.76200002 -0.0093522798 8.203225e-39 395 247
0.10153904 0.76200002 -0.0093522798 1.0231544e-38 396 247
-0.099808492 0.759 -0.01064624 1.1801406e-38 245 248
-0.098477714 0.759 -0.01064624 9.8670876e-39 246 248
-0.097146936 0.759 -0.01064624 4.3349897e-39 247 248
-0.095816158 0.759 -0.01064624 4.5175676e-39 248 248
-0.09448538 0.759 -0.01064624 4.7941531e-39 249 248
-0.093154602 0.759 -0.01064624 4.7916322e-39 250 248
-0.091823816 0.759 -0.01064624 4.6994366e-39 251 248
-0.090493038 0.759 -0.01064624 4.697996e-39 252 248
-0.089397199 0.76099998 -0.010674292 4.4214077e-39 253 248
-0.088062912 0.76099998 -0.010674292 4.9695439e-39 254 248
-0.087070532 0.764 -0.010716373 4.5085657e-39 255 248
-0.085955404 0.76599997 -0.010744425 5.3322153e-39 256 248
-0.084722824 0.76700002 -0.010758453 5.2396609e-39 257 248
-0.083595425 0.76899999 -0.010786506 5.3307804e-39 258 248
-0.082461022 0.77100003 -0.01081456 5.3307804e-39 259 248
-0.081424795 0.77399999 -0.01085664 5.3300629e-39 260 248
-0.080481507 0.778 -0.010912746 5.4222599e-39 261 248
-0.079422489 0.78100002 -0.010954826 5.1474709e-39 262 248
-0.0784529 0.78500003 -0.011010934 5.1474709e-39 263 248
-0.077076539 0.78500003 -0.011010934 4.8719588e-39 264 248
-0.07589303 0.787 -0.011038986 4.8719588e-39 265 248
-0.074702516 0.78899997 -0.011067039 4.8719588e-39 266 248
-0.073412068 0.79000002 -0.011081067 4.8719588e-39 267 248
-0.072209276 0.792 -0.011109119 4.8716029e-39 268 248
-0.071357153 0.79799998 -0.011193279 4.8716029e-39 269 248
-0.070133328 0.80000001 -0.011221333 5.2393106e-39 270 248
-0.068902493 0.80199999 -0.011249386 5.6080917e-39 271 248
-0.067580476 0.80299997 -0.011263412 5.8886191e-39 272 248
-0.066172548 0.80299997 -0.011263412 6.6261855e-39 273 248
-0.064925931 0.80500001 -0.011291467 6.2588337e-39 274 248
-0.063514493 0.80500001 -0.011291467 5.8900526e-39 275 248
-0.062103067 0.80500001 -0.011291467 6.0697804e-39 276 248
-0.060842417 0.80699998 -0.011319519 6.0697804e-39 277 248
-0.059427481 0.80699998 -0.011319519 6.7144211e-39 278 248
-0.058012534 0.80699998 -0.011319519 7.4519861e-39 279 248
-0.056597594 0.80699998 -0.011319519 7.2693717e-39 280 248
-0.055182658 0.80699998 -0.011319519 6.9927834e-39 281 248
-0.053767715 0.80699998 -0.011319519 6.5300102e-39 282 248
-0.052482527 0.80900002 -0.011347573 6.0690349e-39 283 248
-0.051064078 0.80900002 -0.011347573 7.633118e-39 284 248
-0.049645633 0.80900002 -0.011347573 1.2335095e-38 285 248
-0.048227187 0.80900002 -0.011347573 1.3629758e-38 286 248
-0.046808738 0.80900002 -0.011347573 8.4668037e-39 287 248
-0.045390293 0.80900002 -0.011347573 1.1501715e-38 288 248
-0.043971848 0.80900002 -0.011347573 1.8324552e-38 289 248
-0.042553399 0.80900002 -0.011347573 1.630636e-38 290 248
-0.041134953 0.80900002 -0.011347573 1.3724882e-38 291 248
-0.039716505 0.80900002 -0.011347573 9.929039e-39 292 248
-0.038298059 0.80900002 -0.011347573 6.5203202e-39 293 248
-0.036970787 0.81099999 -0.011375627 5.7913858e-39 294 248
-0.035548832 0.81099999 -0.011375627 5.2385707e-39 295 248
-0.034126882 0.81099999 -0.011375627 5.5122878e-39 296 248
-0.032704927 0.81099999 -0.011375627 5.4200921e-39 297 248
-0.031282969 0.81099999 -0.011375627 5.3282594e-39 298 248
-0.02986102 0.81099999 -0.011375627 5.3282594e-39 299 248
-0.028439065 0.81099999 -0.011375627 5.1449472e-39 300 248
-0.027017111 0.81099999 -0.011375627 5.1449472e-39 301 248
-0.025595158 0.81099999 -0.011375627 5.0534704e-39 302 248
-0.024173206 0.81099999 -0.011375627 5.1456661e-39 303 248
-0.022751253 0.81099999 -0.011375627 5.1456661e-39 304 248
-0.021329299 0.81099999 -0.011375627 5.1456661e-39 305 248
-0.01995644 0.81300002 -0.01140368 5.2371428e-39 306 248
-0.01853098 0.81300002 -0.01140368 5.3296972e-39 307 248
-0.01710552 0.81300002 -0.01140368 5.5130094e-39 308 248
-0.01568006 0.81300002 -0.01140368 5.5130094e-39 309 248
-0.0142546 0.81300002 -0.01140368 5.5137283e-39 310 248
-0.01282914 0.81300002 -0.01140368 5.5137283e-39 311 248
-0.01140368 0.81300002 -0.01140368 5.8817892e-39 312 248
-0.009953673 0.81099999 -0.011375627 6.0661804e-39 313 248
-0.0085317204 0.81099999 -0.011375627 6.2534429e-39 314 248
-0.0071097664 0.81099999 -0.011375627 6.6222241e-39 315 248
-0.0056878133 0.81099999 -0.011375627 6.8066139e-39 316 248
-0.0042763799 0.81300002 -0.01140368 6.6222213e-39 317 248
-0.00285092 0.81300002 -0.01140368 6.6204332e-39 318 248
-0.00142546 0.81300002 -0.01140368 6.2512905e-39 319 248
0 0.81300002 -0.01140368 6.3416939e-39 320 248
0.00142546 0.81300002 -0.01140368 6.3416939e-39 321 248
0.00285092 0.81300002 -0.01140368 6.3416939e-39 322 248
0.0042763799 0.81300002 -0.01140368 6.1573041e-39 323 248
0.0057018399 0.81300002 -0.01140368 6.0651112e-39 324 248
0.0071272999 0.81300002 -0.01140368 6.0651112e-39 325 248
0.0085527599 0.81300002 -0.01140368 6.2505745e-39 326 248
0.0099782199 0.81300002 -0.01140368 6.8037483e-39 327 248
0.01140368 0.81300002 -0.01140368 7.5430859e-39 328 248
0.01282914 0.81300002 -0.01140368 7.0821092e-39 329 248
0.0142546 0.81300002 -0.01140368 9.567759e-39 330 248
0.01568006 0.81300002 -0.01140368 1.4638519e-38 331 248
0.01710552 0.81300002 -0.01140368 1.8519001e-38 332 248
0.01853098 0.81300002 -0.01140368 1.8334609e-38 333 248
0.01995644 0.81300002 -0.01140368 1.5834528e-38 334 248
0.0213819 0.81300002 -0.01140368 1.7217463e-38 335 248
0.02280736 0.81300002 -0.01140368 1.8977824e-38 336 248
0.02423282 0.81300002 -0.01140368 1.7779281e-38 337 248
0.02565828 0.81300002 -0.01140368 1.5565885e-38 338 248
0.02708374 0.81300002 -0.01140368 1.5289298e-38 339 248
0.0285092 0.81300002 -0.01140368 1.5201419e-38 340 248
0.02993466 0.81300002 -0.01140368 1.1790181e-38 341 248
0.03136012 0.81300002 -0.01140368 1.0306441e-38 342 248
0.032704927 0.81099999 -0.011375627 7.4480176e-39 343 248
0.034126882 0.81099999 -0.011375627 6.9870577e-39 344 248
0.035548832 0.81099999 -0.011375627 6.710831e-39 345 248
0.036970787 0.81099999 -0.011375627 5.7013383e-39 346 248
0.038392738 0.81099999 -0.011375627 8.282816e-39 347 248
0.039814692 0.81099999 -0.011375627 1.3727741e-38 348 248
0.041236643 0.81099999 -0.011375627 1.3358598e-38 349 248
0.042763799 0.81300002 -0.01140368 1.0400802e-38 350 248
0.044189259 0.81300002 -0.01140368 7.2661501e-39 351 248
0.045614719 0.81300002 -0.01140368 6.3413254e-39 352 248
0.047040179 0.81300002 -0.01140368 6.3413254e-39 353 248
0.048465639 0.81300002 -0.01140368 5.880713e-39 354 248
0.049891099 0.81300002 -0.01140368 5.97291e-39 355 248
0.051316559 0.81300002 -0.01140368 5.5155276e-39 356 248
0.052742019 0.81300002 -0.01140368 5.3307762e-39 357 248
0.054167479 0.81300002 -0.01140368 5.5126535e-39 358 248
0.055592939 0.81300002 -0.01140368 5.4204579e-39 359 248
0.057018399 0.81300002 -0.01140368 5.5119374e-39 360 248
0.058443859 0.81300002 -0.01140368 5.6959686e-39 361 248
0.059869319 0.81300002 -0.01140368 5.6959686e-39 362 248
0.061294779 0.81300002 -0.01140368 5.5119374e-39 363 248
0.062565938 0.81099999 -0.011375627 5.6959686e-39 364 248
0.063987896 0.81099999 -0.011375627 5.7881642e-39 365 248
0.065409854 0.81099999 -0.011375627 5.5151716e-39 366 248
0.066666998 0.80900002 -0.011347573 5.9761484e-39 367 248
0.06808544 0.80900002 -0.011347573 5.8853863e-39 368 248
0.06916023 0.80500001 -0.011291467 5.7931893e-39 369 248
0.070571661 0.80500001 -0.011291467 5.8832311e-39 370 248
0.071804255 0.80299997 -0.011263412 5.8832311e-39 371 248
0.073212177 0.80299997 -0.011263412 5.3350852e-39 372 248
0.074527182 0.80199999 -0.011249386 5.703509e-39 373 248
0.075554639 0.79799998 -0.011193279 5.1521344e-39 374 248
0.076568067 0.79400003 -0.011137174 4.691515e-39 375 248
0.077567466 0.79000002 -0.011081067 5.9736289e-39 376 248
0.0784529 0.78500003 -0.011010934 5.8814332e-39 377 248
0.079625882 0.78299999 -0.010982879 6.3402562e-39 378 248
0.080998734 0.78299999 -0.010982879 6.3402562e-39 379 248
0.082161196 0.78100002 -0.010954826 6.3399002e-39 380 248
0.083423592 0.77999997 -0.010940799 6.5239314e-39 381 248
0.084573783 0.778 -0.010912746 6.7079597e-39 382 248
0.085716955 0.77600002 -0.010884693 6.8919908e-39 383 248
0.086740904 0.773 -0.010842613 6.9838235e-39 384 248
0.088096231 0.773 -0.010842613 7.0760191e-39 385 248
0.088988677 0.76899999 -0.010786506 7.1682162e-39 386 248
0.090102047 0.76700002 -0.010758453 7.5369973e-39 387 248
0.091446854 0.76700002 -0.010758453 6.621515e-39 388 248
0.092670672 0.76599997 -0.010744425 6.7140708e-39 389 248
0.094013728 0.76599997 -0.010744425 5.2486489e-39 390 248
0.095107809 0.764 -0.010716373 5.2486489e-39 391 248
0.096194878 0.76200002 -0.01068832 4.5157558e-39 392 248
0.097530924 0.76200002 -0.01068832 3.8703864e-39 393 248
0.098866954 0.76200002 -0.01068832 4.3317274e-39 394 248
0.10007149 0.76099998 -0.010674292 9.0337046e-39 395 248
0.10140578 0.76099998 -0.010674292 1.0876195e-38 396 248
-0.099808492 0.759 -0.01197702 1.2170552e-38 245 249
-0.098477714 0.759 -0.01197702 1.0605016e-38 246 249
-0.097146936 0.759 -0.01197702 4.8892452e-39 247 249
-0.095816158 0.759 -0.01197702 4.3338967e-39 248 249
-0.09448538 0.759 -0.01197702 4.3338967e-39 249 249
-0.093154602 0.759 -0.01197702 4.7005128e-39 250 249
-0.091823816 0.759 -0.01197702 4.5161215e-39 251 249
-0.090493038 0.759 -0.01197702 4.6065165e-39 252 249
-0.08916226 0.759 -0.01197702 4.5143208e-39 253 249
-0.088062912 0.76099998 -0.012008579 4.9695411e-39 254 249
-0.086842604 0.76200002 -0.01202436 4.6929528e-39 255 249
-0.085730985 0.764 -0.01205592 5.4244081e-39 256 249
-0.084722824 0.76700002 -0.01210326 5.2400169e-39 257 249
-0.083378009 0.76700002 -0.01210326 5.4226117e-39 258 249
-0.082247108 0.76899999 -0.012134819 5.5148087e-39 259 249
-0.081109203 0.77100003 -0.01216638 5.3307832e-39 260 249
-0.080067717 0.77399999 -0.01221372 5.1467507e-39 261 249
-0.079320796 0.77999997 -0.012308398 5.4226229e-39 262 249
-0.078253016 0.78299999 -0.012355739 5.4226229e-39 263 249
-0.076880157 0.78299999 -0.012355739 4.8716029e-39 264 249
-0.075700171 0.78500003 -0.0123873 4.8716029e-39 265 249
-0.07451316 0.787 -0.01241886 4.8716029e-39 266 249
-0.073412068 0.79000002 -0.0124662 4.7794073e-39 267 249
-0.072209276 0.792 -0.012497759 4.7794073e-39 268 249
-0.071178317 0.796 -0.01256088 4.8716029e-39 269 249
-0.070133328 0.80000001 -0.012624 4.9645188e-39 270 249
-0.068902493 0.80199999 -0.01265556 5.2414644e-39 271 249
-0.067496315 0.80199999 -0.01265556 5.7957046e-39 272 249
-0.066172548 0.80299997 -0.012671339 6.718021e-39 273 249
-0.064764626 0.80299997 -0.012671339 6.5343416e-39 274 249
-0.063514493 0.80500001 -0.012702899 5.9811692e-39 275 249
-0.062103067 0.80500001 -0.012702899 6.0701461e-39 276 249
-0.060691636 0.80500001 -0.012702899 5.8857548e-39 277 249
-0.059280202 0.80500001 -0.012702899 6.2556079e-39 278 249
-0.057868768 0.80500001 -0.012702899 6.8087803e-39 279 249
-0.056457333 0.80500001 -0.012702899 7.2693745e-39 280 249
-0.055182658 0.80699998 -0.01273446 7.0849819e-39 281 249
-0.053767715 0.80699998 -0.01273446 6.1619466e-39 282 249
-0.052352779 0.80699998 -0.01273446 8.1902392e-39 283 249
-0.050937839 0.80699998 -0.01273446 1.1963422e-38 284 249
-0.049522895 0.80699998 -0.01273446 1.24244e-38 285 249
-0.048227187 0.80900002 -0.012766019 1.1603256e-38 286 249
-0.046693016 0.80699998 -0.01273446 1.1050082e-38 287 249
-0.045278076 0.80699998 -0.01273446 1.3992443e-38 288 249
-0.043971848 0.80900002 -0.012766019 1.7772462e-38 289 249
