# .PCD v.7 - Point Cloud Data file format
FIELDS x y z rgb imX imY
SIZE 4 4 4 4 4 4
TYPE F F F F F F
COUNT 1 1 1 1 1 1
WIDTH 843
HEIGHT 1
VIEWPOINT 0 0 0 1 0 0 0
POINTS 843
DATA ascii
0.12590335 0.704 -0.044436477 7.8258077e-39 422 276
0.12695712 0.70300001 -0.04437336 7.6414151e-39 423 276
0.12782501 0.70099998 -0.044247117 6.8156173e-39 424 276
0.1285018 0.69800001 -0.04405776 6.9078129e-39 425 276
0.12972562 0.69800001 -0.04405776 6.4468389e-39 426 276
-0.071592107 0.704 -0.045670826 1.5762559e-38 262 277
-0.070357755 0.704 -0.045670826 1.3181081e-38 263 277
-0.06912341 0.704 -0.045670826 7.7379337e-39 264 277
-0.067889065 0.704 -0.045670826 5.1564561e-39 265 277
-0.066654719 0.704 -0.045670826 5.99016e-39 266 277
-0.065420374 0.704 -0.045670826 5.80541e-39 267 277
-0.064186029 0.704 -0.045670826 6.0798347e-39 268 277
-0.062951677 0.704 -0.045670826 5.987639e-39 269 277
-0.061980337 0.70700002 -0.045865446 6.4457459e-39 270 277
-0.060826641 0.708 -0.045930319 6.2609959e-39 271 277
-0.059753593 0.70999998 -0.046060063 8.0004894e-39 272 277
-0.058591139 0.71100003 -0.046124939 7.6317083e-39 273 277
-0.057505824 0.713 -0.046254687 8.7305028e-39 274 277
-0.0563346 0.71399999 -0.046319555 8.6379471e-39 275 277
-0.055237014 0.71600002 -0.046449307 8.2709624e-39 276 277
-0.054433983 0.722 -0.046838548 8.2709624e-39 277 277
-0.053168077 0.722 -0.046838548 7.9954517e-39 278 277
-0.052117832 0.72500002 -0.047033165 7.9032561e-39 279 277
-0.050986931 0.727 -0.047162913 8.0858495e-39 280 277
-0.049985781 0.73100001 -0.047422405 7.9018183e-39 281 277
-0.048837345 0.73299998 -0.04755215 7.3518844e-39 282 277
-0.047746774 0.736 -0.047746774 7.3518844e-39 283 277
-0.046456318 0.736 -0.047746774 6.98562e-39 284 277
-0.045349967 0.73900002 -0.047941394 6.98562e-39 285 277
-0.044352323 0.74400002 -0.048265759 6.9856228e-39 286 277
-0.043221418 0.74699998 -0.048460379 6.9856228e-39 287 277
-0.042023893 0.74900001 -0.048590127 7.3515284e-39 288 277
-0.040764999 0.75 -0.048655 7.3515284e-39 289 277
-0.039660402 0.75400001 -0.048914492 7.4426437e-39 290 277
-0.038338386 0.75400001 -0.048914492 7.4426437e-39 291 277
-0.037016369 0.75400001 -0.048914492 7.5348435e-39 292 277
-0.03583638 0.75700003 -0.049109112 7.7192348e-39 293 277
-0.034600276 0.759 -0.049238857 8.1802101e-39 294 277
-0.033269498 0.759 -0.049238857 8.3649601e-39 295 277
-0.032064959 0.76200002 -0.049433477 8.181645e-39 296 277
-0.030728921 0.76200002 -0.049433477 8.3656762e-39 297 277
-0.029470026 0.764 -0.049563225 8.3656762e-39 298 277
-0.028130481 0.764 -0.049563225 8.3656762e-39 299 277
-0.026861066 0.76599997 -0.04969297 8.5497045e-39 300 277
-0.025518013 0.76599997 -0.04969297 8.5497045e-39 301 277
-0.024206521 0.76700002 -0.049757849 8.5497017e-39 302 277
-0.022861714 0.76700002 -0.049757849 8.6418973e-39 303 277
-0.021573013 0.76899999 -0.04988759 9.0088806e-39 304 277
-0.0202247 0.76899999 -0.04988759 9.2854689e-39 305 277
-0.018876385 0.76899999 -0.04988759 9.4720041e-39 306 277
-0.017528072 0.76899999 -0.04988759 9.9333424e-39 307 277
-0.016221842 0.77100003 -0.050017338 1.0024456e-38 308 277
-0.01487002 0.77100003 -0.050017338 9.840065e-39 309 277
-0.013518199 0.77100003 -0.050017338 9.7460799e-39 310 277
-0.01216638 0.77100003 -0.050017338 9.4691342e-39 311 277
-0.010842613 0.773 -0.050147086 9.3751492e-39 312 277
-0.0094872871 0.773 -0.050147086 9.0985623e-39 313 277
-0.0081319595 0.773 -0.050147086 8.6408183e-39 314 277
-0.0067766332 0.773 -0.050147086 8.7333727e-39 315 277
-0.0054213065 0.773 -0.050147086 8.0926696e-39 316 277
-0.0040659797 0.773 -0.050147086 8.000474e-39 317 277
-0.0027106532 0.773 -0.050147086 6.8995284e-39 318 277
-0.0013553266 0.773 -0.050147086 6.7154973e-39 319 277
0 0.77100003 -0.050017338 6.9931632e-39 320 277
0.00135182 0.77100003 -0.050017338 7.3615856e-39 321 277
0.0027036399 0.77100003 -0.050017338 8.5550743e-39 322 277
0.0040554604 0.77100003 -0.050017338 8.4628786e-39 323 277
0.0054213065 0.773 -0.050147086 9.379077e-39 324 277
0.0067766332 0.773 -0.050147086 9.194327e-39 325 277
0.0081319595 0.773 -0.050147086 9.2840199e-39 326 277
0.0094627403 0.77100003 -0.050017338 9.0996287e-39 327 277
0.01081456 0.77100003 -0.050017338 8.8237676e-39 328 277
0.01216638 0.77100003 -0.050017338 8.8237676e-39 329 277
0.013518199 0.77100003 -0.050017338 9.6567499e-39 330 277
0.014908593 0.773 -0.050147086 1.1039684e-38 331 277
0.016221842 0.77100003 -0.050017338 9.3869775e-39 332 277
0.01757366 0.77100003 -0.050017338 7.4512308e-39 333 277
0.018974574 0.773 -0.050147086 5.7074326e-39 334 277
0.0203299 0.773 -0.050147086 5.5234029e-39 335 277
0.021685226 0.773 -0.050147086 7.3572541e-39 336 277
0.023040552 0.773 -0.050147086 7.3572541e-39 337 277
0.024395877 0.773 -0.050147086 9.0989126e-39 338 277
0.025751207 0.773 -0.050147086 9.006717e-39 339 277
0.027036399 0.77100003 -0.050017338 9.0967602e-39 340 277
0.028388219 0.77100003 -0.050017338 9.0045646e-39 341 277
0.029740039 0.77100003 -0.050017338 8.9134451e-39 342 277
0.031091858 0.77100003 -0.050017338 9.0056422e-39 343 277
0.032443684 0.77100003 -0.050017338 8.7308531e-39 344 277
0.033795502 0.77100003 -0.050017338 8.7308531e-39 345 277
0.03514732 0.77100003 -0.050017338 8.9134479e-39 346 277
0.036499143 0.77100003 -0.050017338 8.9134479e-39 347 277
0.037850961 0.77100003 -0.050017338 8.9141682e-39 348 277
0.03920278 0.77100003 -0.050017338 9.0063638e-39 349 277
0.040554602 0.77100003 -0.050017338 9.006717e-39 350 277
0.04190642 0.77100003 -0.050017338 9.006717e-39 351 277
0.043258239 0.77100003 -0.050017338 8.9137955e-39 352 277
0.044610061 0.77100003 -0.050017338 9.0059925e-39 353 277
0.045961879 0.77100003 -0.050017338 8.9137955e-39 354 277
0.047313701 0.77100003 -0.050017338 9.0059925e-39 355 277
0.04866552 0.77100003 -0.050017338 8.4556886e-39 356 277
0.050017338 0.77100003 -0.050017338 8.2712973e-39 357 277
0.05136916 0.77100003 -0.050017338 6.4367426e-39 358 277
0.052720979 0.77100003 -0.050017338 6.4367426e-39 359 277
0.054072797 0.77100003 -0.050017338 5.3386697e-39 360 277
0.055424623 0.77100003 -0.050017338 5.800008e-39 361 277
0.056776438 0.77100003 -0.050017338 6.6268918e-39 362 277
0.058128256 0.77100003 -0.050017338 6.5346947e-39 363 277
0.059480079 0.77100003 -0.050017338 8.1827142e-39 364 277
0.060674097 0.76899999 -0.04988759 8.0905186e-39 365 277
0.062022414 0.76899999 -0.04988759 8.9141682e-39 366 277
0.063370727 0.76899999 -0.04988759 8.7297769e-39 367 277
0.064719036 0.76899999 -0.04988759 9.0045646e-39 368 277
0.066067353 0.76899999 -0.04988759 9.0967602e-39 369 277
0.067415662 0.76899999 -0.04988759 8.7301329e-39 370 277
0.068763971 0.76899999 -0.04988759 8.9141654e-39 371 277
0.070112288 0.76899999 -0.04988759 8.6386561e-39 372 277
0.071460605 0.76899999 -0.04988759 8.5461017e-39 373 277
0.072808921 0.76899999 -0.04988759 8.5453885e-39 374 277
0.074157231 0.76899999 -0.04988759 8.5453885e-39 375 277
0.07550554 0.76899999 -0.04988759 8.5450326e-39 376 277
0.076853856 0.76899999 -0.04988759 9.5591845e-39 377 277
0.078202173 0.76899999 -0.04988759 1.0945327e-38 378 277
0.079550482 0.76899999 -0.04988759 1.3065826e-38 379 277
0.080898799 0.76899999 -0.04988759 1.3066543e-38 380 277
0.082247108 0.76899999 -0.04988759 1.0946043e-38 381 277
0.083378009 0.76700002 -0.049757849 9.471658e-39 382 277
0.084722824 0.76700002 -0.049757849 8.2731148e-39 383 277
0.086067624 0.76700002 -0.049757849 9.5609697e-39 384 277
0.08729846 0.76599997 -0.04969297 1.103574e-38 385 277
0.088641517 0.76599997 -0.04969297 1.2145314e-38 386 277
0.089749627 0.764 -0.049563225 1.1130804e-38 387 277
0.090850718 0.76200002 -0.049433477 9.3744177e-39 388 277
0.092186764 0.76200002 -0.049433477 1.0019787e-38 389 277
0.093400061 0.76099998 -0.049368605 1.1964515e-38 390 277
0.094734348 0.76099998 -0.049368605 1.1872319e-38 391 277
0.095816158 0.759 -0.049238857 1.1221182e-38 392 277
0.097146936 0.759 -0.049238857 9.1006824e-39 393 277
0.098218225 0.75700003 -0.049109112 9.9297424e-39 394 277
0.099282496 0.755 -0.048979364 1.1128286e-38 395 277
0.10060626 0.755 -0.048979364 1.1405242e-38 396 277
0.10179503 0.75400001 -0.048914492 1.1405242e-38 397 277
0.10284352 0.75199997 -0.048784744 1.1035018e-38 398 277
0.10388499 0.75 -0.048655 9.3758554e-39 399 277
0.10505974 0.74900001 -0.048590127 8.4560613e-39 400 277
0.10608894 0.74699998 -0.048460379 9.1936264e-39 401 277
0.10696736 0.74400002 -0.048265759 1.0119176e-38 402 277
0.10798078 0.74199998 -0.048136011 9.9347843e-39 403 277
0.10913447 0.741 -0.048071139 9.3780176e-39 404 277
0.1099866 0.73799998 -0.047876518 8.9166793e-39 405 277
0.11097898 0.736 -0.047746774 9.1885901e-39 406 277
0.11196436 0.73400003 -0.047617026 9.1885901e-39 407 277
0.11232553 0.72799999 -0.047227785 8.8215998e-39 408 277
0.11344593 0.727 -0.047162913 8.9137955e-39 409 277
0.114405 0.72500002 -0.047033165 9.006717e-39 410 277
0.11519751 0.722 -0.046838548 9.006717e-39 411 277
0.11646342 0.722 -0.046838548 9.0985623e-39 412 277
0.11740319 0.72000003 -0.0467088 9.0985623e-39 413 277
0.11817116 0.71700001 -0.046514176 9.6492249e-39 414 277
0.11926173 0.71600002 -0.046449307 9.9261719e-39 415 277
0.12018047 0.71399999 -0.046319555 9.836493e-39 416 277
0.12092214 0.71100003 -0.046124939 1.0205636e-38 417 277
0.12199692 0.70999998 -0.046060063 9.7496966e-39 418 277
0.12289464 0.708 -0.045930319 9.7496966e-39 419 277
0.12378532 0.70599997 -0.04580057 9.3834252e-39 420 277
0.124669 0.704 -0.045670826 9.6600121e-39 421 277
0.12572452 0.70300001 -0.04560595 7.5510159e-39 422 277
0.12659591 0.70099998 -0.045476202 7.4588203e-39 423 277
0.12764266 0.69999999 -0.04541133 6.8152543e-39 424 277
0.1283177 0.69700003 -0.045216713 6.9074499e-39 425 277
0.12935391 0.69599998 -0.045151837 6.0794871e-39 426 277
0.13057424 0.69599998 -0.045151837 7.462423e-39 427 277
-0.071490414 0.70300001 -0.046838548 1.594695e-38 262 278
-0.070257813 0.70300001 -0.046838548 1.3826451e-38 263 278
-0.068828844 0.70099998 -0.046705291 8.2893026e-39 264 278
-0.067599766 0.70099998 -0.046705291 5.1546512e-39 265 278
-0.066560037 0.70300001 -0.046838548 5.9894355e-39 266 278
-0.065327443 0.70300001 -0.046838548 5.9894355e-39 267 278
-0.064094849 0.70300001 -0.046838548 6.2631469e-39 268 278
-0.062862262 0.70300001 -0.046838548 6.2631469e-39 269 278
-0.061717331 0.704 -0.046905171 6.3535503e-39 270 278
-0.060654808 0.70599997 -0.047038425 5.9847692e-39 271 278
-0.059501119 0.70700002 -0.047105055 7.7246228e-39 272 278
-0.058343921 0.708 -0.047171678 7.3562004e-39 273 278
-0.057344519 0.71100003 -0.047371563 8.6379471e-39 274 278
-0.056255698 0.713 -0.047504812 8.5457514e-39 275 278
-0.05508272 0.71399999 -0.047571439 8.3624392e-39 276 278
-0.054057021 0.71700001 -0.04777132 8.1780479e-39 277 278
-0.053168077 0.722 -0.048104454 7.9947356e-39 278 278
-0.052117832 0.72500002 -0.048304334 7.9021813e-39 279 278
-0.050986931 0.727 -0.048437584 7.8103416e-39 280 278
-0.0499174 0.73000002 -0.048637468 7.8103416e-39 281 278
-0.048704091 0.73100001 -0.048704091 7.5355498e-39 282 278
-0.047617026 0.73400003 -0.048903972 7.5355498e-39 283 278
-0.046456318 0.736 -0.049037226 7.1685693e-39 284 278
-0.045349967 0.73900002 -0.049237106 7.1685693e-39 285 278
-0.044352323 0.74400002 -0.04957024 7.0767394e-39 286 278
-0.043221418 0.74699998 -0.049770117 7.0767394e-39 287 278
-0.042023893 0.74900001 -0.04990337 7.3518844e-39 288 278
-0.040764999 0.75 -0.049969997 7.2596873e-39 289 278
-0.039555199 0.75199997 -0.050103247 7.5351994e-39 290 278
-0.038338386 0.75400001 -0.050236505 7.5351994e-39 291 278
-0.037016369 0.75400001 -0.050236505 7.7192376e-39 292 278
-0.035741698 0.755 -0.050303131 7.8114332e-39 293 278
-0.034509107 0.75700003 -0.050436385 8.2727645e-39 294 278
-0.033269498 0.759 -0.050569639 8.3649601e-39 295 278
-0.032064959 0.76200002 -0.050769519 8.3656762e-39 296 278
-0.030728921 0.76200002 -0.050769519 8.3656762e-39 297 278
-0.029392879 0.76200002 -0.050769519 8.4571557e-39 298 278
-0.028130481 0.764 -0.050902773 8.5493514e-39 299 278
-0.026790932 0.764 -0.050902773 8.6408239e-39 300 278
-0.025451386 0.764 -0.050902773 8.6408239e-39 301 278
-0.024174958 0.76599997 -0.051036026 8.7330167e-39 302 278
-0.022831906 0.76599997 -0.051036026 8.8252124e-39 303 278
-0.021516906 0.76700002 -0.051102653 9.1010748e-39 304 278
-0.020172099 0.76700002 -0.051102653 9.5620515e-39 305 278
-0.018827293 0.76700002 -0.051102653 9.8397146e-39 306 278
-0.017528072 0.76899999 -0.051235907 1.0208856e-38 307 278
-0.016179759 0.76899999 -0.051235907 9.9308383e-39 308 278
-0.014831445 0.76899999 -0.051235907 9.65425e-39 309 278
-0.013483133 0.76899999 -0.051235907 9.4680679e-39 310 278
-0.012134819 0.76899999 -0.051235907 9.2833165e-39 311 278
-0.01081456 0.77100003 -0.05136916 9.1907579e-39 312 278
-0.0094627403 0.77100003 -0.05136916 9.0060079e-39 313 278
-0.0081109209 0.77100003 -0.05136916 8.7315692e-39 314 278
-0.0067590997 0.77100003 -0.05136916 8.8237648e-39 315 278
-0.0054072798 0.77100003 -0.05136916 8.1830702e-39 316 278
-0.0040554604 0.77100003 -0.05136916 7.9983202e-39 317 278
-0.0027036399 0.77100003 -0.05136916 7.2643551e-39 318 278
-0.00135182 0.77100003 -0.05136916 7.3565507e-39 319 278
0 0.77100003 -0.05136916 7.9075693e-39 320 278
0.00135182 0.77100003 -0.05136916 8.0001236e-39 321 278
0.0027036399 0.77100003 -0.05136916 8.6408183e-39 322 278
0.0040554604 0.77100003 -0.05136916 8.6408183e-39 323 278
0.0054072798 0.77100003 -0.05136916 8.732651e-39 324 278
0.0067590997 0.77100003 -0.05136916 8.6404554e-39 325 278
0.0081109209 0.77100003 -0.05136916 8.8234019e-39 326 278
0.0094381925 0.76899999 -0.051235907 8.8234019e-39 327 278
0.010786506 0.76899999 -0.051235907 8.8234019e-39 328 278
0.01216638 0.77100003 -0.05136916 9.1918243e-39 329 278
0.013518199 0.77100003 -0.05136916 9.4734404e-39 330 278
0.01487002 0.77100003 -0.05136916 1.0395037e-38 331 278
0.016221842 0.77100003 -0.05136916 8.6483433e-39 332 278
0.01757366 0.77100003 -0.05136916 6.5278536e-39 333 278
0.018925481 0.77100003 -0.05136916 4.6972505e-39 334 278
0.020277301 0.77100003 -0.05136916 4.6972505e-39 335 278
0.021629119 0.77100003 -0.05136916 6.438909e-39 336 278
0.02298094 0.77100003 -0.05136916 6.531106e-39 337 278
0.02433276 0.77100003 -0.05136916 8.7308503e-39 338 278
0.02568458 0.77100003 -0.05136916 8.6386533e-39 339 278
0.026966266 0.76899999 -0.051235907 8.9134451e-39 340 278
0.028314579 0.76899999 -0.051235907 8.9134451e-39 341 278
0.02966289 0.76899999 -0.051235907 8.9145185e-39 342 278
0.031011207 0.76899999 -0.051235907 8.9145185e-39 343 278
0.032359518 0.76899999 -0.051235907 8.6386533e-39 344 278
0.033707831 0.76899999 -0.051235907 8.7308503e-39 345 278
0.035056144 0.76899999 -0.051235907 8.7297769e-39 346 278
0.036404461 0.76899999 -0.051235907 8.7297769e-39 347 278
0.03775277 0.76899999 -0.051235907 8.6379372e-39 348 278
0.039101087 0.76899999 -0.051235907 8.7301329e-39 349 278
0.0404494 0.76899999 -0.051235907 8.6386505e-39 350 278
0.041797712 0.76899999 -0.051235907 8.7312063e-39 351 278
0.043146025 0.76899999 -0.051235907 8.9145185e-39 352 278
0.044494338 0.76899999 -0.051235907 8.730486e-39 353 278
0.045842651 0.76899999 -0.051235907 8.730486e-39 354 278
0.047190964 0.76899999 -0.051235907 8.730486e-39 355 278
0.048539277 0.76899999 -0.051235907 8.546808e-39 356 278
0.04988759 0.76899999 -0.051235907 8.2705812e-39 357 278
0.051235907 0.76899999 -0.051235907 7.077796e-39 358 278
0.052584216 0.76899999 -0.051235907 7.1699916e-39 359 278
0.053932533 0.76899999 -0.051235907 5.7049411e-39 360 278
0.055424623 0.77100003 -0.05136916 6.1659192e-39 361 278
0.056776438 0.77100003 -0.05136916 7.449468e-39 362 278
0.057977475 0.76899999 -0.051235907 7.2650767e-39 363 278
0.059325781 0.76899999 -0.051235907 8.5471878e-39 364 278
0.060674097 0.76899999 -0.051235907 8.4549907e-39 365 278
0.062022414 0.76899999 -0.051235907 8.913092e-39 366 278
0.063370727 0.76899999 -0.051235907 8.913092e-39 367 278
0.064719036 0.76899999 -0.051235907 8.9134479e-39 368 278
0.066067353 0.76899999 -0.051235907 8.9134479e-39 369 278
0.067240335 0.76700002 -0.051102653 9.0059981e-39 370 278
0.068585135 0.76700002 -0.051102653 8.9134423e-39 371 278
0.06992995 0.76700002 -0.051102653 8.8215998e-39 372 278
0.07127475 0.76700002 -0.051102653 8.8215998e-39 373 278
0.072619557 0.76700002 -0.051102653 8.7290483e-39 374 278
0.073964365 0.76700002 -0.051102653 8.6368526e-39 375 278
0.075309172 0.76700002 -0.051102653 8.4549851e-39 376 278
0.07665398 0.76700002 -0.051102653 9.1929103e-39 377 278
0.077998787 0.76700002 -0.051102653 1.0759873e-38 378 278
0.079343595 0.76700002 -0.051102653 1.2788177e-38 379 278
0.080688395 0.76700002 -0.051102653 1.2791404e-38 380 278
0.08203321 0.76700002 -0.051102653 9.5645571e-39 381 278
0.083378009 0.76700002 -0.051102653 9.0081617e-39 382 278
0.084722824 0.76700002 -0.051102653 8.8237704e-39 383 278
0.085955404 0.76599997 -0.051036026 9.8393461e-39 384 278
0.087070532 0.764 -0.050902773 1.1591062e-38 385 278
0.088410079 0.764 -0.050902773 1.2427994e-38 386 278
0.089749627 0.764 -0.050902773 1.2427994e-38 387 278
0.090850718 0.76200002 -0.050769519 1.0020846e-38 388 278
0.092065774 0.76099998 -0.050702889 9.5598683e-39 389 278
0.093400061 0.76099998 -0.050702889 1.1319864e-38 390 278
0.09448538 0.759 -0.050569639 1.288755e-38 391 278
0.095816158 0.759 -0.050569639 1.2335796e-38 392 278
0.096890956 0.75700003 -0.050436385 8.7401648e-39 393 278
0.097958729 0.755 -0.050303131 9.1979031e-39 394 278
0.099282496 0.755 -0.050303131 1.1502795e-38 395 278
0.10047301 0.75400001 -0.050236505 1.2515892e-38 396 278
0.10152501 0.75199997 -0.050103247 1.2515892e-38 397 278
0.10257 0.75 -0.049969997 1.1499942e-38 398 278
0.10374649 0.74900001 -0.04990337 9.4716384e-39 399 278
0.10477919 0.74699998 -0.049770117 8.5493261e-39 400 278
0.10566287 0.74400002 -0.04957024 9.3790868e-39 401 278
0.1066798 0.74199998 -0.049436983 9.7511161e-39 402 278
0.10783526 0.741 -0.049370356 9.290138e-39 403 278
0.10883991 0.73900002 -0.049237106 9.7439289e-39 404 278
0.1099866 0.73799998 -0.049170475 9.1907551e-39 405 278
0.11067741 0.73400003 -0.048903972 9.0059981e-39 406 278
0.11181182 0.73299998 -0.048837345 8.9134423e-39 407 278
0.11217125 0.727 -0.048437584 8.8215998e-39 408 278
0.11313383 0.72500002 -0.048304334 9.0059925e-39 409 278
0.11408939 0.72299999 -0.048171077 9.0992755e-39 410 278
0.11519751 0.722 -0.048104454 8.9152444e-39 411 278
0.11614081 0.72000003 -0.0479712 9.1907579e-39 412 278
0.11691402 0.71700001 -0.04777132 9.1907579e-39 413 278
0.11800634 0.71600002 -0.047704693 9.4662686e-39 414 278
0.1189286 0.71399999 -0.047571439 9.7428569e-39 415 278
0.12001215 0.713 -0.047504812 9.6538968e-39 416 278
0.12092214 0.71100003 -0.047371563 1.0023039e-38 417 278
0.12165328 0.708 -0.047171678 9.7496966e-39 418 278
0.12254747 0.70599997 -0.047038425 9.6574996e-39 419 278
0.12343466 0.704 -0.046905171 9.2923086e-39 420 278
0.12449192 0.70300001 -0.046838548 9.5685353e-39 421 278
0.12536684 0.70099998 -0.046705291 7.8265168e-39 422 278
0.12641533 0.69999999 -0.046638668 7.6417654e-39 423 278
0.12727797 0.69800001 -0.046505414 6.7237748e-39 424 278
0.12813358 0.69599998 -0.046372157 6.7237748e-39 425 278
0.12898222 0.69400001 -0.046238903 5.8958091e-39 426 278
0.13001142 0.69300002 -0.04617228 7.2787436e-39 427 278
-0.071490414 0.70300001 -0.048071139 1.6039147e-38 262 279
-0.070257813 0.70300001 -0.048071139 1.4564016e-38 263 279
-0.068730667 0.69999999 -0.047865998 8.8442742e-39 264 279
-0.067503333 0.69999999 -0.047865998 4.8798622e-39 265 279
-0.066370681 0.70099998 -0.047934376 5.8997566e-39 266 279
-0.065141588 0.70099998 -0.047934376 5.6231697e-39 267 279
-0.063912503 0.70099998 -0.047934376 6.1723862e-39 268 279
-0.062683418 0.70099998 -0.047934376 5.9876362e-39 269 279
-0.06145433 0.70099998 -0.047934376 6.3535475e-39 270 279
-0.06039707 0.70300001 -0.048071139 6.2613519e-39 271 279
-0.059248637 0.704 -0.048139516 7.9997677e-39 272 279
-0.05826151 0.70700002 -0.048344657 7.8153764e-39 273 279
-0.057102561 0.708 -0.048413038 8.7305028e-39 274 279
-0.056097899 0.71100003 -0.048618179 8.6379471e-39 275 279
-0.055005573 0.713 -0.048754938 8.3624392e-39 276 279
-0.053830836 0.71399999 -0.048823316 8.2702435e-39 277 279
-0.053388998 0.72500002 -0.0495755 7.9947328e-39 278 279
-0.052117832 0.72500002 -0.0495755 7.9025372e-39 279 279
-0.050986931 0.727 -0.049712259 7.6270265e-39 280 279
-0.0499174 0.73000002 -0.0499174 7.7192221e-39 281 279
-0.048704091 0.73100001 -0.049985781 7.4444303e-39 282 279
-0.04755215 0.73299998 -0.050122537 7.3522347e-39 283 279
-0.046330083 0.73400003 -0.050190922 7.2600377e-39 284 279
-0.045165867 0.736 -0.050327681 7.2600377e-39 285 279
-0.044233091 0.74199998 -0.050737958 7.3518816e-39 286 279
-0.04316356 0.74599999 -0.051011477 7.3518816e-39 287 279
-0.041911677 0.74699998 -0.051079858 7.6273923e-39 288 279
-0.040710647 0.74900001 -0.051216617 7.5351966e-39 289 279
-0.039555199 0.75199997 -0.051421758 7.3515284e-39 290 279
-0.038338386 0.75400001 -0.051558517 7.4437241e-39 291 279
-0.037016369 0.75400001 -0.051558517 7.7195907e-39 292 279
-0.035741698 0.755 -0.051626898 8.1802101e-39 293 279
-0.034509107 0.75700003 -0.051763661 8.2727617e-39 294 279
-0.033269498 0.759 -0.051900417 8.4571529e-39 295 279
-0.032022879 0.76099998 -0.052037176 8.4575089e-39 296 279
-0.030688593 0.76099998 -0.052037176 8.5497045e-39 297 279
-0.029392879 0.76200002 -0.052105557 8.5497045e-39 298 279
-0.028056841 0.76200002 -0.052105557 8.5497045e-39 299 279
-0.0267208 0.76200002 -0.052105557 8.7330167e-39 300 279
-0.025451386 0.764 -0.052242316 8.7330167e-39 301 279
-0.024111839 0.764 -0.052242316 8.8252124e-39 302 279
-0.022831906 0.76599997 -0.052379075 8.9174094e-39 303 279
-0.021488851 0.76599997 -0.052379075 9.4691398e-39 304 279
-0.020145798 0.76599997 -0.052379075 9.7457267e-39 305 279
-0.018827293 0.76700002 -0.052447457 9.8397174e-39 306 279
-0.017482487 0.76700002 -0.052447457 9.6553276e-39 307 279
-0.01613768 0.76700002 -0.052447457 9.8368434e-39 308 279
-0.014792874 0.76700002 -0.052447457 9.3758666e-39 309 279
-0.013448066 0.76700002 -0.052447457 9.190402e-39 310 279
-0.01210326 0.76700002 -0.052447457 9.0982063e-39 311 279
-0.010758453 0.76700002 -0.052447457 9.0063638e-39 312 279
-0.0094381925 0.76899999 -0.052584216 9.0063638e-39 313 279
-0.0080898795 0.76899999 -0.052584216 8.7308503e-39 314 279
-0.0067415666 0.76899999 -0.052584216 8.823046e-39 315 279
-0.0053932532 0.76899999 -0.052584216 8.1809136e-39 316 279
-0.0040449398 0.76899999 -0.052584216 8.2734679e-39 317 279
-0.0026966266 0.76899999 -0.052584216 7.6316928e-39 318 279
-0.0013483133 0.76899999 -0.052584216 7.815724e-39 319 279
0 0.76899999 -0.052584216 8.0901501e-39 320 279
0.0013483133 0.76899999 -0.052584216 8.0901501e-39 321 279
0.0026966266 0.76899999 -0.052584216 8.5482541e-39 322 279
0.0040449398 0.76899999 -0.052584216 8.5482541e-39 323 279
0.0053932532 0.76899999 -0.052584216 8.823046e-39 324 279
0.0067415666 0.76899999 -0.052584216 8.7308503e-39 325 279
0.0080898795 0.76899999 -0.052584216 8.9148703e-39 326 279
0.0094381925 0.76899999 -0.052584216 9.0992629e-39 327 279
0.010786506 0.76899999 -0.052584216 9.0070673e-39 328 279
0.012134819 0.76899999 -0.052584216 9.0992629e-39 329 279
0.013483133 0.76899999 -0.052584216 9.377998e-39 330 279
0.014831445 0.76899999 -0.052584216 1.0299954e-38 331 279
0.016179759 0.76899999 -0.052584216 8.5568637e-39 332 279
0.017528072 0.76899999 -0.052584216 7.4508749e-39 333 279
0.018876385 0.76899999 -0.052584216 4.7008435e-39 334 279
0.0202247 0.76899999 -0.052584216 4.2398653e-39 335 279
0.021573013 0.76899999 -0.052584216 6.6225744e-39 336 279
0.022921326 0.76899999 -0.052584216 6.6225744e-39 337 279
0.024269639 0.76899999 -0.052584216 8.6386533e-39 338 279
0.025617953 0.76899999 -0.052584216 8.5464577e-39 339 279
0.026966266 0.76899999 -0.052584216 8.9137983e-39 340 279
0.028314579 0.76899999 -0.052584216 9.0059953e-39 341 279
0.029585747 0.76700002 -0.052447457 8.7312063e-39 342 279
0.030930554 0.76700002 -0.052447457 8.7312063e-39 343 279
0.03227536 0.76700002 -0.052447457 8.6386561e-39 344 279
0.033620168 0.76700002 -0.052447457 8.5461017e-39 345 279
0.034964975 0.76700002 -0.052447457 8.7301329e-39 346 279
0.036309779 0.76700002 -0.052447457 8.5457416e-39 347 279
0.037654586 0.76700002 -0.052447457 8.8208838e-39 348 279
0.038999394 0.76700002 -0.052447457 8.8208838e-39 349 279
0.040344197 0.76700002 -0.052447457 8.6379316e-39 350 279
0.041689005 0.76700002 -0.052447457 8.6379316e-39 351 279
0.043033812 0.76700002 -0.052447457 8.8212495e-39 352 279
0.04437862 0.76700002 -0.052447457 8.7290539e-39 353 279
0.045842651 0.76899999 -0.052584216 8.6386561e-39 354 279
0.047190964 0.76899999 -0.052584216 8.6386561e-39 355 279
0.048539277 0.76899999 -0.052584216 8.5464549e-39 356 279
0.04988759 0.76899999 -0.052584216 8.4542592e-39 357 279
0.051235907 0.76899999 -0.052584216 7.0774457e-39 358 279
0.052447457 0.76700002 -0.052447457 6.8926943e-39 359 279
0.053792264 0.76700002 -0.052447457 6.0701307e-39 360 279
0.055137072 0.76700002 -0.052447457 6.5311088e-39 361 279
0.056481879 0.76700002 -0.052447457 7.9054071e-39 362 279
0.057826683 0.76700002 -0.052447457 7.9054071e-39 363 279
0.059171494 0.76700002 -0.052447457 8.9134479e-39 364 279
0.060516298 0.76700002 -0.052447457 8.9134479e-39 365 279
0.061861109 0.76700002 -0.052447457 8.9134451e-39 366 279
0.063205913 0.76700002 -0.052447457 8.9134451e-39 367 279
0.06455072 0.76700002 -0.052447457 8.9141654e-39 368 279
0.065895528 0.76700002 -0.052447457 8.9141654e-39 369 279
0.067240335 0.76700002 -0.052447457 9.0985567e-39 370 279
0.068585135 0.76700002 -0.052447457 9.006361e-39 371 279
0.06992995 0.76700002 -0.052447457 8.9141626e-39 372 279
0.07127475 0.76700002 -0.052447457 8.6379344e-39 373 279
0.072619557 0.76700002 -0.052447457 8.6386505e-39 374 279
0.073867925 0.76599997 -0.052379075 8.5464549e-39 375 279
0.075210981 0.76599997 -0.052379075 8.5461017e-39 376 279
0.07665398 0.76700002 -0.052447457 8.4539061e-39 377 279
0.077998787 0.76700002 -0.052447457 8.7333699e-39 378 279
0.079240143 0.76599997 -0.052379075 9.5631319e-39 379 279
0.080583192 0.76599997 -0.052379075 9.7460771e-39 380 279
0.081926249 0.76599997 -0.052379075 8.8241208e-39 381 279
0.083269298 0.76599997 -0.052379075 9.1893104e-39 382 279
0.084612355 0.76599997 -0.052379075 9.0971133e-39 383 279
0.085730985 0.764 -0.052242316 1.0299957e-38 384 279
0.087070532 0.764 -0.052242316 1.2328261e-38 385 279
0.088178635 0.76200002 -0.052105557 1.251876e-38 386 279
0.08951468 0.76200002 -0.052105557 1.3440717e-38 387 279
0.090850718 0.76200002 -0.052105557 9.7518224e-39 388 279
0.092065774 0.76099998 -0.052037176 9.1986486e-39 389 279
0.093154602 0.759 -0.051900417 1.1043653e-38 390 279
0.09448538 0.759 -0.051900417 1.3071957e-38 391 279
0.09556368 0.75700003 -0.051763661 1.2431977e-38 392 279
0.096634962 0.755 -0.051626898 1.021928e-38 393 279
0.097958729 0.755 -0.051626898 1.0397542e-38 394 279
0.099150993 0.75400001 -0.051558517 1.1042912e-38 395 279
0.10047301 0.75400001 -0.051558517 1.0767046e-38 396 279
0.101255 0.75 -0.051284999 1.0490101e-38 397 279
0.10243323 0.74900001 -0.051216617 9.2886918e-39 398 279
0.10374649 0.74900001 -0.051216617 8.3667355e-39 399 279
0.10477919 0.74699998 -0.051079858 8.8230488e-39 400 279
0.10537883 0.74199998 -0.050737958 9.8368406e-39 401 279
0.10653604 0.741 -0.050669577 1.0025905e-38 402 279
0.10783526 0.741 -0.050669577 9.7493169e-39 403 279
0.10883991 0.73900002 -0.050532822 9.559532e-39 404 279
0.10968854 0.736 -0.050327681 9.006717e-39 405 279
0.11067741 0.73400003 -0.050190922 8.6386561e-39 406 279
0.11181182 0.73299998 -0.050122537 8.7308531e-39 407 279
0.11186267 0.72500002 -0.0495755 8.9134451e-39 408 279
0.11282174 0.72299999 -0.049438741 8.9134451e-39 409 279
0.113616 0.72000003 -0.0492336 9.0985623e-39 410 279
0.11471885 0.71899998 -0.049165215 9.1907579e-39 411 279
0.11565688 0.71700001 -0.04902846 9.3740674e-39 412 279
0.11675096 0.71600002 -0.048960082 9.466263e-39 413 279
0.11767671 0.71399999 -0.048823316 9.466263e-39 414 279
0.11876203 0.713 -0.048754938 9.74321e-39 415 279
0.11967552 0.71100003 -0.048618179 9.7457267e-39 416 279
0.12041192 0.708 -0.048413038 1.0206705e-38 417 279
0.12130962 0.70599997 -0.048276275 9.9326417e-39 418 279
0.12220032 0.704 -0.048139516 9.9326417e-39 419 279
0.12325934 0.70300001 -0.048071139 9.2001102e-39 420 279
0.12396066 0.69999999 -0.047865998 9.5688913e-39 421 279
0.12518799 0.69999999 -0.047865998 7.3680568e-39 422 279
0.12605415 0.69800001 -0.047729239 7.0914685e-39 423 279
0.12691326 0.69599998 -0.047592476 6.7230531e-39 424 279
0.12813358 0.69599998 -0.047592476 6.8152487e-39 425 279
0.12898222 0.69400001 -0.047455717 6.1713072e-39 426 279
0.13001142 0.69300002 -0.047387339 7.3694917e-39 427 279
-0.069758117 0.69800001 -0.048953064 1.5116824e-38 263 280
-0.068436109 0.69700003 -0.048882935 9.5825595e-39 264 280
-0.067214034 0.69700003 -0.048882935 4.6965499e-39 265 280
-0.066086642 0.69800001 -0.048953064 6.5404443e-39 266 280
-0.06486281 0.69800001 -0.048953064 6.5404443e-39 267 280
-0.063638985 0.69800001 -0.048953064 6.1723806e-39 268 280
-0.062415157 0.69800001 -0.048953064 6.080185e-39 269 280
-0.061366666 0.69999999 -0.049093332 6.1705884e-39 270 280
-0.060225245 0.70099998 -0.049163464 6.078034e-39 271 280
-0.059164476 0.70300001 -0.049303733 7.0842784e-39 272 280
-0.058014292 0.704 -0.049373865 6.8995284e-39 273 280
-0.057021905 0.70700002 -0.049584266 8.3653076e-39 274 280
-0.055861197 0.708 -0.049654398 8.0887193e-39 275 280
-0.054851279 0.71100003 -0.049864799 8.5461017e-39 276 280
-0.053604662 0.71100003 -0.049864799 8.269875e-39 277 280
-0.053388998 0.72500002 -0.050846666 8.0862026e-39 278 280
-0.052117832 0.72500002 -0.050846666 8.1783982e-39 279 280
-0.050986931 0.727 -0.050986931 7.6277426e-39 280 280
-0.049985781 0.73100001 -0.051267464 7.6277426e-39 281 280
-0.048704091 0.73100001 -0.051267464 7.3522347e-39 282 280
-0.04755215 0.73299998 -0.051407732 7.3522347e-39 283 280
-0.046330083 0.73400003 -0.051477864 7.5348267e-39 284 280
-0.045043133 0.73400003 -0.051477864 7.6270237e-39 285 280
-0.043875411 0.736 -0.051618133 7.3525976e-39 286 280
-0.04316356 0.74599999 -0.052319467 7.445152e-39 287 280
-0.041911677 0.74699998 -0.052389596 7.4444331e-39 288 280
-0.040710647 0.74900001 -0.052529868 7.5366288e-39 289 280
-0.039449997 0.75 -0.0526 7.719225e-39 290 280
-0.038236689 0.75199997 -0.052740261 7.719225e-39 291 280
-0.036918186 0.75199997 -0.052740261 7.9043379e-39 292 280
-0.035694357 0.75400001 -0.052880533 8.180566e-39 293 280
-0.034417931 0.755 -0.052950665 8.0901683e-39 294 280
-0.033181835 0.75700003 -0.053090934 8.1823639e-39 295 280
-0.032022879 0.76099998 -0.053371463 8.5497045e-39 296 280
-0.030688593 0.76099998 -0.053371463 8.4575089e-39 297 280
-0.029354304 0.76099998 -0.053371463 8.5497017e-39 298 280
-0.028020019 0.76099998 -0.053371463 8.6418973e-39 299 280
-0.0267208 0.76200002 -0.053441599 8.5504205e-39 300 280
-0.02538476 0.76200002 -0.053441599 8.5504205e-39 301 280
-0.02404872 0.76200002 -0.053441599 8.8262886e-39 302 280
-0.022772292 0.764 -0.053581864 9.0106798e-39 303 280
-0.021432746 0.764 -0.053581864 9.2876198e-39 304 280
-0.020093199 0.764 -0.053581864 9.5642067e-39 305 280
-0.018802745 0.76599997 -0.053722132 9.5631347e-39 306 280
-0.017459691 0.76599997 -0.053722132 9.2861877e-39 307 280
-0.016116638 0.76599997 -0.053722132 9.1007273e-39 308 280
-0.014792874 0.76700002 -0.053792264 9.0085302e-39 309 280
-0.013448066 0.76700002 -0.053792264 8.8234173e-39 310 280
-0.01210326 0.76700002 -0.053792264 8.5468318e-39 311 280
-0.010758453 0.76700002 -0.053792264 8.9152472e-39 312 280
-0.0094136465 0.76700002 -0.053792264 8.8230516e-39 313 280
-0.00806884 0.76700002 -0.053792264 9.1893076e-39 314 280
-0.006724033 0.76700002 -0.053792264 9.2815032e-39 315 280
-0.0053792265 0.76700002 -0.053792264 8.9148703e-39 316 280
-0.00403442 0.76700002 -0.053792264 9.0070673e-39 317 280
-0.0026896133 0.76700002 -0.053792264 9.0070645e-39 318 280
-0.0013448066 0.76700002 -0.053792264 9.0070645e-39 319 280
0 0.76700002 -0.053792264 9.0992601e-39 320 280
0.0013448066 0.76700002 -0.053792264 9.0070645e-39 321 280
0.0026896133 0.76700002 -0.053792264 8.9145157e-39 322 280
0.00403442 0.76700002 -0.053792264 8.9145157e-39 323 280
0.0053792265 0.76700002 -0.053792264 8.9145185e-39 324 280
0.0067415666 0.76899999 -0.053932533 9.0067142e-39 325 280
0.00806884 0.76700002 -0.053792264 9.0059953e-39 326 280
0.0094136465 0.76700002 -0.053792264 9.0981909e-39 327 280
0.010758453 0.76700002 -0.053792264 9.0981937e-39 328 280
0.01210326 0.76700002 -0.053792264 9.3744205e-39 329 280
0.013448066 0.76700002 -0.053792264 8.9177625e-39 330 280
0.014792874 0.76700002 -0.053792264 9.3787393e-39 331 280
0.01613768 0.76700002 -0.053792264 8.3739074e-39 332 280
0.017482487 0.76700002 -0.053792264 7.8207336e-39 333 280
0.018827293 0.76700002 -0.053792264 5.2507662e-39 334 280
0.020172099 0.76700002 -0.053792264 5.0663778e-39 335 280
0.021516906 0.76700002 -0.053792264 5.8893225e-39 336 280
0.022861714 0.76700002 -0.053792264 5.8893225e-39 337 280
0.024206521 0.76700002 -0.053792264 8.2723931e-39 338 280
0.025551327 0.76700002 -0.053792264 8.1801961e-39 339 280
0.026896132 0.76700002 -0.053792264 8.6386533e-39 340 280
0.02824094 0.76700002 -0.053792264 8.7308503e-39 341 280
0.029585747 0.76700002 -0.053792264 8.6386561e-39 342 280
0.030930554 0.76700002 -0.053792264 8.6386561e-39 343 280
0.03227536 0.76700002 -0.053792264 8.6386561e-39 344 280
0.033620168 0.76700002 -0.053792264 8.6386561e-39 345 280
0.034964975 0.76700002 -0.053792264 8.7290511e-39 346 280
0.036309779 0.76700002 -0.053792264 8.8212467e-39 347 280
0.037654586 0.76700002 -0.053792264 8.6379316e-39 348 280
0.038999394 0.76700002 -0.053792264 8.6379316e-39 349 280
0.040344197 0.76700002 -0.053792264 8.6386533e-39 350 280
0.041689005 0.76700002 -0.053792264 8.5464577e-39 351 280
0.043033812 0.76700002 -0.053792264 8.5461017e-39 352 280
0.04437862 0.76700002 -0.053792264 8.5461017e-39 353 280
0.045723427 0.76700002 -0.053792264 8.4553382e-39 354 280
0.047068235 0.76700002 -0.053792264 8.4553382e-39 355 280
0.048413042 0.76700002 -0.053792264 8.6382848e-39 356 280
0.049757849 0.76700002 -0.053792264 8.3616979e-39 357 280
0.051102653 0.76700002 -0.053792264 7.4433499e-39 358 280
0.052379075 0.76599997 -0.053722132 6.9823732e-39 359 280
0.053722132 0.76599997 -0.053722132 6.4356888e-39 360 280
0.055065181 0.76599997 -0.053722132 6.6200801e-39 361 280
0.056408234 0.76599997 -0.053722132 8.3631608e-39 362 280
0.057751291 0.76599997 -0.053722132 8.3631608e-39 363 280
0.059094343 0.76599997 -0.053722132 8.9134479e-39 364 280
0.060437392 0.76599997 -0.053722132 8.9134479e-39 365 280
0.061780453 0.76599997 -0.053722132 8.6386561e-39 366 280
0.063123502 0.76599997 -0.053722132 8.7308531e-39 367 280
0.064466551 0.76599997 -0.053722132 8.823046e-39 368 280
0.065809615 0.76599997 -0.053722132 8.823046e-39 369 280
0.067152664 0.76599997 -0.053722132 8.9152444e-39 370 280
0.068495713 0.76599997 -0.053722132 8.8230488e-39 371 280
0.069838762 0.76599997 -0.053722132 9.0067142e-39 372 280
0.071181826 0.76599997 -0.053722132 8.730486e-39 373 280
0.072524875 0.76599997 -0.053722132 8.7312035e-39 374 280
0.073675066 0.764 -0.053581864 8.6390064e-39 375 280
0.075014614 0.764 -0.053581864 8.8212495e-39 376 280
0.076554038 0.76599997 -0.053722132 8.9134451e-39 377 280
0.077897087 0.76599997 -0.053722132 8.547185e-39 378 280
0.079033248 0.764 -0.053581864 8.7312161e-39 379 280
0.080372795 0.764 -0.053581864 9.0060079e-39 380 280
0.081712343 0.764 -0.053581864 8.9138123e-39 381 280
0.08305189 0.764 -0.053581864 9.0052946e-39 382 280
0.084391437 0.764 -0.053581864 8.9127389e-39 383 280
0.085506558 0.76200002 -0.053441599 9.5609697e-39 384 280
0.086842604 0.76200002 -0.053441599 1.1404524e-38 385 280
0.088178635 0.76200002 -0.053441599 1.2057082e-38 386 280
0.08951468 0.76200002 -0.053441599 1.2886844e-38 387 280
0.090731487 0.76099998 -0.053371463 9.4709489e-39 388 280
0.091823816 0.759 -0.053231198 9.2869164e-39 389 280
0.092909135 0.75700003 -0.053090934 1.0489425e-38 390 280
0.094236404 0.75700003 -0.053090934 1.2241142e-38 391 280
0.095311195 0.755 -0.052950665 1.2522025e-38 392 280
0.096634962 0.755 -0.052950665 1.0954341e-38 393 280
0.097828984 0.75400001 -0.052880533 1.076634e-38 394 280
0.099150993 0.75400001 -0.052880533 1.0489753e-38 395 280
0.10020649 0.75199997 -0.052740261 1.0304286e-38 396 280
0.101255 0.75 -0.0526 9.474525e-39 397 280
0.10243323 0.74900001 -0.052529868 9.0081589e-39 398 280
0.10346945 0.74699998 -0.052389596 8.4549851e-39 399 280
0.1043584 0.74400002 -0.052179199 8.639396e-39 400 280
0.10537883 0.74199998 -0.05203893 9.3773198e-39 401 280
0.10653604 0.741 -0.051968798 9.9330089e-39 402 280
0.10754421 0.73900002 -0.051828533 9.2876395e-39 403 280
0.10869263 0.73799998 -0.051758397 8.7322979e-39 404 280
0.10968854 0.736 -0.051618133 8.6401022e-39 405 280
0.11052662 0.73299998 -0.051407732 8.547185e-39 406 280
0.1113542 0.73000002 -0.051197331 8.4549879e-39 407 280
0.11186267 0.72500002 -0.050846666 8.7305e-39 408 280
0.1126657 0.722 -0.050636265 8.7305e-39 409 280
0.113616 0.72000003 -0.050496001 9.0985623e-39 410 280
0.11439974 0.71700001 -0.0502856 9.1907579e-39 411 280
0.11549557 0.71600002 -0.050215468 9.0992811e-39 412 280
0.11642484 0.71399999 -0.050075196 9.1914768e-39 413 280
0.11718228 0.71100003 -0.049864799 9.5595348e-39 414 280
0.11826232 0.70999998 -0.049794663 9.7439261e-39 415 280
0.11917056 0.708 -0.049654398 9.9293921e-39 416 280
0.12007176 0.70599997 -0.04951413 1.039037e-38 417 280
0.12130962 0.70599997 -0.04951413 1.0299263e-38 418 280
0.12220032 0.704 -0.049373865 1.0023037e-38 419 280
0.12273333 0.69999999 -0.049093332 9.3837755e-39 420 280
0.12360649 0.69800001 -0.048953064 9.5681668e-39 421 280
0.12465148 0.69700003 -0.048882935 7.6421185e-39 422 280
0.12569295 0.69599998 -0.048812799 7.5499229e-39 423 280
0.12691326 0.69599998 -0.048812799 6.7237719e-39 424 280
0.1277654 0.69400001 -0.048672531 6.7237719e-39 425 280
0.12898222 0.69400001 -0.048672531 6.0794619e-39 426 280
0.13001142 0.69300002 -0.048602402 7.0936153e-39 427 280
-0.069558233 0.69599998 -0.050033119 1.5393058e-38 263 281
-0.068337917 0.69599998 -0.050033119 1.0411604e-38 264 281
-0.067117594 0.69599998 -0.050033119 5.5252344e-39 265 281
-0.065897278 0.69599998 -0.050033119 6.4460934e-39 266 281
-0.064676955 0.69599998 -0.050033119 6.9992672e-39 267 281
-0.063456632 0.69599998 -0.050033119 6.1731037e-39 268 281
-0.062236317 0.69599998 -0.050033119 6.0809067e-39 269 281
-0.061103668 0.69700003 -0.050105009 6.0798347e-39 270 281
-0.059967503 0.69800001 -0.050176892 5.8954434e-39 271 281
-0.058996156 0.70099998 -0.050392549 7.1764726e-39 272 281
-0.057931885 0.70300001 -0.050536323 6.99208e-39 273 281
-0.056779943 0.704 -0.050608214 8.1823513e-39 274 281
-0.055782299 0.70700002 -0.050823875 7.9976013e-39 275 281
-0.054774132 0.70999998 -0.051039528 8.3635084e-39 276 281
-0.053529263 0.70999998 -0.051039528 8.0872816e-39 277 281
-0.052284397 0.70999998 -0.051039528 7.9954517e-39 278 281
-0.052549154 0.73100001 -0.052549154 7.9032561e-39 279 281
-0.051267464 0.73100001 -0.052549154 7.7199438e-39 280 281
-0.049985781 0.73100001 -0.052549154 7.6273895e-39 281 281
-0.048704091 0.73100001 -0.052549154 7.6277454e-39 282 281
-0.04755215 0.73299998 -0.052692924 7.5355498e-39 283 281
-0.046330083 0.73400003 -0.052764814 7.3522347e-39 284 281
-0.045043133 0.73400003 -0.052764814 7.4444303e-39 285 281
-0.043875411 0.736 -0.052908584 7.3529536e-39 286 281
-0.043047838 0.74400002 -0.05348368 7.4451492e-39 287 281
-0.04185557 0.74599999 -0.053627454 7.5366288e-39 288 281
-0.040601939 0.74699998 -0.053699337 7.7206599e-39 289 281
-0.0393974 0.74900001 -0.053843111 7.9043323e-39 290 281
-0.038135 0.75 -0.053914998 7.9043323e-39 291 281
-0.036918186 0.75199997 -0.054058768 7.997251e-39 292 281
-0.035694357 0.75400001 -0.054202545 8.1816422e-39 293 281
-0.034372345 0.75400001 -0.054202545 8.3660321e-39 294 281
-0.033094164 0.755 -0.054274432 8.4582277e-39 295 281
-0.031938717 0.759 -0.054561976 8.4582277e-39 296 281
-0.030607941 0.759 -0.054561976 8.4582277e-39 297 281
-0.029277159 0.759 -0.054561976 8.5504205e-39 298 281
-0.028020019 0.76099998 -0.05470575 8.4582249e-39 299 281
-0.026685731 0.76099998 -0.05470575 8.6422532e-39 300 281
-0.025351444 0.76099998 -0.05470575 8.6422532e-39 301 281
-0.02404872 0.76200002 -0.054777641 8.9181185e-39 302 281
-0.02271268 0.76200002 -0.054777641 9.2865408e-39 303 281
-0.02137664 0.76200002 -0.054777641 9.4720041e-39 304 281
-0.0200406 0.76200002 -0.054777641 9.287973e-39 305 281
-0.018753653 0.764 -0.054921411 9.5620487e-39 306 281
-0.017414106 0.764 -0.054921411 9.1014307e-39 307 281
-0.016074561 0.764 -0.054921411 9.0992755e-39 308 281
-0.014735013 0.764 -0.054921411 9.0992755e-39 309 281
-0.013395466 0.764 -0.054921411 8.8237648e-39 310 281
-0.01205592 0.764 -0.054921411 8.8237648e-39 311 281
-0.010716373 0.764 -0.054921411 9.2822248e-39 312 281
-0.0093768267 0.764 -0.054921411 9.0981937e-39 313 281
-0.0080372803 0.764 -0.054921411 9.281506e-39 314 281
-0.0067152665 0.76599997 -0.055065181 9.281506e-39 315 281
-0.0053722127 0.76599997 -0.055065181 8.8241208e-39 316 281
-0.0040291594 0.76599997 -0.055065181 8.8241208e-39 317 281
-0.0026861064 0.76599997 -0.055065181 8.9155947e-39 318 281
-0.0013430532 0.76599997 -0.055065181 8.9155947e-39 319 281
0 0.76700002 -0.055137072 9.0989126e-39 320 281
0.0013448066 0.76700002 -0.055137072 9.006717e-39 321 281
0.0026896133 0.76700002 -0.055137072 8.8230516e-39 322 281
0.00403442 0.76700002 -0.055137072 8.7304972e-39 323 281
0.0053792265 0.76700002 -0.055137072 8.9141654e-39 324 281
0.006724033 0.76700002 -0.055137072 9.006361e-39 325 281
0.00806884 0.76700002 -0.055137072 9.0059981e-39 326 281
0.0094013726 0.76599997 -0.055065181 9.0059981e-39 327 281
0.010744425 0.76599997 -0.055065181 9.0981937e-39 328 281
0.012087479 0.76599997 -0.055065181 9.0981937e-39 329 281
0.013430533 0.76599997 -0.055065181 8.9163164e-39 330 281
0.014773586 0.76599997 -0.055065181 9.1929047e-39 331 281
0.016116638 0.76599997 -0.055065181 8.4618024e-39 332 281
0.017414106 0.764 -0.054921411 8.2774126e-39 333 281
0.018753653 0.764 -0.054921411 5.2497027e-39 334 281
0.020093199 0.764 -0.054921411 4.9731144e-39 335 281
0.021432746 0.764 -0.054921411 5.9808021e-39 336 281
0.022831906 0.76599997 -0.055065181 6.0729991e-39 337 281
0.024174958 0.76599997 -0.055065181 8.1809164e-39 338 281
0.025518013 0.76599997 -0.055065181 8.1809164e-39 339 281
0.026861066 0.76599997 -0.055065181 8.4549879e-39 340 281
0.028204117 0.76599997 -0.055065181 8.4549879e-39 341 281
0.029547172 0.76599997 -0.055065181 8.547185e-39 342 281
0.030890226 0.76599997 -0.055065181 8.547185e-39 343 281
0.032233275 0.76599997 -0.055065181 8.7305e-39 344 281
0.033576332 0.76599997 -0.055065181 8.5461074e-39 345 281
0.034919381 0.76599997 -0.055065181 8.6375813e-39 346 281
0.036262438 0.76599997 -0.055065181 8.6375813e-39 347 281
0.037605491 0.76599997 -0.055065181 8.6379344e-39 348 281
0.038948543 0.76599997 -0.055065181 8.6379344e-39 349 281
0.040291596 0.76599997 -0.055065181 8.6386505e-39 350 281
0.041634649 0.76599997 -0.055065181 8.5464549e-39 351 281
0.042977702 0.76599997 -0.055065181 8.6386533e-39 352 281
0.044320758 0.76599997 -0.055065181 8.6386533e-39 353 281
0.045663811 0.76599997 -0.055065181 8.4560585e-39 354 281
0.047006864 0.76599997 -0.055065181 8.3638615e-39 355 281
0.048349917 0.76599997 -0.055065181 8.6386505e-39 356 281
0.04969297 0.76599997 -0.055065181 8.4542592e-39 357 281
0.051036026 0.76599997 -0.055065181 7.3518816e-39 358 281
0.052242316 0.764 -0.054921411 6.4299239e-39 359 281
0.053581864 0.764 -0.054921411 6.8930712e-39 360 281
0.054921411 0.764 -0.054921411 7.354048e-39 361 281
0.056260962 0.764 -0.054921411 8.5457514e-39 362 281
0.057600506 0.764 -0.054921411 8.7305028e-39 363 281
0.058940053 0.764 -0.054921411 8.638303e-39 364 281
0.0602796 0.764 -0.054921411 8.638303e-39 365 281
0.061619148 0.764 -0.054921411 8.7301329e-39 366 281
0.062958695 0.764 -0.054921411 8.9141654e-39 367 281
0.064298242 0.764 -0.054921411 8.8230488e-39 368 281
0.06563779 0.764 -0.054921411 8.8230488e-39 369 281
0.06697733 0.764 -0.054921411 9.0060079e-39 370 281
0.068316877 0.764 -0.054921411 9.0985623e-39 371 281
0.069656424 0.764 -0.054921411 9.006361e-39 372 281
0.070995972 0.764 -0.054921411 8.9141654e-39 373 281
0.072335519 0.764 -0.054921411 8.7308503e-39 374 281
0.073675066 0.764 -0.054921411 8.7308503e-39 375 281
0.075014614 0.764 -0.054921411 8.7301301e-39 376 281
0.076354161 0.764 -0.054921411 8.7301301e-39 377 281
0.077693708 0.764 -0.054921411 8.9145157e-39 378 281
0.07882636 0.76200002 -0.054777641 8.9145157e-39 379 281
0.080162399 0.76200002 -0.054777641 9.0971105e-39 380 281
0.081498444 0.76200002 -0.054777641 9.0049149e-39 381 281
0.082834482 0.76200002 -0.054777641 8.7297797e-39 382 281
0.08417052 0.76200002 -0.054777641 8.7297797e-39 383 281
0.085506558 0.76200002 -0.054777641 8.9152444e-39 384 281
0.086728632 0.76099998 -0.05470575 9.4684182e-39 385 281
0.088062912 0.76099998 -0.05470575 9.8389958e-39 386 281
0.089397199 0.76099998 -0.05470575 1.0668756e-38 387 281
0.090493038 0.759 -0.054561976 9.2815186e-39 388 281
0.091581859 0.75700003 -0.054418206 9.2815186e-39 389 281
0.092909135 0.75700003 -0.054418206 9.1954424e-39 390 281
0.093987428 0.755 -0.054274432 1.0301431e-38 391 281
0.095311195 0.755 -0.054274432 1.094751e-38 392 281
0.096506968 0.75400001 -0.054202545 1.1224098e-38 393 281
0.097828984 0.75400001 -0.054202545 1.0488681e-38 394 281
0.098887995 0.75199997 -0.054058768 1.0304289e-38 395 281
0.10020649 0.75199997 -0.054058768 1.011846e-38 396 281
0.10111999 0.74900001 -0.053843111 9.2883401e-39 397 281
0.10243323 0.74900001 -0.053843111 9.1003573e-39 398 281
0.10346945 0.74699998 -0.053699337 8.547185e-39 399 281
0.1043584 0.74400002 -0.05348368 8.4546404e-39 400 281
0.10523681 0.741 -0.053268019 8.9152598e-39 401 281
0.1062485 0.73900002 -0.053124249 8.8255795e-39 402 281
0.10739867 0.73799998 -0.053052358 8.4571557e-39 403 281
0.10839808 0.736 -0.052908584 8.4557082e-39 404 281
0.10968854 0.736 -0.052908584 8.4557082e-39 405 281
0.11052662 0.73299998 -0.052692924 8.4549907e-39 406 281
0.1113542 0.73000002 -0.052477267 8.5471878e-39 407 281
0.11155408 0.72299999 -0.051974058 8.8237676e-39 408 281
0.1123536 0.72000003 -0.051758397 8.9159633e-39 409 281
0.11314259 0.71700001 -0.051542737 8.9156003e-39 410 281
0.11424018 0.71600002 -0.051470853 9.0996315e-39 411 281
0.11517295 0.71399999 -0.05132708 9.0996315e-39 412 281
0.11626177 0.713 -0.051255193 9.2840227e-39 413 281
0.11701746 0.70999998 -0.051039528 9.5591649e-39 414 281
0.1179292 0.708 -0.050895758 9.9279474e-39 415 281
0.11883391 0.70599997 -0.050751984 1.0021938e-38 416 281
0.12007176 0.70599997 -0.050751984 1.0390721e-38 417 281
0.12096597 0.704 -0.050608214 9.8407936e-39 418 281
0.12202673 0.70300001 -0.050536323 9.6564024e-39 419 281
0.12238267 0.69800001 -0.050176892 8.465415e-39 420 281
0.12325231 0.69599998 -0.050033119 8.7420033e-39 421 281
0.12447263 0.69599998 -0.050033119 7.1840284e-39 422 281
0.12533177 0.69400001 -0.049889345 6.9078003e-39 423 281
0.12654859 0.69400001 -0.049889345 6.5397436e-39 424 281
0.1275813 0.69300002 -0.049817458 6.8159704e-39 425 281
0.12879635 0.69300002 -0.049817458 6.0773151e-39 426 281
0.13001142 0.69300002 -0.049817458 8.3822045e-39 427 281
-0.069358356 0.69400001 -0.051106159 1.6314292e-38 263 282
-0.068043359 0.69300002 -0.051032521 1.1886011e-38 264 282
-0.066828303 0.69300002 -0.051032521 6.1698821e-39 265 282
-0.065707922 0.69400001 -0.051106159 5.8028792e-39 266 282
-0.064491108 0.69400001 -0.051106159 6.816671e-39 267 282
-0.063274294 0.69400001 -0.051106159 6.2656553e-39 268 282
-0.06205748 0.69400001 -0.051106159 6.1731009e-39 269 282
-0.060840666 0.69400001 -0.051106159 6.0798347e-39 270 282
-0.05988159 0.69700003 -0.051327083 5.8954434e-39 271 282
-0.058911994 0.69999999 -0.051547997 6.7190902e-39 272 282
