# .PCD v.7 - Point Cloud Data file format
FIELDS x y z rgb imX imY
SIZE 4 4 4 4 4 4
TYPE F F F F F F
COUNT 1 1 1 1 1 1
WIDTH 836
HEIGHT 1
VIEWPOINT 0 0 0 1 0 0 0
POINTS 836
DATA ascii
0.057912603 0.73400003 -0.07592985 8.9134451e-39 365 299
0.059199546 0.73400003 -0.07592985 8.7297769e-39 366 299
0.060486492 0.73400003 -0.07592985 8.7297769e-39 367 299
0.061773442 0.73400003 -0.07592985 8.6379372e-39 368 299
0.063060381 0.73400003 -0.07592985 8.6379372e-39 369 299
0.064347334 0.73400003 -0.07592985 8.6379344e-39 370 299
0.06563428 0.73400003 -0.07592985 8.6379344e-39 371 299
0.066921227 0.73400003 -0.07592985 8.271663e-39 372 299
0.068208173 0.73400003 -0.07592985 8.271663e-39 373 299
0.069400437 0.73299998 -0.075826399 8.3642146e-39 374 299
0.070685625 0.73299998 -0.075826399 8.272019e-39 375 299
0.071970828 0.73299998 -0.075826399 7.9061105e-39 376 299
0.073256016 0.73299998 -0.075826399 7.9983062e-39 377 299
0.074541211 0.73299998 -0.075826399 7.8149911e-39 378 299
0.075826399 0.73299998 -0.075826399 7.9990236e-39 379 299
0.077111594 0.73299998 -0.075826399 7.9990236e-39 380 299
0.078182884 0.73100001 -0.075619511 8.0912192e-39 381 299
0.07946457 0.73100001 -0.075619511 8.3660111e-39 382 299
0.080746263 0.73100001 -0.075619511 8.2738154e-39 383 299
0.082027942 0.73100001 -0.075619511 8.5493289e-39 384 299
0.083309628 0.73100001 -0.075619511 8.7337202e-39 385 299
0.084475599 0.73000002 -0.07551606 8.6436896e-39 386 299
0.085755527 0.73000002 -0.07551606 8.8284396e-39 387 299
0.086797006 0.72799999 -0.075309172 8.7351691e-39 388 299
0.088073432 0.72799999 -0.075309172 8.7351691e-39 389 299
0.089349858 0.72799999 -0.075309172 8.5525757e-39 390 299
0.090626292 0.72799999 -0.075309172 8.8288025e-39 391 299
0.09127152 0.72299999 -0.074791931 7.3640925e-39 392 299
0.092539176 0.72299999 -0.074791931 7.4562895e-39 393 299
0.093677096 0.722 -0.074688487 6.9063527e-39 394 299
0.094680004 0.72000003 -0.074481606 6.7219601e-39 395 299
0.088480204 0.66399997 -0.068688579 7.5452537e-39 396 299
0.089644417 0.66399997 -0.068688579 7.5452537e-39 397 299
0.090808637 0.66399997 -0.068688579 7.0867993e-39 398 299
0.091972843 0.66399997 -0.068688579 7.178995e-39 399 299
0.093417592 0.66600001 -0.068895474 6.2631497e-39 400 299
0.094585314 0.66600001 -0.068895474 6.1709541e-39 401 299
0.095753036 0.66600001 -0.068895474 5.5281028e-39 402 299
0.096920758 0.66600001 -0.068895474 5.3440717e-39 403 299
0.098088481 0.66600001 -0.068895474 5.1586169e-39 404 299
0.099405229 0.667 -0.068998925 5.0664212e-39 405 299
0.1005747 0.667 -0.068998925 4.7873372e-39 406 299
0.10174417 0.667 -0.068998925 5.248314e-39 407 299
0.10291365 0.667 -0.068998925 5.9894719e-39 408 299
0.10423917 0.66799998 -0.069102369 8.2943641e-39 409 299
0.1054104 0.66799998 -0.069102369 8.9429593e-39 410 299
-0.051765412 0.671 -0.0705892 1.0321225e-38 276 300
-0.050513536 0.67000002 -0.070483997 9.3989096e-39 277 300
-0.049338799 0.67000002 -0.070483997 8.014145e-39 278 300
-0.048020288 0.66799998 -0.070273593 6.4468179e-39 279 300
-0.046849065 0.66799998 -0.070273593 5.1639936e-39 280 300
-0.045609459 0.667 -0.070168398 5.0717966e-39 281 300
-0.044439986 0.667 -0.070168398 6.3571446e-39 282 300
-0.04327051 0.667 -0.070168398 6.5411758e-39 283 300
-0.042037919 0.66600001 -0.070063196 6.8166766e-39 284 300
-0.040870197 0.66600001 -0.070063196 6.8166766e-39 285 300
-0.039702479 0.66600001 -0.070063196 6.5415317e-39 286 300
-0.03853476 0.66600001 -0.070063196 6.3575006e-39 287 300
-0.037254825 0.66399997 -0.069852799 6.7234034e-39 288 300
-0.036090612 0.66399997 -0.069852799 6.4468151e-39 289 300
-0.0349264 0.66399997 -0.069852799 7.2697431e-39 290 300
-0.033711337 0.66299999 -0.069747597 6.8087649e-39 291 300
-0.032548878 0.66299999 -0.069747597 7.9068504e-39 292 300
-0.031386416 0.66299999 -0.069747597 7.7224591e-39 293 300
-0.033323854 0.73100001 -0.076901197 8.455711e-39 294 300
-0.032042164 0.73100001 -0.076901197 8.5479066e-39 295 300
-0.030844638 0.73299998 -0.077111594 8.7322979e-39 296 300
-0.029559445 0.73299998 -0.077111594 8.7322979e-39 297 300
-0.028274251 0.73299998 -0.077111594 8.5486227e-39 298 300
-0.026915418 0.73100001 -0.076901197 8.5486227e-39 299 300
-0.025633732 0.73100001 -0.076901197 8.5482597e-39 300 300
-0.024418673 0.73299998 -0.077111594 8.4557054e-39 301 300
-0.023133477 0.73299998 -0.077111594 8.2713127e-39 302 300
-0.021848286 0.73299998 -0.077111594 8.3635084e-39 303 300
-0.020563092 0.73299998 -0.077111594 7.9043351e-39 304 300
-0.019304199 0.73400003 -0.077216797 8.0883662e-39 305 300
-0.018017253 0.73400003 -0.077216797 8.6375813e-39 306 300
-0.016730307 0.73400003 -0.077216797 8.9141682e-39 307 300
-0.01544336 0.73400003 -0.077216797 8.7301301e-39 308 300
-0.014137126 0.73299998 -0.077111594 8.6379344e-39 309 300
-0.012851933 0.73299998 -0.077111594 9.0967574e-39 310 300
-0.011582521 0.73400003 -0.077216797 9.0045618e-39 311 300
-0.010295574 0.73400003 -0.077216797 9.098544e-39 312 300
-0.0090086265 0.73400003 -0.077216797 1.3431379e-38 313 300
-0.0077216802 0.73400003 -0.077216797 1.3161959e-38 314 300
-0.006434733 0.73400003 -0.077216797 1.2977568e-38 315 300
-0.0051477868 0.73400003 -0.077216797 1.269128e-38 316 300
-0.0038608401 0.73400003 -0.077216797 1.0017607e-38 317 300
-0.0025738934 0.73400003 -0.077216797 9.1921802e-39 318 300
-0.0012869467 0.73400003 -0.077216797 8.8233991e-39 319 300
0 0.73299998 -0.077111594 9.0059981e-39 320 300
0.0012851933 0.73299998 -0.077111594 9.0981937e-39 321 300
0.0025703865 0.73299998 -0.077111594 8.9141626e-39 322 300
0.0038555798 0.73299998 -0.077111594 8.9141626e-39 323 300
0.0051267464 0.73100001 -0.076901197 8.7301301e-39 324 300
0.006408433 0.73100001 -0.076901197 8.7301301e-39 325 300
0.0077111595 0.73299998 -0.077111594 8.8212495e-39 326 300
0.0089963535 0.73299998 -0.077111594 8.8212495e-39 327 300
0.010281546 0.73299998 -0.077111594 8.8212495e-39 328 300
0.011566739 0.73299998 -0.077111594 8.8212495e-39 329 300
0.012851933 0.73299998 -0.077111594 8.8208936e-39 330 300
0.014137126 0.73299998 -0.077111594 8.8208936e-39 331 300
0.015422319 0.73299998 -0.077111594 8.8208964e-39 332 300
0.016707512 0.73299998 -0.077111594 8.8208964e-39 333 300
0.017992707 0.73299998 -0.077111594 9.0960385e-39 334 300
0.019277899 0.73299998 -0.077111594 9.0960385e-39 335 300
0.020563092 0.73299998 -0.077111594 9.0963917e-39 336 300
0.021848286 0.73299998 -0.077111594 9.0963917e-39 337 300
0.023133477 0.73299998 -0.077111594 8.9137983e-39 338 300
0.024418673 0.73299998 -0.077111594 8.9137983e-39 339 300
0.025703866 0.73299998 -0.077111594 9.0971133e-39 340 300
0.02702588 0.73400003 -0.077216797 9.0971133e-39 341 300
0.028312827 0.73400003 -0.077216797 8.9138123e-39 342 300
0.029599773 0.73400003 -0.077216797 8.9138123e-39 343 300
0.030886721 0.73400003 -0.077216797 8.9138123e-39 344 300
0.032173667 0.73400003 -0.077216797 8.7297797e-39 345 300
0.033460613 0.73400003 -0.077216797 8.9134479e-39 346 300
0.03474756 0.73400003 -0.077216797 8.9134479e-39 347 300
0.036034506 0.73400003 -0.077216797 9.0971133e-39 348 300
0.037270606 0.73299998 -0.077111594 9.0971133e-39 349 300
0.038555797 0.73299998 -0.077111594 9.004559e-39 350 300
0.039840993 0.73299998 -0.077111594 9.004559e-39 351 300
0.041013971 0.73100001 -0.076901197 9.0045646e-39 352 300
0.042295661 0.73100001 -0.076901197 8.8201747e-39 353 300
0.043577347 0.73100001 -0.076901197 9.187158e-39 354 300
0.044859033 0.73100001 -0.076901197 9.2793536e-39 355 300
0.046140719 0.73100001 -0.076901197 8.8216026e-39 356 300
0.047422405 0.73100001 -0.076901197 8.8216026e-39 357 300
0.048704091 0.73100001 -0.076901197 8.8216026e-39 358 300
0.050122537 0.73299998 -0.077111594 8.7290483e-39 359 300
0.051407732 0.73299998 -0.077111594 8.7290511e-39 360 300
0.052692924 0.73299998 -0.077111594 8.8212467e-39 361 300
0.053978115 0.73299998 -0.077111594 8.8212495e-39 362 300
0.055263311 0.73299998 -0.077111594 8.9134451e-39 363 300
0.056548502 0.73299998 -0.077111594 8.8208964e-39 364 300
0.057833698 0.73299998 -0.077111594 8.913092e-39 365 300
0.059118889 0.73299998 -0.077111594 8.7294266e-39 366 300
0.060404085 0.73299998 -0.077111594 8.637231e-39 367 300
0.061689276 0.73299998 -0.077111594 8.8208964e-39 368 300
0.062802643 0.73100001 -0.076901197 8.8208964e-39 369 300
0.064084329 0.73100001 -0.076901197 8.6375813e-39 370 300
0.065366022 0.73100001 -0.076901197 8.6375813e-39 371 300
0.066556528 0.73000002 -0.076796003 8.6379372e-39 372 300
0.067836471 0.73000002 -0.076796003 8.6379372e-39 373 300
0.069116399 0.73000002 -0.076796003 8.5464577e-39 374 300
0.070396334 0.73000002 -0.076796003 8.6386533e-39 375 300
0.071676269 0.73000002 -0.076796003 8.4560585e-39 376 300
0.072956197 0.73000002 -0.076796003 8.4560585e-39 377 300
0.074236132 0.73000002 -0.076796003 8.4564144e-39 378 300
0.07551606 0.73000002 -0.076796003 8.4564144e-39 379 300
0.076796003 0.73000002 -0.076796003 8.5486073e-39 380 300
0.078075938 0.73000002 -0.076796003 8.5486073e-39 381 300
0.079355866 0.73000002 -0.076796003 8.7319223e-39 382 300
0.080414876 0.72799999 -0.076585598 8.7319223e-39 383 300
0.081691302 0.72799999 -0.076585598 8.6415274e-39 384 300
0.082967728 0.72799999 -0.076585598 8.9181157e-39 385 300
0.084244154 0.72799999 -0.076585598 8.5536477e-39 386 300
0.08552058 0.72799999 -0.076585598 8.2770623e-39 387 300
0.086439334 0.72500002 -0.076269999 8.9177653e-39 388 300
0.08734756 0.722 -0.0759544 8.8255683e-39 389 300
0.088613465 0.722 -0.0759544 8.4607431e-39 390 300
0.082534656 0.66299999 -0.069747597 8.645493e-39 391 300
0.083570883 0.662 -0.069642402 7.5463327e-39 392 300
0.084731586 0.662 -0.069642402 7.5463327e-39 393 300
0.08589229 0.662 -0.069642402 7.2715437e-39 394 300
0.087053001 0.662 -0.069642402 7.1789894e-39 395 300
0.088213705 0.662 -0.069642402 7.5449006e-39 396 300
0.089509413 0.66299999 -0.069747597 7.5449006e-39 397 300
0.090671875 0.66299999 -0.069747597 6.7205349e-39 398 300
0.091834337 0.66299999 -0.069747597 6.7205349e-39 399 300
0.093137063 0.66399997 -0.069852799 6.0798375e-39 400 300
0.094301268 0.66399997 -0.069852799 5.8028918e-39 401 300
0.095465489 0.66399997 -0.069852799 5.6181503e-39 402 300
0.096920758 0.66600001 -0.070063196 5.2493677e-39 403 300
0.098088481 0.66600001 -0.070063196 5.064273e-39 404 300
0.099256195 0.66600001 -0.070063196 4.7880463e-39 405 300
0.1005747 0.667 -0.070168398 4.9782081e-39 406 300
0.10174417 0.667 -0.070168398 7.2834576e-39 407 300
0.10291365 0.667 -0.070168398 8.7542716e-39 408 300
0.10408312 0.667 -0.070168398 9.4918367e-39 409 300
-0.050513536 0.67000002 -0.071658738 1.0138996e-38 277 301
-0.049338799 0.67000002 -0.071658738 9.5847133e-39 278 301
-0.048020288 0.66799998 -0.071444817 7.7408007e-39 279 301
-0.046778932 0.667 -0.071337871 6.4486144e-39 280 301
-0.045609459 0.667 -0.071337871 5.8954406e-39 281 301
-0.044439986 0.667 -0.071337871 6.1731163e-39 282 301
-0.043205637 0.66600001 -0.071230918 6.1731163e-39 283 301
-0.042037919 0.66600001 -0.071230918 6.2656707e-39 284 301
-0.040870197 0.66600001 -0.071230918 6.3578663e-39 285 301
-0.039702479 0.66600001 -0.071230918 6.9088695e-39 286 301
-0.038419038 0.66399997 -0.071017005 7.0010651e-39 287 301
-0.037254825 0.66399997 -0.071017005 7.0918132e-39 288 301
-0.036036257 0.66299999 -0.070910059 6.7233908e-39 289 301
-0.034873798 0.66299999 -0.070910059 7.1796928e-39 290 301
-0.033711337 0.66299999 -0.070910059 6.8112704e-39 291 301
-0.032548878 0.66299999 -0.070910059 7.4505344e-39 292 301
-0.031386416 0.66299999 -0.070910059 7.1743076e-39 293 301
-0.030360719 0.66600001 -0.071230918 8.2720428e-39 294 301
-0.032042164 0.73100001 -0.078182884 8.5482696e-39 295 301
-0.030718399 0.73000002 -0.078075938 8.4571557e-39 296 301
-0.029438468 0.73000002 -0.078075938 8.4571557e-39 297 301
-0.028197108 0.73100001 -0.078182884 8.6411742e-39 298 301
-0.026915418 0.73100001 -0.078182884 8.6411742e-39 299 301
-0.025633732 0.73100001 -0.078182884 8.6404554e-39 300 301
-0.024352046 0.73100001 -0.078182884 8.3635084e-39 301 301
-0.02307036 0.73100001 -0.078182884 8.6375841e-39 302 301
-0.021788673 0.73100001 -0.078182884 8.5453885e-39 303 301
-0.020506985 0.73100001 -0.078182884 8.7287007e-39 304 301
-0.019225299 0.73100001 -0.078182884 8.8208964e-39 305 301
-0.017943613 0.73100001 -0.078182884 8.547185e-39 306 301
-0.016661927 0.73100001 -0.078182884 8.547185e-39 307 301
-0.015422319 0.73299998 -0.07839679 8.6386533e-39 308 301
-0.014098554 0.73100001 -0.078182884 8.6386533e-39 309 301
-0.012816866 0.73100001 -0.078182884 8.9137983e-39 310 301
-0.011566739 0.73299998 -0.07839679 8.6368526e-39 311 301
-0.010281546 0.73299998 -0.07839679 8.8215886e-39 312 301
-0.0089963535 0.73299998 -0.07839679 1.3431363e-38 313 301
-0.0077111595 0.73299998 -0.07839679 1.3441398e-38 314 301
-0.0064259665 0.73299998 -0.07839679 1.298042e-38 315 301
-0.005140773 0.73299998 -0.07839679 1.1959453e-38 316 301
-0.0038555798 0.73299998 -0.07839679 8.8248172e-39 317 301
-0.0025633732 0.73100001 -0.078182884 9.1889432e-39 318 301
-0.0012816866 0.73100001 -0.078182884 9.2811402e-39 319 301
0 0.73100001 -0.078182884 9.1893104e-39 320 301
0.0012816866 0.73100001 -0.078182884 9.1893104e-39 321 301
0.0025633732 0.73100001 -0.078182884 9.0056422e-39 322 301
0.00384506 0.73100001 -0.078182884 8.9134451e-39 323 301
0.0051267464 0.73100001 -0.078182884 9.0045646e-39 324 301
0.006408433 0.73100001 -0.078182884 8.8201747e-39 325 301
0.00769012 0.73100001 -0.078182884 8.9116501e-39 326 301
0.0089718066 0.73100001 -0.078182884 9.0038457e-39 327 301
0.010253493 0.73100001 -0.078182884 8.8205306e-39 328 301
0.01153518 0.73100001 -0.078182884 9.0045618e-39 329 301
0.012816866 0.73100001 -0.078182884 8.8212495e-39 330 301
0.014098554 0.73100001 -0.078182884 8.8212495e-39 331 301
0.01538024 0.73100001 -0.078182884 8.6375841e-39 332 301
0.016661927 0.73100001 -0.078182884 8.6375841e-39 333 301
0.017943613 0.73100001 -0.078182884 8.8208936e-39 334 301
0.019225299 0.73100001 -0.078182884 8.8208936e-39 335 301
0.020506985 0.73100001 -0.078182884 9.004559e-39 336 301
0.021788673 0.73100001 -0.078182884 9.0971133e-39 337 301
0.02307036 0.73100001 -0.078182884 9.0963945e-39 338 301
0.024352046 0.73100001 -0.078182884 9.0963945e-39 339 301
0.025633732 0.73100001 -0.078182884 9.0045618e-39 340 301
0.026989058 0.73299998 -0.07839679 9.0967574e-39 341 301
0.028274251 0.73299998 -0.07839679 8.9138151e-39 342 301
0.029559445 0.73299998 -0.07839679 8.7297825e-39 343 301
0.030844638 0.73299998 -0.07839679 8.9130948e-39 344 301
0.032129832 0.73299998 -0.07839679 8.9130948e-39 345 301
0.033415023 0.73299998 -0.07839679 9.2793536e-39 346 301
0.034700219 0.73299998 -0.07839679 9.3715492e-39 347 301
0.035985414 0.73299998 -0.07839679 9.0967574e-39 348 301
0.037168913 0.73100001 -0.078182884 9.0967574e-39 349 301
0.038450599 0.73100001 -0.078182884 9.0038429e-39 350 301
0.039732285 0.73100001 -0.078182884 9.0038429e-39 351 301
0.041013971 0.73100001 -0.078182884 9.0038457e-39 352 301
0.0422378 0.73000002 -0.078075938 9.0038457e-39 353 301
0.043517731 0.73000002 -0.078075938 9.0045618e-39 354 301
0.044797666 0.73000002 -0.078075938 8.8205306e-39 355 301
0.046077598 0.73000002 -0.078075938 9.004559e-39 356 301
0.047357533 0.73000002 -0.078075938 8.8205278e-39 357 301
0.048637468 0.73000002 -0.078075938 8.7290511e-39 358 301
0.0499174 0.73000002 -0.078075938 8.7290511e-39 359 301
0.051267464 0.73100001 -0.078182884 8.8205306e-39 360 301
0.052549154 0.73100001 -0.078182884 8.8205306e-39 361 301
0.053830836 0.73100001 -0.078182884 8.7297769e-39 362 301
0.055112526 0.73100001 -0.078182884 8.7297769e-39 363 301
0.056394216 0.73100001 -0.078182884 8.913092e-39 364 301
0.057675898 0.73100001 -0.078182884 8.913092e-39 365 301
0.058876935 0.73000002 -0.078075938 8.9134479e-39 366 301
0.060156867 0.73000002 -0.078075938 8.8208936e-39 367 301
0.061436798 0.73000002 -0.078075938 8.8212495e-39 368 301
0.06271673 0.73000002 -0.078075938 8.9134451e-39 369 301
0.063996665 0.73000002 -0.078075938 8.8212495e-39 370 301
0.065097757 0.72799999 -0.077862024 8.8212495e-39 371 301
0.066374183 0.72799999 -0.077862024 8.8205278e-39 372 301
0.067650609 0.72799999 -0.077862024 9.004559e-39 373 301
0.068927035 0.72799999 -0.077862024 8.8212467e-39 374 301
0.070203468 0.72799999 -0.077862024 8.9134423e-39 375 301
0.071479887 0.72799999 -0.077862024 8.9134423e-39 376 301
0.072756313 0.72799999 -0.077862024 8.8212467e-39 377 301
0.074032739 0.72799999 -0.077862024 8.7301301e-39 378 301
0.075309172 0.72799999 -0.077862024 8.9141626e-39 379 301
0.076585598 0.72799999 -0.077862024 8.9141626e-39 380 301
0.077862024 0.72799999 -0.077862024 8.9141626e-39 381 301
0.07913845 0.72799999 -0.077862024 9.0059981e-39 382 301
0.080304414 0.727 -0.077755071 9.0981937e-39 383 301
0.081579089 0.727 -0.077755071 8.8259158e-39 384 301
0.082853764 0.727 -0.077755071 9.0106672e-39 385 301
0.084128432 0.727 -0.077755071 8.7355223e-39 386 301
0.085168168 0.72500002 -0.077541165 8.6433266e-39 387 301
0.086081654 0.722 -0.077220306 9.0085246e-39 388 301
0.08734756 0.722 -0.077220306 9.0085246e-39 389 301
0.088367999 0.72000003 -0.0770064 8.6426204e-39 390 301
0.082534656 0.66299999 -0.070910059 9.0114015e-39 391 301
0.083570883 0.662 -0.070803106 7.9122412e-39 392 301
0.084731586 0.662 -0.070803106 7.9122412e-39 393 301
0.08589229 0.662 -0.070803106 6.9956771e-39 394 301
0.086921498 0.66100001 -0.070696153 6.9956771e-39 395 301
0.088080451 0.66100001 -0.070696153 6.8134368e-39 396 301
0.089239404 0.66100001 -0.070696153 6.8134368e-39 397 301
0.090535119 0.662 -0.070803106 6.1713072e-39 398 301
0.091834337 0.66299999 -0.070910059 6.1713072e-39 399 301
0.092996798 0.66299999 -0.070910059 5.5277497e-39 400 301
0.094301268 0.66399997 -0.071017005 5.0667715e-39 401 301
0.095465489 0.66399997 -0.071017005 5.0646262e-39 402 301
0.096920758 0.66600001 -0.071230918 5.1568218e-39 403 301
0.098088481 0.66600001 -0.071230918 5.065708e-39 404 301
0.099256195 0.66600001 -0.071230918 6.2638924e-39 405 301
0.1005747 0.667 -0.071337871 6.8210319e-39 406 301
0.10159164 0.66600001 -0.071230918 8.4805518e-39 407 301
0.10275936 0.66600001 -0.071230918 8.940102e-39 408 301
-0.054640878 0.74199998 -0.080660343 1.0414866e-38 278 302
-0.047948405 0.667 -0.072507344 9.4929101e-39 279 302
-0.046778932 0.667 -0.072507344 8.9368426e-39 280 302
-0.045541082 0.66600001 -0.07239864 7.4620727e-39 281 302
-0.04437336 0.66600001 -0.07239864 5.6224635e-39 282 302
-0.043205637 0.66600001 -0.07239864 5.161844e-39 283 302
-0.042037919 0.66600001 -0.07239864 6.3557125e-39 284 302
-0.040747464 0.66399997 -0.072181225 6.4479081e-39 285 302
-0.039583251 0.66399997 -0.072181225 6.5422618e-39 286 302
-0.038419038 0.66399997 -0.072181225 6.9106841e-39 287 302
-0.037198719 0.66299999 -0.072072513 6.8184759e-39 288 302
-0.036036257 0.66299999 -0.072072513 6.6337245e-39 289 302
-0.034821201 0.662 -0.071963809 6.9067059e-39 290 302
-0.033660494 0.662 -0.071963809 6.6297588e-39 291 302
-0.032499783 0.662 -0.071963809 7.2697431e-39 292 302
-0.031339079 0.662 -0.071963809 6.9935163e-39 293 302
-0.030223956 0.66299999 -0.072072513 7.8164526e-39 294 302
-0.029061496 0.66299999 -0.072072513 7.6320614e-39 295 302
-0.030718399 0.73000002 -0.079355866 8.3649573e-39 296 302
-0.029317487 0.727 -0.079029746 8.3649573e-39 297 302
-0.028042812 0.727 -0.079029746 8.4575089e-39 298 302
-0.026878599 0.73000002 -0.079355866 8.4575089e-39 299 302
-0.025598666 0.73000002 -0.079355866 8.6400994e-39 300 302
-0.024318734 0.73000002 -0.079355866 8.5479038e-39 301 302
-0.02307036 0.73100001 -0.07946457 8.7297769e-39 302 302
-0.021788673 0.73100001 -0.07946457 8.6375813e-39 303 302
-0.020506985 0.73100001 -0.07946457 8.6375841e-39 304 302
-0.019225299 0.73100001 -0.07946457 8.7297797e-39 305 302
-0.017943613 0.73100001 -0.07946457 8.6383002e-39 306 302
-0.016661927 0.73100001 -0.07946457 8.7304972e-39 307 302
-0.01538024 0.73100001 -0.07946457 8.9141626e-39 308 302
-0.014098554 0.73100001 -0.07946457 9.006717e-39 309 302
-0.012816866 0.73100001 -0.07946457 9.099979e-39 310 302
-0.01153518 0.73100001 -0.07946457 8.4546096e-39 311 302
-0.010253493 0.73100001 -0.07946457 8.6350478e-39 312 302
-0.0089718066 0.73100001 -0.07946457 1.3152611e-38 313 302
-0.00769012 0.73100001 -0.07946457 1.3163016e-38 314 302
-0.006408433 0.73100001 -0.07946457 1.1872277e-38 315 302
-0.0051267464 0.73100001 -0.07946457 1.075982e-38 316 302
-0.00384506 0.73100001 -0.07946457 8.6393526e-39 317 302
-0.0025633732 0.73100001 -0.07946457 9.4637196e-39 318 302
-0.0012816866 0.73100001 -0.07946457 9.8324965e-39 319 302
0 0.73000002 -0.079355866 9.4651686e-39 320 302
0.0012799334 0.73000002 -0.079355866 9.0967448e-39 321 302
0.0025598668 0.73000002 -0.079355866 9.0971133e-39 322 302
0.0038397999 0.73000002 -0.079355866 9.0971133e-39 323 302
0.0051197335 0.73000002 -0.079355866 9.0038429e-39 324 302
0.0063996664 0.73000002 -0.079355866 9.0960385e-39 325 302
0.0076795998 0.73000002 -0.079355866 8.8201747e-39 326 302
0.0089595336 0.73000002 -0.079355866 9.0045646e-39 327 302
0.010239467 0.73000002 -0.079355866 8.8208936e-39 328 302
0.011519399 0.73000002 -0.079355866 8.7286979e-39 329 302
0.012816866 0.73100001 -0.07946457 8.8212495e-39 330 302
0.014098554 0.73100001 -0.07946457 8.9134451e-39 331 302
0.01538024 0.73100001 -0.07946457 8.7297769e-39 332 302
0.016661927 0.73100001 -0.07946457 8.5453857e-39 333 302
0.017919067 0.73000002 -0.079355866 9.0045646e-39 334 302
0.019199001 0.73000002 -0.079355866 9.0045646e-39 335 302
0.020478934 0.73000002 -0.079355866 9.0045618e-39 336 302
0.021758866 0.73000002 -0.079355866 9.0967574e-39 337 302
0.023038799 0.73000002 -0.079355866 9.004559e-39 338 302
0.024318734 0.73000002 -0.079355866 9.004559e-39 339 302
0.025598666 0.73000002 -0.079355866 8.9134423e-39 340 302
0.026878599 0.73000002 -0.079355866 8.9134423e-39 341 302
0.028158534 0.73000002 -0.079355866 8.7301329e-39 342 302
0.029478792 0.73100001 -0.07946457 8.7301329e-39 343 302
0.03076048 0.73100001 -0.07946457 9.0045646e-39 344 302
0.032042164 0.73100001 -0.07946457 9.0967602e-39 345 302
0.033323854 0.73100001 -0.07946457 9.3719051e-39 346 302
0.034605537 0.73100001 -0.07946457 9.3719051e-39 347 302
0.035887226 0.73100001 -0.07946457 9.1882342e-39 348 302
0.037118066 0.73000002 -0.079355866 9.0960385e-39 349 302
0.038398001 0.73000002 -0.079355866 9.0038457e-39 350 302
0.039677933 0.73000002 -0.079355866 9.0038457e-39 351 302
0.040957868 0.73000002 -0.079355866 9.1871552e-39 352 302
0.0422378 0.73000002 -0.079355866 9.1871552e-39 353 302
0.043398503 0.72799999 -0.07913845 8.8205278e-39 354 302
0.044674929 0.72799999 -0.07913845 8.8205278e-39 355 302
0.045951359 0.72799999 -0.07913845 9.0045618e-39 356 302
0.047227785 0.72799999 -0.07913845 9.0045618e-39 357 302
0.048504211 0.72799999 -0.07913845 8.6375813e-39 358 302
0.049780637 0.72799999 -0.07913845 8.5453857e-39 359 302
0.051197331 0.73000002 -0.079355866 8.7286979e-39 360 302
0.052477267 0.73000002 -0.079355866 8.7286979e-39 361 302
0.053757198 0.73000002 -0.079355866 8.8208936e-39 362 302
0.055037133 0.73000002 -0.079355866 8.9134479e-39 363 302
0.056162767 0.72799999 -0.07913845 8.8208936e-39 364 302
0.057439197 0.72799999 -0.07913845 8.9134479e-39 365 302
0.058715623 0.72799999 -0.07913845 8.9134479e-39 366 302
0.059992049 0.72799999 -0.07913845 8.9134479e-39 367 302
0.061184317 0.727 -0.079029746 8.9134479e-39 368 302
0.062458992 0.727 -0.079029746 8.8208936e-39 369 302
0.06373366 0.727 -0.079029746 8.8201747e-39 370 302
0.065008335 0.727 -0.079029746 8.8201747e-39 371 302
0.06628301 0.727 -0.079029746 8.8201747e-39 372 302
0.067557678 0.727 -0.079029746 9.0967602e-39 373 302
0.068643004 0.72500002 -0.078812331 8.7301329e-39 374 302
0.069914162 0.72500002 -0.078812331 8.7301329e-39 375 302
0.071381703 0.727 -0.079029746 8.8212495e-39 376 302
0.072656378 0.727 -0.079029746 9.0056422e-39 377 302
0.073931053 0.727 -0.079029746 8.7308531e-39 378 302
0.075205728 0.727 -0.079029746 8.6386561e-39 379 302
0.076480396 0.727 -0.079029746 8.913092e-39 380 302
0.077755071 0.727 -0.079029746 9.005289e-39 381 302
0.079029746 0.727 -0.079029746 9.0063638e-39 382 302
0.080083504 0.72500002 -0.078812331 9.1907551e-39 383 302
0.08135467 0.72500002 -0.078812331 8.8266389e-39 384 302
0.082397893 0.72299999 -0.078594916 8.9188345e-39 385 302
0.083665557 0.72299999 -0.078594916 8.8266389e-39 386 302
0.084815748 0.722 -0.078486212 8.550052e-39 387 302
0.085843205 0.72000003 -0.078268804 8.7333699e-39 388 302
0.087105595 0.72000003 -0.078268804 8.8255655e-39 389 302
0.088367999 0.72000003 -0.078268804 8.5522198e-39 390 302
0.082534656 0.66299999 -0.072072513 8.6447742e-39 391 302
0.083570883 0.662 -0.071963809 7.4537812e-39 392 302
0.084603593 0.66100001 -0.071855105 7.4537812e-39 393 302
0.085762545 0.66100001 -0.071855105 6.7219601e-39 394 302
0.086921498 0.66100001 -0.071855105 6.7219601e-39 395 302
0.088080451 0.66100001 -0.071855105 6.3560488e-39 396 302
0.089239404 0.66100001 -0.071855105 6.2638532e-39 397 302
0.090535119 0.662 -0.071963809 5.9876362e-39 398 302
0.091695823 0.662 -0.071963809 5.7110493e-39 399 302
0.092996798 0.66299999 -0.072072513 5.4341177e-39 400 302
0.094301268 0.66399997 -0.072181225 5.1571721e-39 401 302
0.095465489 0.66399997 -0.072181225 5.2483014e-39 402 302
0.096920758 0.66600001 -0.07239864 5.8014751e-39 403 302
0.098088481 0.66600001 -0.07239864 6.3575286e-39 404 302
0.099256195 0.66600001 -0.07239864 7.9248557e-39 405 302
0.1005747 0.667 -0.072507344 8.5720286e-39 406 302
0.10159164 0.66600001 -0.07239864 9.309595e-39 407 302
-0.046708796 0.66600001 -0.073566355 9.4929073e-39 280 303
-0.045541082 0.66600001 -0.073566355 8.3869184e-39 281 303
-0.04437336 0.66600001 -0.073566355 7.5535382e-39 282 303
-0.043075889 0.66399997 -0.07334543 6.7234188e-39 283 303
-0.041911677 0.66399997 -0.07334543 6.1716814e-39 284 303
-0.040747464 0.66399997 -0.07334543 6.1716814e-39 285 303
-0.039523639 0.66299999 -0.073234983 5.8043394e-39 286 303
-0.038361177 0.66299999 -0.073234983 6.4497088e-39 287 303
-0.037142612 0.662 -0.07312452 7.2765772e-39 288 303
-0.035981905 0.662 -0.07312452 7.5535228e-39 289 303
-0.034821201 0.662 -0.07312452 7.3701951e-39 290 303
-0.033609647 0.66100001 -0.073014058 6.8170214e-39 291 303
-0.032450691 0.66100001 -0.073014058 6.9074247e-39 292 303
-0.031291738 0.66100001 -0.073014058 6.3542509e-39 293 303
-0.030132787 0.66100001 -0.073014058 7.1771915e-39 294 303
-0.028973831 0.66100001 -0.073014058 6.9931604e-39 295 303
-0.02781488 0.66100001 -0.073014058 7.8164526e-39 296 303
-0.029317487 0.727 -0.080304414 7.724257e-39 297 303
-0.028042812 0.727 -0.080304414 8.3660293e-39 298 303
-0.026804959 0.72799999 -0.080414876 8.3660293e-39 299 303
-0.025528532 0.72799999 -0.080414876 8.4585808e-39 300 303
-0.024252106 0.72799999 -0.080414876 8.1819954e-39 301 303
-0.023038799 0.73000002 -0.080635801 8.5482597e-39 302 303
-0.021758866 0.73000002 -0.080635801 8.4557054e-39 303 303
-0.020478934 0.73000002 -0.080635801 8.4549879e-39 304 303
-0.019199001 0.73000002 -0.080635801 8.547185e-39 305 303
-0.017919067 0.73000002 -0.080635801 8.4549907e-39 306 303
-0.016639132 0.73000002 -0.080635801 8.5471878e-39 307 303
-0.0153592 0.73000002 -0.080635801 9.559532e-39 308 303
-0.014079267 0.73000002 -0.080635801 1.0666238e-38 309 303
-0.012799333 0.73000002 -0.080635801 1.0302826e-38 310 303
-0.011519399 0.73000002 -0.080635801 1.021063e-38 311 303
-0.010239467 0.73000002 -0.080635801 1.0572561e-38 312 303
-0.0089595336 0.73000002 -0.080635801 1.2232435e-38 313 303
-0.0076795998 0.73000002 -0.080635801 1.1868314e-38 314 303
-0.0063996664 0.73000002 -0.080635801 1.0208807e-38 315 303
-0.0051197335 0.73000002 -0.080635801 1.0021907e-38 316 303
-0.0038397999 0.73000002 -0.080635801 1.0206296e-38 317 303
-0.0025598668 0.73000002 -0.080635801 1.1586006e-38 318 303
-0.0012764266 0.72799999 -0.080414876 1.1678201e-38 319 303
0 0.72799999 -0.080414876 1.0659026e-38 320 303
0.0012764266 0.72799999 -0.080414876 1.0013656e-38 321 303
0.0025528532 0.72799999 -0.080414876 8.9145185e-39 322 303
0.0038292799 0.72799999 -0.080414876 8.730486e-39 323 303
0.0051057064 0.72799999 -0.080414876 9.004559e-39 324 303
0.0063821329 0.72799999 -0.080414876 9.0971133e-39 325 303
0.0076585598 0.72799999 -0.080414876 9.0045646e-39 326 303
0.0089349858 0.72799999 -0.080414876 9.0045646e-39 327 303
0.010211413 0.72799999 -0.080414876 8.8208936e-39 328 303
0.01148784 0.72799999 -0.080414876 8.8208936e-39 329 303
0.012799333 0.73000002 -0.080635801 8.7301329e-39 330 303
0.014079267 0.73000002 -0.080635801 8.7301329e-39 331 303
0.0153592 0.73000002 -0.080635801 8.8212495e-39 332 303
0.016639132 0.73000002 -0.080635801 8.8212495e-39 333 303
0.017869972 0.72799999 -0.080414876 8.8212495e-39 334 303
0.0191464 0.72799999 -0.080414876 8.9134451e-39 335 303
0.020422826 0.72799999 -0.080414876 9.0045646e-39 336 303
0.021699252 0.72799999 -0.080414876 9.0045646e-39 337 303
0.022975679 0.72799999 -0.080414876 9.0045646e-39 338 303
0.024252106 0.72799999 -0.080414876 9.0045646e-39 339 303
0.025528532 0.72799999 -0.080414876 8.9134423e-39 340 303
0.026768139 0.727 -0.080304414 8.9134423e-39 341 303
0.028042812 0.727 -0.080304414 8.8212495e-39 342 303
0.029357811 0.72799999 -0.080414876 8.8212495e-39 343 303
0.030718399 0.73000002 -0.080635801 9.005645e-39 344 303
0.031998333 0.73000002 -0.080635801 9.3740674e-39 345 303
0.033278264 0.73000002 -0.080635801 9.1911054e-39 346 303
0.034558199 0.73000002 -0.080635801 9.283301e-39 347 303
0.035838135 0.73000002 -0.080635801 9.1914613e-39 348 303
0.037118066 0.73000002 -0.080635801 8.7304832e-39 349 303
0.038292799 0.72799999 -0.080414876 9.0960385e-39 350 303
0.039569225 0.72799999 -0.080414876 9.0960385e-39 351 303
0.040845651 0.72799999 -0.080414876 8.8205306e-39 352 303
0.042122077 0.72799999 -0.080414876 9.0045618e-39 353 303
0.043398503 0.72799999 -0.080414876 8.7290539e-39 354 303
0.044613566 0.727 -0.080304414 8.7290539e-39 355 303
0.045888241 0.727 -0.080304414 8.7286979e-39 356 303
0.047162913 0.727 -0.080304414 8.7286979e-39 357 303
0.048437584 0.727 -0.080304414 8.7287007e-39 358 303
0.049712259 0.727 -0.080304414 8.7287007e-39 359 303
0.050986931 0.727 -0.080304414 8.7279819e-39 360 303
0.052261602 0.727 -0.080304414 8.8201775e-39 361 303
0.053536277 0.727 -0.080304414 8.7287007e-39 362 303
0.054810952 0.727 -0.080304414 8.8208964e-39 363 303
0.056085624 0.727 -0.080304414 8.8208936e-39 364 303
0.057360299 0.727 -0.080304414 8.7286979e-39 365 303
0.058473669 0.72500002 -0.080083504 9.0045646e-39 366 303
0.059744831 0.72500002 -0.080083504 9.0045646e-39 367 303
0.061016005 0.72500002 -0.080083504 9.0042086e-39 368 303
0.062287167 0.72500002 -0.080083504 8.8201775e-39 369 303
0.063558333 0.72500002 -0.080083504 9.0042086e-39 370 303
0.064829499 0.72500002 -0.080083504 8.8201775e-39 371 303
0.066100664 0.72500002 -0.080083504 9.0042086e-39 372 303
0.067371838 0.72500002 -0.080083504 9.0042086e-39 373 303
0.068643004 0.72500002 -0.080083504 8.8208964e-39 374 303
0.069914162 0.72500002 -0.080083504 8.8208964e-39 375 303
0.071185336 0.72500002 -0.080083504 8.7297797e-39 376 303
0.072456501 0.72500002 -0.080083504 8.7297797e-39 377 303
0.073727667 0.72500002 -0.080083504 8.7297825e-39 378 303
0.074998833 0.72500002 -0.080083504 8.7297825e-39 379 303
0.076269999 0.72500002 -0.080083504 8.7305028e-39 380 303
0.077541165 0.72500002 -0.080083504 8.9148941e-39 381 303
0.078812331 0.72500002 -0.080083504 8.7326538e-39 382 303
0.07986258 0.72299999 -0.07986258 9.0088806e-39 383 303
0.081130236 0.72299999 -0.07986258 8.826283e-39 384 303
0.082283929 0.722 -0.079752117 8.826283e-39 385 303
0.083549835 0.722 -0.079752117 9.0088778e-39 386 303
0.084580801 0.72000003 -0.0795312 8.9166821e-39 387 303
0.085843205 0.72000003 -0.0795312 8.5504205e-39 388 303
0.087105595 0.72000003 -0.0795312 8.7351719e-39 389 303
0.088367999 0.72000003 -0.0795312 8.0948374e-39 390 303
0.08228568 0.66100001 -0.073014058 8.187033e-39 391 303
0.08344464 0.66100001 -0.073014058 7.1789922e-39 392 303
0.084347598 0.65899998 -0.072793134 7.1789922e-39 393 303
0.085503049 0.65899998 -0.072793134 6.2624281e-39 394 303
0.086658493 0.65899998 -0.072793134 6.4468179e-39 395 303
0.087813944 0.65899998 -0.072793134 5.9876362e-39 396 303
0.089239404 0.66100001 -0.073014058 5.8954406e-39 397 303
0.090398364 0.66100001 -0.073014058 5.7103431e-39 398 303
0.091557316 0.66100001 -0.073014058 5.4341149e-39 399 303
0.092856526 0.662 -0.07312452 5.1568246e-39 400 303
0.094301268 0.66399997 -0.07334543 5.7096396e-39 401 303
0.095465489 0.66399997 -0.07334543 5.805438e-39 402 303
0.096920758 0.66600001 -0.073566355 6.6348385e-39 403 303
0.098088481 0.66600001 -0.073566355 7.5564347e-39 404 303
-0.046708796 0.66600001 -0.074734077 9.4950765e-39 280 304
-0.045404319 0.66399997 -0.07450965 9.4028809e-39 281 304
-0.044240102 0.66399997 -0.07450965 9.12268e-39 282 304
-0.043075889 0.66399997 -0.07450965 8.1085267e-39 283 304
-0.041848559 0.66299999 -0.074397437 6.8188388e-39 284 304
-0.040686097 0.66299999 -0.074397437 5.6202957e-39 285 304
-0.039523639 0.66299999 -0.074397437 4.6068696e-39 286 304
-0.038303319 0.662 -0.074285224 5.5291846e-39 287 304
-0.037142612 0.662 -0.074285224 6.4493557e-39 288 304
-0.035927553 0.66100001 -0.074173011 7.0947251e-39 289 304
-0.0347686 0.66100001 -0.074173011 7.3737979e-39 290 304
-0.033507951 0.65899998 -0.073948584 7.0968508e-39 291 304
-0.032352503 0.65899998 -0.073948584 7.3705356e-39 292 304
-0.031197058 0.65899998 -0.073948584 6.7251662e-39 293 304
-0.030041611 0.65899998 -0.073948584 7.2729604e-39 294 304
-0.028886165 0.65899998 -0.073948584 6.9967337e-39 295 304
-0.027730718 0.65899998 -0.073948584 7.544888e-39 296 304
-0.026575271 0.65899998 -0.073948584 7.3601366e-39 297 304
-0.028081384 0.72799999 -0.081691302 8.0008397e-39 298 304
-0.026804959 0.72799999 -0.081691302 7.8168086e-39 299 304
-0.025528532 0.72799999 -0.081691302 8.2756315e-39 300 304
-0.024252106 0.72799999 -0.081691302 8.1834359e-39 301 304
-0.022975679 0.72799999 -0.081691302 8.4585752e-39 302 304
-0.021699252 0.72799999 -0.081691302 8.3663796e-39 303 304
-0.020422826 0.72799999 -0.081691302 8.5482569e-39 304 304
-0.0191464 0.72799999 -0.081691302 8.4560613e-39 305 304
-0.017869972 0.72799999 -0.081691302 8.5479066e-39 306 304
-0.016593546 0.72799999 -0.081691302 8.7322979e-39 307 304
-0.01531712 0.72799999 -0.081691302 9.7468001e-39 308 304
-0.014040692 0.72799999 -0.081691302 1.1406321e-38 309 304
-0.012764266 0.72799999 -0.081691302 1.0585154e-38 310 304
-0.01148784 0.72799999 -0.081691302 1.1046132e-38 311 304
-0.010211413 0.72799999 -0.081691302 1.1594604e-38 312 304
-0.0089349858 0.72799999 -0.081691302 1.085668e-38 313 304
-0.0076585598 0.72799999 -0.081691302 1.0850595e-38 314 304
-0.0063821329 0.72799999 -0.081691302 9.6516954e-39 315 304
-0.0051057064 0.72799999 -0.081691302 9.929727e-39 316 304
-0.0038292799 0.72799999 -0.081691302 1.2142062e-38 317 304
-0.0025528532 0.72799999 -0.081691302 1.2700245e-38 318 304
-0.0012764266 0.72799999 -0.081691302 1.2515495e-38 319 304
0 0.72799999 -0.081691302 1.0753727e-38 320 304
0.0012746733 0.727 -0.081579089 9.8314203e-39 321 304
0.0025493465 0.727 -0.081579089 9.0989098e-39 322 304
0.0038240198 0.727 -0.081579089 8.9145185e-39 323 304
0.0050986931 0.727 -0.081579089 9.1893076e-39 324 304
0.0063733663 0.727 -0.081579089 9.0971105e-39 325 304
0.0076480396 0.727 -0.081579089 9.1885873e-39 326 304
0.0089227129 0.727 -0.081579089 9.2807843e-39 327 304
0.010197386 0.727 -0.081579089 9.2807843e-39 328 304
0.01147206 0.727 -0.081579089 9.1885873e-39 329 304
0.012746733 0.727 -0.081579089 9.6470445e-39 330 304
0.014040692 0.72799999 -0.081691302 9.6470445e-39 331 304
0.01531712 0.72799999 -0.081691302 9.0963889e-39 332 304
0.016593546 0.72799999 -0.081691302 9.0963889e-39 333 304
0.017845426 0.727 -0.081579089 9.0967602e-39 334 304
0.019120099 0.727 -0.081579089 9.0045646e-39 335 304
0.020394772 0.727 -0.081579089 9.0038457e-39 336 304
0.021669446 0.727 -0.081579089 9.0960413e-39 337 304
0.022880999 0.72500002 -0.08135467 9.0045646e-39 338 304
0.024152167 0.72500002 -0.08135467 9.0045646e-39 339 304
0.025423333 0.72500002 -0.08135467 9.0045618e-39 340 304
0.026694499 0.72500002 -0.08135467 9.0045618e-39 341 304
0.027965667 0.72500002 -0.08135467 9.0045618e-39 342 304
0.029236834 0.72500002 -0.08135467 9.1889544e-39 343 304
0.030592158 0.727 -0.081579089 8.9166793e-39 344 304
0.03186683 0.727 -0.081579089 9.285822e-39 345 304
0.033141505 0.727 -0.081579089 9.0135343e-39 346 304
0.03441618 0.727 -0.081579089 8.9213386e-39 347 304
0.035739943 0.72799999 -0.081691302 9.3779952e-39 348 304
0.037016369 0.72799999 -0.081691302 8.8248214e-39 349 304
0.038292799 0.72799999 -0.081691302 9.0974636e-39 350 304
0.039514873 0.727 -0.081579089 9.0974636e-39 351 304
0.040789545 0.727 -0.081579089 8.7301301e-39 352 304
0.042064216 0.727 -0.081579089 8.5457388e-39 353 304
0.043338891 0.727 -0.081579089 8.6379372e-39 354 304
0.044613566 0.727 -0.081579089 8.5457416e-39 355 304
0.045761999 0.72500002 -0.08135467 8.7287007e-39 356 304
0.047033165 0.72500002 -0.08135467 8.8208964e-39 357 304
0.048304334 0.72500002 -0.08135467 8.8205432e-39 358 304
0.0495755 0.72500002 -0.08135467 8.8205432e-39 359 304
0.050846666 0.72500002 -0.08135467 8.7287035e-39 360 304
0.052117832 0.72500002 -0.08135467 8.7287035e-39 361 304
0.053388998 0.72500002 -0.08135467 8.8208936e-39 362 304
0.054660168 0.72500002 -0.08135467 8.8208936e-39 363 304
0.055931333 0.72500002 -0.08135467 9.0045646e-39 364 304
0.057202499 0.72500002 -0.08135467 8.8201747e-39 365 304
0.058473669 0.72500002 -0.08135467 9.0042086e-39 366 304
0.059744831 0.72500002 -0.08135467 9.0042086e-39 367 304
0.060847677 0.72299999 -0.081130236 8.8208964e-39 368 304
0.062115334 0.72299999 -0.081130236 8.8208964e-39 369 304
0.063558333 0.72500002 -0.08135467 8.8201775e-39 370 304
0.064650662 0.72299999 -0.081130236 8.8201775e-39 371 304
0.065918319 0.72299999 -0.081130236 9.0034898e-39 372 304
0.067185976 0.72299999 -0.081130236 9.0034898e-39 373 304
0.06845364 0.72299999 -0.081130236 9.0038555e-39 374 304
0.069721296 0.72299999 -0.081130236 9.0038555e-39 375 304
0.071185336 0.72500002 -0.08135467 8.8205432e-39 376 304
0.072456501 0.72500002 -0.08135467 8.9127389e-39 377 304
0.073727667 0.72500002 -0.08135467 8.7297825e-39 378 304
0.074998833 0.72500002 -0.08135467 8.9138151e-39 379 304
0.076269999 0.72500002 -0.08135467 8.8234173e-39 380 304
0.077327259 0.72299999 -0.081130236 9.0078086e-39 381 304
0.078594916 0.72299999 -0.081130236 9.0085246e-39 382 304
0.079752117 0.722 -0.081018023 9.1010804e-39 383 304
0.081018023 0.722 -0.081018023 8.7351691e-39 384 304
0.082283929 0.722 -0.081018023 8.6429735e-39 385 304
0.083549835 0.722 -0.081018023 8.6429707e-39 386 304
0.076945029 0.65499997 -0.073499724 8.6429707e-39 387 304
0.077974238 0.65399998 -0.073387519 8.0019173e-39 388 304
0.079120919 0.65399998 -0.073387519 8.3706984e-39 389 304
0.080635801 0.65700001 -0.073724158 7.454856e-39 390 304
0.081787735 0.65700001 -0.073724158 7.454856e-39 391 304
0.08306592 0.65799999 -0.073836371 6.721251e-39 392 304
0.084219612 0.65799999 -0.073836371 6.6290554e-39 393 304
0.085373305 0.65799999 -0.073836371 5.8950903e-39 394 304
0.086526997 0.65799999 -0.073836371 5.9872859e-39 395 304
0.087813944 0.65899998 -0.073948584 5.6199453e-39 396 304
0.088969387 0.65899998 -0.073948584 5.2515229e-39 397 304
0.090124831 0.65899998 -0.073948584 5.4337646e-39 398 304
0.091557316 0.66100001 -0.074173011 5.341569e-39 399 304
0.092716269 0.66100001 -0.074173011 5.1600686e-39 400 304
0.094301268 0.66399997 -0.07450965 6.1738604e-39 401 304
0.095465489 0.66399997 -0.07450965 6.8210347e-39 402 304
-0.045404319 0.66399997 -0.075673863 9.0366193e-39 281 305
-0.044240102 0.66399997 -0.075673863 8.8515035e-39 282 305
-0.043075889 0.66399997 -0.075673863 8.7593079e-39 283 305
-0.041785441 0.662 -0.075445928 9.0315536e-39 284 305
-0.04062473 0.662 -0.075445928 7.7408148e-39 285 305
-0.039404415 0.66100001 -0.075331964 6.3582292e-39 286 305
-0.038245458 0.66100001 -0.075331964 5.1600462e-39 287 305
-0.037086505 0.66100001 -0.075331964 5.7103459e-39 288 305
-0.035818845 0.65899998 -0.075104028 6.5401066e-39 289 305
-0.034663398 0.65899998 -0.075104028 7.55352e-39 290 305
-0.033457108 0.65799999 -0.074990064 8.291085e-39 291 305
-0.032303412 0.65799999 -0.074990064 8.2921444e-39 292 305
-0.031149717 0.65799999 -0.074990064 8.1073944e-39 293 305
-0.029996024 0.65799999 -0.074990064 7.464546e-39 294 305
-0.028842334 0.65799999 -0.074990064 6.8191766e-39 295 305
-0.027646558 0.65700001 -0.0748761 7.0910943e-39 296 305
-0.026494619 0.65700001 -0.0748761 6.7223104e-39 297 305
-0.025342681 0.65700001 -0.0748761 7.3615729e-39 298 305
-0.026804959 0.72799999 -0.082967728 7.3615729e-39 299 305
-0.025528532 0.72799999 -0.082967728 8.0933899e-39 300 305
-0.024252106 0.72799999 -0.082967728 8.1855855e-39 301 305
-0.022975679 0.72799999 -0.082967728 8.3681817e-39 302 305
-0.021699252 0.72799999 -0.082967728 8.2759847e-39 303 305
-0.020422826 0.72799999 -0.082967728 8.458578e-39 304 305
-0.0191464 0.72799999 -0.082967728 8.1823513e-39 305 305
-0.017869972 0.72799999 -0.082967728 8.3645916e-39 306 305
-0.016570752 0.727 -0.082853764 8.5486227e-39 307 305
-0.015296079 0.727 -0.082853764 9.0088778e-39 308 305
-0.014021406 0.727 -0.082853764 9.6542472e-39 309 305
-0.012746733 0.727 -0.082853764 9.7510965e-39 310 305
-0.01147206 0.727 -0.082853764 1.030427e-38 311 305
-0.010197386 0.727 -0.082853764 1.1040741e-38 312 305
-0.0089227129 0.727 -0.082853764 1.0487567e-38 313 305
-0.0076480396 0.727 -0.082853764 1.0389986e-38 314 305
-0.0063821329 0.72799999 -0.082967728 9.5602242e-39 315 305
-0.0050986931 0.727 -0.082853764 1.0485419e-38 316 305
-0.0038240198 0.727 -0.082853764 1.3159092e-38 317 305
-0.0025493465 0.727 -0.082853764 1.251658e-38 318 305
-0.0012746733 0.727 -0.082853764 1.1225841e-38 319 305
0 0.727 -0.082853764 9.8339315e-39 320 305
0.0012746733 0.727 -0.082853764 8.7279595e-39 321 305
0.0025423334 0.72500002 -0.082625829 9.0996259e-39 322 305
0.0038135003 0.72500002 -0.082625829 9.3765715e-39 323 305
0.0050846669 0.72500002 -0.082625829 9.0999818e-39 324 305
0.0063558333 0.72500002 -0.082625829 8.9159507e-39 325 305
0.0076270006 0.72500002 -0.082625829 9.4651714e-39 326 305
0.0088981669 0.72500002 -0.082625829 9.9265083e-39 327 305
0.010169334 0.72500002 -0.082625829 1.0301403e-38 328 305
0.0114405 0.72500002 -0.082625829 1.0854576e-38 329 305
0.012711667 0.72500002 -0.082625829 1.0937418e-38 330 305
0.013982833 0.72500002 -0.082625829 1.0015103e-38 331 305
0.015254001 0.72500002 -0.082625829 9.1896635e-39 332 305
0.016525166 0.72500002 -0.082625829 9.0971077e-39 333 305
0.017796334 0.72500002 -0.082625829 9.0045618e-39 334 305
0.0190675 0.72500002 -0.082625829 9.0045618e-39 335 305
0.020338668 0.72500002 -0.082625829 9.0960413e-39 336 305
0.021609833 0.72500002 -0.082625829 9.0960413e-39 337 305
0.02281788 0.72299999 -0.082397893 9.0956854e-39 338 305
0.024085538 0.72299999 -0.082397893 9.0956854e-39 339 305
0.025353199 0.72299999 -0.082397893 9.0045646e-39 340 305
0.026620859 0.72299999 -0.082397893 9.0967602e-39 341 305
0.02788852 0.72299999 -0.082397893 8.9152444e-39 342 305
0.029156178 0.72299999 -0.082397893 9.3762225e-39 343 305
0.030423839 0.72299999 -0.082397893 8.2795818e-39 344 305
0.031691495 0.72299999 -0.082397893 8.6480056e-39 345 305
0.033050332 0.72500002 -0.082625829 9.016421e-39 346 305
0.034321502 0.72500002 -0.082625829 8.7398355e-39 347 305
0.035592668 0.72500002 -0.082625829 9.1035789e-39 348 305
0.036965527 0.727 -0.082853764 8.5504051e-39 349 305
0.038240198 0.727 -0.082853764 8.823046e-39 350 305
0.039406165 0.72500002 -0.082625829 8.823046e-39 351 305
0.040677335 0.72500002 -0.082625829 8.6386533e-39 352 305
0.041948501 0.72500002 -0.082625829 8.5464577e-39 353 305
0.043100435 0.72299999 -0.082397893 8.7290539e-39 354 305
0.044368099 0.72299999 -0.082397893 8.7290539e-39 355 305
0.04563576 0.72299999 -0.082397893 8.5453857e-39 356 305
0.046903417 0.72299999 -0.082397893 8.6375813e-39 357 305
0.048171077 0.72299999 -0.082397893 8.6372282e-39 358 305
0.049438741 0.72299999 -0.082397893 8.5450326e-39 359 305
0.050706398 0.72299999 -0.082397893 8.7287035e-39 360 305
0.051974058 0.72299999 -0.082397893 8.8208992e-39 361 305
0.053241719 0.72299999 -0.082397893 8.8208936e-39 362 305
0.054509375 0.72299999 -0.082397893 8.9134479e-39 363 305
0.055777039 0.72299999 -0.082397893 8.8201747e-39 364 305
0.057044696 0.72299999 -0.082397893 8.8201747e-39 365 305
0.058312356 0.72299999 -0.082397893 8.8201747e-39 366 305
0.059497613 0.722 -0.082283929 8.8201747e-39 367 305
0.060763516 0.722 -0.082283929 8.7290539e-39 368 305
0.062115334 0.72299999 -0.082397893 8.8212495e-39 369 305
0.063382991 0.72299999 -0.082397893 8.8205306e-39 370 305
0.064650662 0.72299999 -0.082397893 9.0045618e-39 371 305
0.065918319 0.72299999 -0.082397893 9.0038457e-39 372 305
0.067185976 0.72299999 -0.082397893 9.0038457e-39 373 305
0.06845364 0.72299999 -0.082397893 8.8201775e-39 374 305
0.069721296 0.72299999 -0.082397893 9.0964043e-39 375 305
0.070988953 0.72299999 -0.082397893 8.7297797e-39 376 305
0.072256617 0.72299999 -0.082397893 8.7297797e-39 377 305
0.073524274 0.72299999 -0.082397893 9.0060079e-39 378 305
0.074791931 0.72299999 -0.082397893 9.0985623e-39 379 305
0.076059602 0.72299999 -0.082397893 9.0088806e-39 380 305
0.077327259 0.72299999 -0.082397893 9.1010776e-39 381 305
0.078594916 0.72299999 -0.082397893 9.1003601e-39 382 305
0.072130375 0.653 -0.074420229 9.1925572e-39 383 305
0.073275305 0.653 -0.074420229 8.6426176e-39 384 305
0.074534193 0.65399998 -0.074534193 8.8273676e-39 385 305
0.075680874 0.65399998 -0.074534193 8.2770623e-39 386 305
0.076827556 0.65399998 -0.074534193 8.5536477e-39 387 305
0.077974238 0.65399998 -0.074534193 7.6374466e-39 388 305
0.079120919 0.65399998 -0.074534193 7.7300009e-39 389 305
0.080390327 0.65499997 -0.074648157 6.8130837e-39 390 305
0.081787735 0.65700001 -0.0748761 6.8130837e-39 391 305
0.08306592 0.65799999 -0.074990064 6.2624309e-39 392 305
0.084091611 0.65700001 -0.0748761 6.1702352e-39 393 305
0.08524356 0.65700001 -0.0748761 5.5270308e-39 394 305
0.086526997 0.65799999 -0.074990064 5.4348352e-39 395 305
0.08768069 0.65799999 -0.074990064 5.4326856e-39 396 305
0.088834383 0.65799999 -0.074990064 5.2482958e-39 397 305
0.089988075 0.65799999 -0.074990064 5.2486643e-39 398 305
0.091280282 0.65899998 -0.075104028 6.1709807e-39 399 305
0.092716269 0.66100001 -0.075331964 6.3607726e-39 400 305
-0.041785441 0.662 -0.076606639 9.4947079e-39 284 306
-0.04062473 0.662 -0.076606639 8.8493385e-39 285 306
-0.039404415 0.66100001 -0.076490916 8.1106749e-39 286 306
-0.038245458 0.66100001 -0.076490916 6.4515137e-39 287 306
-0.036974292 0.65899998 -0.076259479 5.3437186e-39 288 306
-0.035818845 0.65899998 -0.076259479 5.712141e-39 289 306
-0.034663398 0.65899998 -0.076259479 6.35716e-39 290 306
-0.033406258 0.65700001 -0.076028034 6.6341071e-39 291 306
-0.03225432 0.65700001 -0.076028034 7.0957985e-39 292 306
-0.03110238 0.65700001 -0.076028034 7.3727441e-39 293 306
-0.02995044 0.65700001 -0.076028034 6.9153379e-39 294 306
-0.028798498 0.65700001 -0.076028034 6.2699684e-39 295 306
-0.027646558 0.65700001 -0.076028034 6.5425827e-39 296 306
-0.026494619 0.65700001 -0.076028034 6.1741603e-39 297 306
-0.025265532 0.65499997 -0.075796597 6.9063331e-39 298 306
-0.024117097 0.65499997 -0.075796597 6.7219419e-39 299 306
-0.022968665 0.65499997 -0.075796597 7.4544874e-39 300 306
-0.021886859 0.65700001 -0.076028034 7.2700962e-39 301 306
-0.020734919 0.65700001 -0.076028034 7.543816e-39 302 306
-0.019612785 0.65799999 -0.076143757 7.4516204e-39 303 306
-0.020422826 0.72799999 -0.084244154 7.8171561e-39 304 306
-0.019120099 0.727 -0.084128432 7.8171561e-39 305 306
-0.017796334 0.72500002 -0.083897002 8.3660167e-39 306 306
-0.016525166 0.72500002 -0.083897002 8.4582123e-39 307 306
-0.015296079 0.727 -0.084128432 8.1812919e-39 308 306
-0.014021406 0.727 -0.084128432 8.365323e-39 309 306
