# .PCD v.7 - Point Cloud Data file format
FIELDS x y z rgb imX imY
SIZE 4 4 4 4 4 4
TYPE F F F F F F
COUNT 1 1 1 1 1 1
WIDTH 843
HEIGHT 1
VIEWPOINT 0 0 0 1 0 0 0
POINTS 843
DATA ascii
0.10486335 0.67199999 -0.06598144 6.7226845e-39 409 296
0.1060416 0.67199999 -0.06598144 5.8972385e-39 410 296
0.10706028 0.671 -0.065883249 5.8972385e-39 411 296
0.10823677 0.671 -0.065883249 5.712141e-39 412 296
0.10941326 0.671 -0.065883249 5.6199453e-39 413 296
0.11058974 0.671 -0.065883249 4.9735095e-39 414 296
0.11176623 0.671 -0.065883249 5.6188789e-39 415 296
0.11294272 0.671 -0.065883249 7.096174e-39 416 296
0.1141192 0.671 -0.065883249 9.585456e-39 417 296
-0.0556245 0.67500001 -0.067459501 1.115604e-38 273 297
-0.054441001 0.67500001 -0.067459501 1.1151337e-38 274 297
-0.053178601 0.67400002 -0.067359567 8.2932711e-39 275 297
-0.051996857 0.67400002 -0.067359567 6.1734568e-39 276 297
-0.050815105 0.67400002 -0.067359567 5.5280874e-39 277 297
-0.049486078 0.67199999 -0.067159683 6.1731065e-39 278 297
-0.04830784 0.67199999 -0.067159683 6.3574978e-39 279 297
-0.047059465 0.671 -0.06705974 6.6326581e-39 280 297
-0.045882981 0.671 -0.06705974 6.4479081e-39 281 297
-0.044639867 0.67000002 -0.066959806 6.6312106e-39 282 297
-0.043465134 0.67000002 -0.066959806 6.539015e-39 283 297
-0.042290401 0.67000002 -0.066959806 6.7219601e-39 284 297
-0.040931564 0.667 -0.06665998 6.6294057e-39 285 297
-0.039762091 0.667 -0.06665998 7.1775446e-39 286 297
-0.03853476 0.66600001 -0.066560037 6.9935121e-39 287 297
-0.037254825 0.66399997 -0.066360161 7.6331334e-39 288 297
-0.036090612 0.66399997 -0.066360161 7.3565479e-39 289 297
-0.038450599 0.73100001 -0.073056139 7.8139387e-39 290 297
-0.037168913 0.73100001 -0.073056139 7.8139387e-39 291 297
-0.035887226 0.73100001 -0.073056139 7.9047008e-39 292 297
-0.034605537 0.73100001 -0.073056139 7.9047008e-39 293 297
-0.033323854 0.73100001 -0.073056139 7.9976167e-39 294 297
-0.032042164 0.73100001 -0.073056139 8.1823667e-39 295 297
-0.03076048 0.73100001 -0.073056139 8.2745595e-39 296 297
-0.029478792 0.73100001 -0.073056139 8.3667552e-39 297 297
-0.028274251 0.73299998 -0.073256016 8.5493514e-39 298 297
-0.026989058 0.73299998 -0.073256016 8.3649601e-39 299 297
-0.025703866 0.73299998 -0.073256016 8.7308686e-39 300 297
-0.024451986 0.73400003 -0.073355958 8.5468374e-39 301 297
-0.023165042 0.73400003 -0.073355958 8.4546376e-39 302 297
-0.021937706 0.736 -0.073555835 8.7308658e-39 303 297
-0.020647252 0.736 -0.073555835 9.101058e-39 304 297
-0.019356798 0.736 -0.073555835 9.8389817e-39 305 297
-0.018066347 0.736 -0.073555835 1.0581907e-38 306 297
-0.016821479 0.73799998 -0.073755711 1.1043245e-38 307 297
-0.015527519 0.73799998 -0.073755711 1.0673739e-38 308 297
-0.014233559 0.73799998 -0.073755711 1.0120567e-38 309 297
-0.012939599 0.73799998 -0.073755711 1.0118412e-38 310 297
-0.011645639 0.73799998 -0.073755711 9.2886582e-39 311 297
-0.010351679 0.73799998 -0.073755711 9.6534905e-39 312 297
-0.0090577193 0.73799998 -0.073755711 9.8378817e-39 313 297
-0.0077742799 0.73900002 -0.073855661 1.0297789e-38 314 297
-0.0064785667 0.73900002 -0.073855661 9.928648e-39 315 297
-0.0051828534 0.73900002 -0.073855661 9.2840101e-39 316 297
-0.0038976599 0.741 -0.074055538 9.0992601e-39 317 297
-0.0025984398 0.741 -0.074055538 9.1889544e-39 318 297
-0.0012957134 0.73900002 -0.073855661 9.1889544e-39 319 297
0 0.73900002 -0.073855661 9.005645e-39 320 297
0.0012957134 0.73900002 -0.073855661 8.9134479e-39 321 297
0.0025914267 0.73900002 -0.073855661 8.913092e-39 322 297
0.00388714 0.73900002 -0.073855661 8.913092e-39 323 297
0.0051828534 0.73900002 -0.073855661 9.0042086e-39 324 297
0.0064697997 0.73799998 -0.073755711 9.0964043e-39 325 297
0.0077637597 0.73799998 -0.073755711 8.9134479e-39 326 297
0.0090577193 0.73799998 -0.073755711 8.9134479e-39 327 297
0.010351679 0.73799998 -0.073755711 8.6383002e-39 328 297
0.011645639 0.73799998 -0.073755711 8.6383002e-39 329 297
0.012939599 0.73799998 -0.073755711 8.6386561e-39 330 297
0.014233559 0.73799998 -0.073755711 8.6386561e-39 331 297
0.01554856 0.73900002 -0.073855661 8.7301301e-39 332 297
0.016844273 0.73900002 -0.073855661 8.6379344e-39 333 297
0.018139986 0.73900002 -0.073855661 8.9137983e-39 334 297
0.0194357 0.73900002 -0.073855661 8.9137983e-39 335 297
0.020731414 0.73900002 -0.073855661 8.730486e-39 336 297
0.021997318 0.73799998 -0.073755711 8.9145185e-39 337 297
0.023291279 0.73799998 -0.073755711 9.0059953e-39 338 297
0.024585238 0.73799998 -0.073755711 9.0059953e-39 339 297
0.025879199 0.73799998 -0.073755711 9.0059953e-39 340 297
0.027173158 0.73799998 -0.073755711 9.0059953e-39 341 297
0.028467119 0.73799998 -0.073755711 9.1893076e-39 342 297
0.029761078 0.73799998 -0.073755711 9.1893076e-39 343 297
0.031055039 0.73799998 -0.073755711 9.1893104e-39 344 297
0.032348998 0.73799998 -0.073755711 9.1893104e-39 345 297
0.033642959 0.73799998 -0.073755711 8.9134451e-39 346 297
0.034936916 0.73799998 -0.073755711 8.9134451e-39 347 297
0.036279973 0.73900002 -0.073855661 8.9134479e-39 348 297
0.037524838 0.73799998 -0.073755711 8.9134479e-39 349 297
0.038818799 0.73799998 -0.073755711 8.9141654e-39 350 297
0.040112756 0.73799998 -0.073755711 8.7301329e-39 351 297
0.041406717 0.73799998 -0.073755711 8.7301329e-39 352 297
0.042700678 0.73799998 -0.073755711 8.7301329e-39 353 297
0.043994635 0.73799998 -0.073755711 8.8212495e-39 354 297
0.0452886 0.73799998 -0.073755711 8.8212495e-39 355 297
0.046582557 0.73799998 -0.073755711 8.7290539e-39 356 297
0.047876518 0.73799998 -0.073755711 8.8212495e-39 357 297
0.049037226 0.736 -0.073555835 8.6379372e-39 358 297
0.050327681 0.736 -0.073555835 8.6379372e-39 359 297
0.051758397 0.73799998 -0.073755711 8.6379372e-39 360 297
0.052908584 0.736 -0.073555835 8.7301329e-39 361 297
0.05419904 0.736 -0.073555835 8.6386561e-39 362 297
0.055489492 0.736 -0.073555835 8.6386561e-39 363 297
0.056779943 0.736 -0.073555835 8.4549851e-39 364 297
0.058070395 0.736 -0.073555835 8.4549851e-39 365 297
0.059360851 0.736 -0.073555835 8.5461045e-39 366 297
0.060651302 0.736 -0.073555835 8.5461045e-39 367 297
0.061941758 0.736 -0.073555835 8.4549907e-39 368 297
0.063232213 0.736 -0.073555835 8.3627951e-39 369 297
0.064697996 0.73799998 -0.073755711 8.3627923e-39 370 297
0.06599196 0.73799998 -0.073755711 8.3627923e-39 371 297
0.067285918 0.73799998 -0.073755711 8.6386505e-39 372 297
0.068579875 0.73799998 -0.073755711 8.5464549e-39 373 297
0.069873832 0.73799998 -0.073755711 8.5464549e-39 374 297
0.071167797 0.73799998 -0.073755711 8.5464549e-39 375 297
0.072265387 0.736 -0.073555835 8.3627895e-39 376 297
0.073555835 0.736 -0.073555835 8.4549851e-39 377 297
0.07484629 0.736 -0.073555835 8.1823513e-39 378 297
0.076136746 0.736 -0.073555835 8.5507737e-39 379 297
0.077216797 0.73400003 -0.073355958 8.0958884e-39 380 297
0.07850375 0.73400003 -0.073355958 8.2806384e-39 381 297
0.079790697 0.73400003 -0.073355958 8.0029767e-39 382 297
0.081077635 0.73400003 -0.073355958 7.2654102e-39 383 297
0.082364589 0.73400003 -0.073355958 7.7224591e-39 384 297
0.083651535 0.73400003 -0.073355958 7.8146548e-39 385 297
0.084938474 0.73400003 -0.073355958 7.3561976e-39 386 297
0.086225428 0.73400003 -0.073355958 7.4483932e-39 387 297
0.087512374 0.73400003 -0.073355958 7.8153736e-39 388 297
0.08879932 0.73400003 -0.073355958 7.8153736e-39 389 297
0.089963526 0.73299998 -0.073256016 7.8150205e-39 390 297
0.090999752 0.73100001 -0.073056139 7.5387938e-39 391 297
0.092155196 0.73000002 -0.072956197 6.0690741e-39 392 297
0.093435131 0.73000002 -0.072956197 5.9768785e-39 393 297
0.094715066 0.73000002 -0.072956197 5.243998e-39 394 297
0.095731996 0.72799999 -0.072756313 5.243998e-39 395 297
0.096875168 0.727 -0.072656378 5.1532345e-39 396 297
0.097879834 0.72500002 -0.072456501 5.3372656e-39 397 297
0.098877482 0.72299999 -0.072256617 5.6124077e-39 398 297
0.10000663 0.722 -0.072156675 5.7046048e-39 399 297
0.100992 0.72000003 -0.071956798 6.3481623e-39 400 297
0.10211238 0.71899998 -0.071856856 6.7165847e-39 401 297
0.10308547 0.71700001 -0.07165698 7.3597877e-39 402 297
0.10434262 0.71700001 -0.07165698 7.4519833e-39 403 297
0.098677598 0.67000002 -0.066959806 8.0026362e-39 404 297
0.099852331 0.67000002 -0.066959806 8.1873862e-39 405 297
0.10102707 0.67000002 -0.066959806 7.3644596e-39 406 297
0.1022018 0.67000002 -0.066959806 7.4566552e-39 407 297
0.10353082 0.671 -0.06705974 6.2649462e-39 408 297
0.10470732 0.671 -0.06705974 6.1727506e-39 409 297
0.10588379 0.671 -0.06705974 5.8046897e-39 410 297
0.10690073 0.67000002 -0.066959806 5.7124941e-39 411 297
0.10807547 0.67000002 -0.066959806 5.3440843e-39 412 297
0.1092502 0.67000002 -0.066959806 5.067496e-39 413 297
0.11042494 0.67000002 -0.066959806 4.6061689e-39 414 297
0.11176623 0.671 -0.06705974 6.3575258e-39 415 297
0.11294272 0.671 -0.06705974 9.4010606e-39 416 297
0.1141192 0.671 -0.06705974 1.0783996e-38 417 297
-0.054441001 0.67500001 -0.068643004 1.0786163e-38 274 298
-0.053178601 0.67400002 -0.068541311 9.772371e-39 275 298
-0.051842555 0.67199999 -0.068337917 8.752066e-39 276 298
-0.050664317 0.67199999 -0.068337917 6.4468151e-39 277 298
-0.049412437 0.671 -0.068236224 4.9803142e-39 278 298
-0.048235953 0.671 -0.068236224 5.6256836e-39 279 298
-0.047059465 0.671 -0.068236224 7.0007162e-39 280 298
-0.0458146 0.67000002 -0.068134531 6.9085191e-39 281 298
-0.044506609 0.66799998 -0.067931145 6.2649462e-39 282 298
-0.043335386 0.66799998 -0.067931145 6.1727506e-39 283 298
-0.042164158 0.66799998 -0.067931145 6.1720317e-39 284 298
-0.040931564 0.667 -0.067829452 6.0798347e-39 285 298
-0.039762091 0.667 -0.067829452 6.7208853e-39 286 298
-0.03853476 0.66600001 -0.067727759 6.4442984e-39 287 298
-0.037254825 0.66399997 -0.067524366 7.4505372e-39 288 298
-0.036090612 0.66399997 -0.067524366 7.2665061e-39 289 298
-0.0349264 0.66399997 -0.067524366 7.8153736e-39 290 298
-0.037168913 0.73100001 -0.074337825 7.5391469e-39 291 298
-0.035887226 0.73100001 -0.074337825 7.9047008e-39 292 298
-0.034605537 0.73100001 -0.074337825 7.9047008e-39 293 298
-0.033278264 0.73000002 -0.074236132 7.9968978e-39 294 298
-0.031998333 0.73000002 -0.074236132 8.0890935e-39 295 298
-0.030718399 0.73000002 -0.074236132 8.4571529e-39 296 298
-0.029438468 0.73000002 -0.074236132 8.5497073e-39 297 298
-0.028197108 0.73100001 -0.074337825 8.5497073e-39 298 298
-0.026915418 0.73100001 -0.074337825 8.4571529e-39 299 298
-0.025633732 0.73100001 -0.074337825 8.5468318e-39 300 298
-0.024418673 0.73299998 -0.074541211 8.5468318e-39 301 298
-0.023133477 0.73299998 -0.074541211 8.4549907e-39 302 298
-0.021878093 0.73400003 -0.074642912 8.7312189e-39 303 298
-0.020591147 0.73400003 -0.074642912 9.4698405e-39 304 298
-0.019304199 0.73400003 -0.074642912 1.0391797e-38 305 298
-0.018017253 0.73400003 -0.074642912 1.0581554e-38 306 298
-0.016730307 0.73400003 -0.074642912 1.0858501e-38 307 298
-0.01544336 0.73400003 -0.074642912 1.030533e-38 308 298
-0.014194986 0.736 -0.07484629 9.4752103e-39 309 298
-0.012904533 0.736 -0.07484629 9.7482028e-39 310 298
-0.01161408 0.736 -0.07484629 1.002515e-38 311 298
-0.010323626 0.736 -0.07484629 1.1591399e-38 312 298
-0.0090331733 0.736 -0.07484629 1.1959822e-38 313 298
-0.0077637597 0.73799998 -0.075049676 1.2142062e-38 314 298
-0.0064697997 0.73799998 -0.075049676 1.0851323e-38 315 298
-0.0051758396 0.73799998 -0.075049676 9.5602341e-39 316 298
-0.00388714 0.73900002 -0.075151369 9.099616e-39 317 298
-0.0025914267 0.73900002 -0.075151369 9.1893104e-39 318 298
-0.0012957134 0.73900002 -0.075151369 9.1893104e-39 319 298
0 0.73799998 -0.075049676 8.9141682e-39 320 298
0.0012939599 0.73799998 -0.075049676 8.9141682e-39 321 298
0.0025879198 0.73799998 -0.075049676 8.9141682e-39 322 298
0.0038818798 0.73799998 -0.075049676 8.9141682e-39 323 298
0.005161813 0.736 -0.07484629 8.8208936e-39 324 298
0.0064522666 0.736 -0.07484629 8.8208936e-39 325 298
0.0077427197 0.736 -0.07484629 8.7297769e-39 326 298
0.0090331733 0.736 -0.07484629 8.7297769e-39 327 298
0.010323626 0.736 -0.07484629 8.7308531e-39 328 298
0.01161408 0.736 -0.07484629 8.7308531e-39 329 298
0.012904533 0.736 -0.07484629 8.6386561e-39 330 298
0.014194986 0.736 -0.07484629 8.6386561e-39 331 298
0.015527519 0.73799998 -0.075049676 8.7301329e-39 332 298
0.016821479 0.73799998 -0.075049676 8.6379372e-39 333 298
0.018066347 0.736 -0.07484629 8.8216026e-39 334 298
0.019356798 0.736 -0.07484629 8.9137983e-39 335 298
0.020647252 0.736 -0.07484629 8.7312063e-39 336 298
0.021937706 0.736 -0.07484629 8.6386505e-39 337 298
0.023228159 0.736 -0.07484629 9.0059981e-39 338 298
0.024518613 0.736 -0.07484629 9.0059981e-39 339 298
0.025809066 0.736 -0.07484629 9.0059981e-39 340 298
0.02709952 0.736 -0.07484629 9.0059981e-39 341 298
0.028389972 0.736 -0.07484629 9.1885901e-39 342 298
0.029680425 0.736 -0.07484629 9.1885901e-39 343 298
0.030970879 0.736 -0.07484629 8.9134451e-39 344 298
0.032261331 0.736 -0.07484629 8.9134451e-39 345 298
0.033551786 0.736 -0.07484629 9.0967602e-39 346 298
0.034842238 0.736 -0.07484629 9.0045646e-39 347 298
0.036230877 0.73799998 -0.075049676 9.0045646e-39 348 298
0.037423145 0.736 -0.07484629 9.0967602e-39 349 298
0.038713597 0.736 -0.07484629 9.1885901e-39 350 298
0.040004052 0.736 -0.07484629 9.1885901e-39 351 298
0.041294504 0.736 -0.07484629 9.0971133e-39 352 298
0.042584959 0.736 -0.07484629 9.0971133e-39 353 298
0.043875411 0.736 -0.07484629 9.004559e-39 354 298
0.045043133 0.73400003 -0.074642912 9.0971133e-39 355 298
0.046330083 0.73400003 -0.074642912 8.9134423e-39 356 298
0.047617026 0.73400003 -0.074642912 8.9134423e-39 357 298
0.048903972 0.73400003 -0.074642912 8.6386533e-39 358 298
0.050190922 0.73400003 -0.074642912 8.5464577e-39 359 298
0.051477864 0.73400003 -0.074642912 8.6386561e-39 360 298
0.052908584 0.736 -0.07484629 8.6386561e-39 361 298
0.05419904 0.736 -0.07484629 8.6383002e-39 362 298
0.055489492 0.736 -0.07484629 8.5461045e-39 363 298
0.056779943 0.736 -0.07484629 8.3635112e-39 364 298
0.058070395 0.736 -0.07484629 8.3635112e-39 365 298
0.059360851 0.736 -0.07484629 8.3631552e-39 366 298
0.060651302 0.736 -0.07484629 8.3631552e-39 367 298
0.061941758 0.736 -0.07484629 8.2713155e-39 368 298
0.063232213 0.736 -0.07484629 8.0872844e-39 369 298
0.064522661 0.736 -0.07484629 8.2705939e-39 370 298
0.065813117 0.736 -0.07484629 8.3627895e-39 371 298
0.067285918 0.73799998 -0.075049676 8.6386533e-39 372 298
0.06839402 0.736 -0.07484629 8.6386533e-39 373 298
0.069684476 0.736 -0.07484629 8.6379344e-39 374 298
0.070974931 0.736 -0.07484629 8.6379344e-39 375 298
0.072265387 0.736 -0.07484629 8.5461017e-39 376 298
0.073355958 0.73400003 -0.074642912 8.5461017e-39 377 298
0.074642912 0.73400003 -0.074642912 8.2727491e-39 378 298
0.07592985 0.73400003 -0.074642912 8.6411714e-39 379 298
0.077111594 0.73299998 -0.074541211 7.6334837e-39 380 298
0.07839679 0.73299998 -0.074541211 7.3572569e-39 381 298
0.079681985 0.73299998 -0.074541211 5.9800958e-39 382 298
0.081077635 0.73400003 -0.074642912 5.703509e-39 383 298
0.082364589 0.73400003 -0.074642912 6.8030448e-39 384 298
0.083537564 0.73299998 -0.074541211 6.9874375e-39 385 298
0.084822752 0.73299998 -0.074541211 6.7126428e-39 386 298
0.086107947 0.73299998 -0.074541211 6.8051972e-39 387 298
0.087393142 0.73299998 -0.074541211 7.0810554e-39 388 298
0.088436373 0.73100001 -0.074337825 7.4498365e-39 389 298
0.089595333 0.73000002 -0.074236132 6.9913793e-39 390 298
0.090875268 0.73000002 -0.074236132 6.0694244e-39 391 298
0.091902718 0.72799999 -0.074032739 5.7017335e-39 392 298
0.093179137 0.72799999 -0.074032739 5.7939291e-39 393 298
0.09445557 0.72799999 -0.074032739 5.064273e-39 394 298
0.095731996 0.72799999 -0.074032739 4.9720774e-39 395 298
0.096875168 0.727 -0.073931053 5.2472168e-39 396 298
0.097879834 0.72500002 -0.073727667 5.3397711e-39 397 298
0.098877482 0.72299999 -0.073524274 6.0730173e-39 398 298
0.10000663 0.722 -0.073422581 6.165213e-39 399 298
0.10127253 0.722 -0.073422581 6.5336256e-39 400 298
0.10253844 0.722 -0.073422581 6.6258212e-39 401 298
0.095465489 0.66399997 -0.067524366 7.543816e-39 402 298
0.097066283 0.667 -0.067829452 7.8200428e-39 403 298
0.098235756 0.667 -0.067829452 7.3626575e-39 404 298
0.099405229 0.667 -0.067829452 7.5470488e-39 405 298
0.1005747 0.667 -0.067829452 6.5400939e-39 406 298
0.10174417 0.667 -0.067829452 6.5400939e-39 407 298
0.10306793 0.66799998 -0.067931145 5.9890852e-39 408 298
0.10423917 0.66799998 -0.067931145 5.8968895e-39 409 298
0.1054104 0.66799998 -0.067931145 5.895456e-39 410 298
0.10690073 0.67000002 -0.068134531 5.6192293e-39 411 298
0.10807547 0.67000002 -0.068134531 4.7880435e-39 412 298
0.1092502 0.67000002 -0.068134531 5.1568246e-39 413 298
0.11042494 0.67000002 -0.068134531 6.9124988e-39 414 298
0.11176623 0.671 -0.068236224 8.3879876e-39 415 298
0.11294272 0.671 -0.068236224 9.9560336e-39 416 298
-0.053020798 0.67199999 -0.069516152 1.0877642e-38 275 299
-0.051842555 0.67199999 -0.069516152 1.0321928e-38 276 299
-0.050588924 0.671 -0.069412716 7.7404504e-39 277 299
-0.049412437 0.671 -0.069412716 5.9901544e-39 278 299
-0.048164066 0.67000002 -0.069309272 5.7135661e-39 279 299
-0.046989333 0.67000002 -0.069309272 6.6337273e-39 280 299
-0.045677837 0.66799998 -0.069102369 6.5415317e-39 281 299
-0.044439986 0.667 -0.068998925 6.5415289e-39 282 299
-0.04327051 0.667 -0.068998925 6.3574978e-39 283 299
-0.042101037 0.667 -0.068998925 6.6315609e-39 284 299
-0.040870197 0.66600001 -0.068895474 6.5393639e-39 285 299
-0.039702479 0.66600001 -0.068895474 6.4471654e-39 286 299
-0.03853476 0.66600001 -0.068895474 6.2631343e-39 287 299
-0.037254825 0.66399997 -0.068688579 6.9953016e-39 288 299
-0.036090612 0.66399997 -0.068688579 6.6268778e-39 289 299
-0.0349264 0.66399997 -0.068688579 7.6334865e-39 290 299
-0.033762183 0.66399997 -0.068688579 7.356901e-39 291 299
-0.035887226 0.73100001 -0.075619511 7.8139359e-39 292 299
-0.034463517 0.72799999 -0.075309172 7.8139359e-39 293 299
-0.033187091 0.72799999 -0.075309172 7.8135856e-39 294 299
-0.031910665 0.72799999 -0.075309172 7.9976167e-39 295 299
-0.030634239 0.72799999 -0.075309172 8.0898123e-39 296 299
-0.029357811 0.72799999 -0.075309172 8.2745623e-39 297 299
-0.028158534 0.73000002 -0.07551606 8.4582277e-39 298 299
-0.026878599 0.73000002 -0.07551606 8.1816422e-39 299 299
-0.025598666 0.73000002 -0.07551606 8.3645944e-39 300 299
-0.024352046 0.73100001 -0.075619511 8.179843e-39 301 299
-0.02307036 0.73100001 -0.075619511 8.455711e-39 302 299
-0.021848286 0.73299998 -0.075826399 8.6401022e-39 303 299
-0.020563092 0.73299998 -0.075826399 9.1032314e-39 304 299
-0.019277899 0.73299998 -0.075826399 1.085459e-38 305 299
-0.017992707 0.73299998 -0.075826399 1.0492254e-38 306 299
-0.016730307 0.73400003 -0.07592985 1.0400059e-38 307 299
-0.01544336 0.73400003 -0.07592985 1.0671233e-38 308 299
-0.014156413 0.73400003 -0.07592985 1.0025863e-38 309 299
-0.012869466 0.73400003 -0.07592985 9.7507084e-39 310 299
-0.011582521 0.73400003 -0.07592985 1.0949252e-38 311 299
-0.010295574 0.73400003 -0.07592985 1.1138675e-38 312 299
-0.0090331733 0.736 -0.076136746 1.1599653e-38 313 299
-0.0077427197 0.736 -0.076136746 1.2699186e-38 314 299
-0.0064522666 0.736 -0.076136746 9.6570904e-39 315 299
-0.005161813 0.736 -0.076136746 9.7428331e-39 316 299
-0.0038818798 0.73799998 -0.076343641 9.2818563e-39 317 299
-0.0025809065 0.736 -0.076136746 9.0059953e-39 318 299
-0.0012904532 0.736 -0.076136746 9.0059953e-39 319 299
0 0.736 -0.076136746 9.0059981e-39 320 299
0.0012869467 0.73400003 -0.07592985 9.0981937e-39 321 299
0.0025738934 0.73400003 -0.07592985 8.9134451e-39 322 299
0.0038608401 0.73400003 -0.07592985 8.9134451e-39 323 299
0.0051477868 0.73400003 -0.07592985 8.8208936e-39 324 299
0.006434733 0.73400003 -0.07592985 8.9134479e-39 325 299
0.0077216802 0.73400003 -0.07592985 8.7301329e-39 326 299
0.0090086265 0.73400003 -0.07592985 8.7301329e-39 327 299
0.010295574 0.73400003 -0.07592985 8.6386561e-39 328 299
0.011582521 0.73400003 -0.07592985 8.6386561e-39 329 299
0.012869466 0.73400003 -0.07592985 8.8212495e-39 330 299
0.014156413 0.73400003 -0.07592985 8.9134451e-39 331 299
0.015485439 0.736 -0.076136746 8.8212467e-39 332 299
0.016775893 0.736 -0.076136746 8.8212467e-39 333 299
0.018017253 0.73400003 -0.07592985 8.7301301e-39 334 299
0.019304199 0.73400003 -0.07592985 8.7301301e-39 335 299
0.020591147 0.73400003 -0.07592985 8.5475353e-39 336 299
0.021878093 0.73400003 -0.07592985 8.5475353e-39 337 299
0.023165042 0.73400003 -0.07592985 8.9145185e-39 338 299
0.024451986 0.73400003 -0.07592985 9.0067142e-39 339 299
0.025738932 0.73400003 -0.07592985 9.006717e-39 340 299
0.02709952 0.736 -0.076136746 8.7301301e-39 341 299
0.028389972 0.736 -0.076136746 8.9134479e-39 342 299
0.029680425 0.736 -0.076136746 8.8208936e-39 343 299
0.030970879 0.736 -0.076136746 8.8208964e-39 344 299
0.032261331 0.736 -0.076136746 8.8208964e-39 345 299
0.033551786 0.736 -0.076136746 8.8208964e-39 346 299
0.034842238 0.736 -0.076136746 8.913092e-39 347 299
0.036132693 0.736 -0.076136746 9.0045646e-39 348 299
0.037321456 0.73400003 -0.07592985 9.0045646e-39 349 299
0.038608398 0.73400003 -0.07592985 9.0967574e-39 350 299
0.039895348 0.73400003 -0.07592985 9.0967574e-39 351 299
0.041182294 0.73400003 -0.07592985 9.0971133e-39 352 299
0.042469237 0.73400003 -0.07592985 9.004559e-39 353 299
0.043756187 0.73400003 -0.07592985 8.9137983e-39 354 299
0.044981763 0.73299998 -0.075826399 9.0059953e-39 355 299
0.046266954 0.73299998 -0.075826399 8.9145185e-39 356 299
0.04755215 0.73299998 -0.075826399 8.730486e-39 357 299
0.048837345 0.73299998 -0.075826399 8.6386561e-39 358 299
0.050122537 0.73299998 -0.075826399 8.5461017e-39 359 299
0.051407732 0.73299998 -0.075826399 8.3627923e-39 360 299
0.052764814 0.73400003 -0.07592985 8.3627923e-39 361 299
0.054051761 0.73400003 -0.07592985 8.3627951e-39 362 299
0.055338707 0.73400003 -0.07592985 8.3627951e-39 363 299
0.056625653 0.73400003 -0.07592985 8.3624392e-39 364 299
0.057912603 0.73400003 -0.07592985 8.4546348e-39 365 299
0.059199546 0.73400003 -0.07592985 8.1801989e-39 366 299
0.060486492 0.73400003 -0.07592985 8.2723959e-39 367 299
0.061773442 0.73400003 -0.07592985 8.0890725e-39 368 299
0.063060381 0.73400003 -0.07592985 8.0890725e-39 369 299
0.064347334 0.73400003 -0.07592985 8.0890697e-39 370 299
0.06563428 0.73400003 -0.07592985 8.1812667e-39 371 299
0.067103572 0.736 -0.076136746 8.4564144e-39 372 299
0.06839402 0.736 -0.076136746 8.5486101e-39 373 299
0.069400437 0.73299998 -0.075826399 8.3638587e-39 374 299
0.070685625 0.73299998 -0.075826399 8.3638587e-39 375 299
0.071970828 0.73299998 -0.075826399 8.455341e-39 376 299
0.073256016 0.73299998 -0.075826399 8.3631454e-39 377 299
0.074541211 0.73299998 -0.075826399 8.638303e-39 378 299
0.075826399 0.73299998 -0.075826399 8.638303e-39 379 299
0.076901197 0.73100001 -0.075619511 7.7210354e-39 380 299
0.078182884 0.73100001 -0.075619511 7.5366442e-39 381 299
0.07946457 0.73100001 -0.075619511 5.8850486e-39 382 299
0.080967173 0.73299998 -0.075826399 5.7928529e-39 383 299
0.082252368 0.73299998 -0.075826399 5.426241e-39 384 299
0.083309628 0.73100001 -0.075619511 5.5184367e-39 385 299
0.084591322 0.73100001 -0.075619511 5.3361964e-39 386 299
0.085755527 0.73000002 -0.07551606 5.428392e-39 387 299
0.087035462 0.73000002 -0.07551606 5.9822693e-39 388 299
0.088073432 0.72799999 -0.075309172 6.4428887e-39 389 299
0.089349858 0.72799999 -0.075309172 6.626917e-39 390 299
0.090626292 0.72799999 -0.075309172 5.7971563e-39 391 299
0.091776483 0.727 -0.075205728 5.7035314e-39 392 299
0.09305115 0.727 -0.075205728 5.8879226e-39 393 299
0.094325826 0.727 -0.075205728 5.0646234e-39 394 299
0.095600501 0.727 -0.075205728 5.341569e-39 395 299
0.096875168 0.727 -0.075205728 5.9836888e-39 396 299
0.097879834 0.72500002 -0.074998833 5.9836888e-39 397 299
0.099151 0.72500002 -0.074998833 6.5339759e-39 398 299
0.10069919 0.727 -0.075205728 6.7183685e-39 399 299
0.093417592 0.66600001 -0.068895474 7.4526896e-39 400 299
0.094301268 0.66399997 -0.068688579 7.4526896e-39 401 299
0.095465489 0.66399997 -0.068688579 7.5456041e-39 402 299
0.096629702 0.66399997 -0.068688579 7.7299953e-39 403 299
0.097793914 0.66399997 -0.068688579 6.8137998e-39 404 299
0.098958127 0.66399997 -0.068688579 6.9063555e-39 405 299
0.10012234 0.66399997 -0.068688579 6.1731163e-39 406 299
0.10128655 0.66399997 -0.068688579 5.9890852e-39 407 299
0.10245077 0.66399997 -0.068688579 5.8043422e-39 408 299
0.10361498 0.66399997 -0.068688579 5.6195922e-39 409 299
0.10477919 0.66399997 -0.068688579 5.3430151e-39 410 299
0.10642207 0.667 -0.068998925 5.0660681e-39 411 299
0.10759154 0.667 -0.068998925 4.6983646e-39 412 299
0.10876101 0.667 -0.068998925 5.4359296e-39 413 299
0.11042494 0.67000002 -0.069309272 8.6634955e-39 414 299
0.11159967 0.67000002 -0.069309272 9.8620387e-39 415 299
-0.051765412 0.671 -0.0705892 1.0693248e-38 276 300
-0.050588924 0.671 -0.0705892 1.0047879e-38 277 300
-0.049338799 0.67000002 -0.070483997 8.7538779e-39 278 300
-0.048164066 0.67000002 -0.070483997 6.2645959e-39 279 300
-0.046849065 0.66799998 -0.070273593 5.1636433e-39 280 300
-0.045609459 0.667 -0.070168398 5.2558389e-39 281 300
-0.044439986 0.667 -0.070168398 6.6323022e-39 282 300
-0.043205637 0.66600001 -0.070063196 6.8170536e-39 283 300
-0.042037919 0.66600001 -0.070063196 6.5411814e-39 284 300
-0.040870197 0.66600001 -0.070063196 6.3567915e-39 285 300
-0.039702479 0.66600001 -0.070063196 6.1723974e-39 286 300
-0.038419038 0.66399997 -0.069852799 6.0802018e-39 287 300
-0.037254825 0.66399997 -0.069852799 6.6294085e-39 288 300
-0.036090612 0.66399997 -0.069852799 6.4453774e-39 289 300
-0.0349264 0.66399997 -0.069852799 7.3601436e-39 290 300
-0.033762183 0.66399997 -0.069852799 7.0835567e-39 291 300
-0.03259797 0.66399997 -0.069852799 7.5416664e-39 292 300
-0.031433757 0.66399997 -0.069852799 7.2647208e-39 293 300
-0.033187091 0.72799999 -0.076585598 7.8146576e-39 294 300
-0.03186683 0.727 -0.076480396 7.7224619e-39 295 300
-0.030592158 0.727 -0.076480396 8.2727589e-39 296 300
-0.029317487 0.727 -0.076480396 8.3653132e-39 297 300
-0.028042812 0.727 -0.076480396 8.4578718e-39 298 300
-0.026804959 0.72799999 -0.076585598 8.4578718e-39 299 300
-0.025528532 0.72799999 -0.076585598 8.3642384e-39 300 300
-0.024252106 0.72799999 -0.076585598 8.5482696e-39 301 300
-0.023038799 0.73000002 -0.076796003 8.4546348e-39 302 300
-0.021758866 0.73000002 -0.076796003 8.7312217e-39 303 300
-0.020478934 0.73000002 -0.076796003 9.1017824e-39 304 300
-0.019225299 0.73100001 -0.076901197 1.0115936e-38 305 300
-0.017943613 0.73100001 -0.076901197 1.0763068e-38 306 300
-0.016661927 0.73100001 -0.076901197 1.2237838e-38 307 300
-0.015422319 0.73299998 -0.077111594 1.09514e-38 308 300
-0.014137126 0.73299998 -0.077111594 1.0029085e-38 309 300
-0.012851933 0.73299998 -0.077111594 1.0211318e-38 310 300
-0.011566739 0.73299998 -0.077111594 1.0303512e-38 311 300
-0.010295574 0.73400003 -0.077216797 1.0762339e-38 312 300
-0.0090086265 0.73400003 -0.077216797 9.1950291e-39 313 300
-0.0077216802 0.73400003 -0.077216797 9.1882131e-39 314 300
-0.006434733 0.73400003 -0.077216797 8.727242e-39 315 300
-0.0051477868 0.73400003 -0.077216797 9.2818591e-39 316 300
-0.0038608401 0.73400003 -0.077216797 9.3740547e-39 317 300
-0.0025738934 0.73400003 -0.077216797 9.0059981e-39 318 300
-0.0012869467 0.73400003 -0.077216797 9.0059981e-39 319 300
0 0.73299998 -0.077111594 9.1893104e-39 320 300
0.0012851933 0.73299998 -0.077111594 9.1893104e-39 321 300
0.0025703865 0.73299998 -0.077111594 8.9141682e-39 322 300
0.0038555798 0.73299998 -0.077111594 8.7297769e-39 323 300
0.005140773 0.73299998 -0.077111594 8.8208964e-39 324 300
0.0064259665 0.73299998 -0.077111594 8.913092e-39 325 300
0.0077111595 0.73299998 -0.077111594 8.7305e-39 326 300
0.0089963535 0.73299998 -0.077111594 8.7305e-39 327 300
0.010281546 0.73299998 -0.077111594 8.7297769e-39 328 300
0.011566739 0.73299998 -0.077111594 8.7297769e-39 329 300
0.012851933 0.73299998 -0.077111594 9.0967574e-39 330 300
0.014137126 0.73299998 -0.077111594 9.0967574e-39 331 300
0.015422319 0.73299998 -0.077111594 8.8212495e-39 332 300
0.016707512 0.73299998 -0.077111594 8.8212495e-39 333 300
0.017992707 0.73299998 -0.077111594 8.6383002e-39 334 300
0.019277899 0.73299998 -0.077111594 8.6383002e-39 335 300
0.020563092 0.73299998 -0.077111594 8.6386533e-39 336 300
0.021878093 0.73400003 -0.077216797 8.7308503e-39 337 300
0.023165042 0.73400003 -0.077216797 8.9145185e-39 338 300
0.024451986 0.73400003 -0.077216797 9.0067142e-39 339 300
0.025738932 0.73400003 -0.077216797 8.9134423e-39 340 300
0.02702588 0.73400003 -0.077216797 8.9134423e-39 341 300
0.028312827 0.73400003 -0.077216797 8.8208936e-39 342 300
0.029599773 0.73400003 -0.077216797 8.8208936e-39 343 300
0.030886721 0.73400003 -0.077216797 9.0042086e-39 344 300
0.032173667 0.73400003 -0.077216797 9.0042086e-39 345 300
0.033460613 0.73400003 -0.077216797 8.8208936e-39 346 300
0.03474756 0.73400003 -0.077216797 8.8208936e-39 347 300
0.036034506 0.73400003 -0.077216797 9.0967602e-39 348 300
0.037270606 0.73299998 -0.077111594 9.0045646e-39 349 300
0.038555797 0.73299998 -0.077111594 9.0045646e-39 350 300
0.039840993 0.73299998 -0.077111594 9.0045646e-39 351 300
0.041126184 0.73299998 -0.077111594 8.9134479e-39 352 300
0.042295661 0.73100001 -0.076901197 8.8208936e-39 353 300
0.043577347 0.73100001 -0.076901197 8.9134479e-39 354 300
0.044859033 0.73100001 -0.076901197 8.9134479e-39 355 300
0.046140719 0.73100001 -0.076901197 8.7301301e-39 356 300
0.047422405 0.73100001 -0.076901197 8.7301301e-39 357 300
0.048704091 0.73100001 -0.076901197 8.5461017e-39 358 300
0.049985781 0.73100001 -0.076901197 8.5461017e-39 359 300
0.051267464 0.73100001 -0.076901197 8.3627951e-39 360 300
0.052692924 0.73299998 -0.077111594 8.2702407e-39 361 300
0.053978115 0.73299998 -0.077111594 8.2702463e-39 362 300
0.055263311 0.73299998 -0.077111594 8.362442e-39 363 300
0.056548502 0.73299998 -0.077111594 8.1798486e-39 364 300
0.057833698 0.73299998 -0.077111594 8.2720456e-39 365 300
0.059118889 0.73299998 -0.077111594 7.8150205e-39 366 300
0.060404085 0.73299998 -0.077111594 7.8150205e-39 367 300
0.061689276 0.73299998 -0.077111594 7.3576227e-39 368 300
0.062802643 0.73100001 -0.076901197 7.4498183e-39 369 300
0.064084329 0.73100001 -0.076901197 7.7260325e-39 370 300
0.065366022 0.73100001 -0.076901197 7.7260325e-39 371 300
0.066647708 0.73100001 -0.076901197 7.9104265e-39 372 300
0.067929395 0.73100001 -0.076901197 7.7260353e-39 373 300
0.069211073 0.73100001 -0.076901197 8.0008271e-39 374 300
0.070492767 0.73100001 -0.076901197 7.9082727e-39 375 300
0.071774453 0.73100001 -0.076901197 8.0908717e-39 376 300
0.073056139 0.73100001 -0.076901197 8.0908717e-39 377 300
0.074337825 0.73100001 -0.076901197 8.0898025e-39 378 300
0.075619511 0.73100001 -0.076901197 7.9972482e-39 379 300
0.076796003 0.73000002 -0.076796003 7.2614992e-39 380 300
0.078075938 0.73000002 -0.076796003 7.1693036e-39 381 300
0.079355866 0.73000002 -0.076796003 5.518787e-39 382 300
0.080635801 0.73000002 -0.076796003 5.518787e-39 383 300
0.081915736 0.73000002 -0.076796003 4.9692089e-39 384 300
0.082967728 0.72799999 -0.076585598 4.9692089e-39 385 300
0.084244154 0.72799999 -0.076585598 5.0606857e-39 386 300
0.085403107 0.727 -0.076480396 5.3369125e-39 387 300
0.086677782 0.727 -0.076480396 5.8886457e-39 388 300
0.087952457 0.727 -0.076480396 6.5340151e-39 389 300
0.089227132 0.727 -0.076480396 6.4428915e-39 390 300
0.090501808 0.727 -0.076480396 5.9819133e-39 391 300
0.091523997 0.72500002 -0.076269999 5.4262228e-39 392 300
0.092795171 0.72500002 -0.076269999 5.8871996e-39 393 300
0.093806833 0.72299999 -0.076059602 5.7064026e-39 394 300
0.095074497 0.72299999 -0.076059602 5.7985983e-39 395 300
0.096342154 0.72299999 -0.076059602 6.1677283e-39 396 300
0.097609811 0.72299999 -0.076059602 6.2602827e-39 397 300
0.098877482 0.72299999 -0.076059602 6.6276233e-39 398 300
0.091695823 0.662 -0.069642402 6.90385e-39 399 300
0.092856526 0.662 -0.069642402 7.2711878e-39 400 300
0.094159253 0.66299999 -0.069747597 7.3633848e-39 401 300
0.095321715 0.66299999 -0.069747597 7.088593e-39 402 300
0.096484177 0.66299999 -0.069747597 7.273343e-39 403 300
0.097646631 0.66299999 -0.069747597 6.4482613e-39 404 300
0.098809093 0.66299999 -0.069747597 6.4482613e-39 405 300
0.099971555 0.66299999 -0.069747597 5.8968923e-39 406 300
0.10113402 0.66299999 -0.069747597 5.8046953e-39 407 300
0.10229647 0.66299999 -0.069747597 5.8936652e-39 408 300
0.10361498 0.66399997 -0.069852799 5.6170769e-39 409 300
0.10477919 0.66399997 -0.069852799 4.6954933e-39 410 300
0.10626251 0.66600001 -0.070063196 5.1564715e-39 411 300
0.10743023 0.66600001 -0.070063196 6.7288334e-39 412 300
0.10876101 0.667 -0.070168398 8.0195723e-39 413 300
0.10993049 0.667 -0.070168398 9.5879756e-39 414 300
-0.050513536 0.67000002 -0.071658738 1.0603219e-38 277 301
-0.049338799 0.67000002 -0.071658738 1.004643e-38 278 301
-0.048164066 0.67000002 -0.071658738 7.9259305e-39 279 301
-0.046778932 0.667 -0.071337871 6.1716814e-39 280 301
-0.045609459 0.667 -0.071337871 5.4341149e-39 281 301
-0.04437336 0.66600001 -0.071230918 6.0802046e-39 282 301
-0.043205637 0.66600001 -0.071230918 6.5411814e-39 283 301
-0.042037919 0.66600001 -0.071230918 6.1752729e-39 284 301
-0.040747464 0.66399997 -0.071017005 6.1752729e-39 285 301
-0.039583251 0.66399997 -0.071017005 6.7241223e-39 286 301
-0.038419038 0.66399997 -0.071017005 6.4478955e-39 287 301
-0.037198719 0.66299999 -0.070910059 6.5382891e-39 288 301
-0.036036257 0.66299999 -0.070910059 6.4460934e-39 289 301
-0.034873798 0.66299999 -0.070910059 6.6290456e-39 290 301
-0.033660494 0.662 -0.070803106 6.4442956e-39 291 301
-0.032499783 0.662 -0.070803106 7.2679438e-39 292 301
-0.031339079 0.662 -0.070803106 7.2679438e-39 293 301
-0.030178372 0.662 -0.070803106 7.9079224e-39 294 301
-0.031779166 0.72500002 -0.077541165 7.6316956e-39 295 301
-0.030508002 0.72500002 -0.077541165 8.0894494e-39 296 301
-0.029236834 0.72500002 -0.077541165 8.181645e-39 297 301
-0.027965667 0.72500002 -0.077541165 8.181645e-39 298 301
-0.026768139 0.727 -0.077755071 8.4578718e-39 299 301
-0.025493465 0.727 -0.077755071 8.3653132e-39 300 301
-0.024252106 0.72799999 -0.077862024 8.1805632e-39 301 301
-0.022975679 0.72799999 -0.077862024 8.9159661e-39 302 301
-0.021699252 0.72799999 -0.077862024 9.7457267e-39 303 301
-0.020478934 0.73000002 -0.078075938 1.0391071e-38 304 301
-0.019199001 0.73000002 -0.078075938 1.0760214e-38 305 301
-0.017919067 0.73000002 -0.078075938 1.0578689e-38 306 301
-0.016639132 0.73000002 -0.078075938 1.0302104e-38 307 301
-0.0153592 0.73000002 -0.078075938 1.0303191e-38 308 301
-0.014098554 0.73100001 -0.078182884 9.6578219e-39 309 301
-0.012816866 0.73100001 -0.078182884 9.5638368e-39 310 301
-0.01153518 0.73100001 -0.078182884 9.2868912e-39 311 301
-0.010281546 0.73299998 -0.07839679 1.0019074e-38 312 301
-0.0089963535 0.73299998 -0.07839679 9.7421268e-39 313 301
-0.0077111595 0.73299998 -0.07839679 1.0568278e-38 314 301
-0.0064259665 0.73299998 -0.07839679 1.0844866e-38 315 301
-0.005140773 0.73299998 -0.07839679 1.0574003e-38 316 301
-0.00384506 0.73100001 -0.078182884 1.0113027e-38 317 301
-0.0025633732 0.73100001 -0.078182884 9.6506192e-39 318 301
-0.0012816866 0.73100001 -0.078182884 9.558425e-39 319 301
0 0.73100001 -0.078182884 9.7431834e-39 320 301
0.0012816866 0.73100001 -0.078182884 9.835379e-39 321 301
0.0025633732 0.73100001 -0.078182884 9.5598683e-39 322 301
0.00384506 0.73100001 -0.078182884 9.2832814e-39 323 301
0.0051267464 0.73100001 -0.078182884 9.3722555e-39 324 301
0.006408433 0.73100001 -0.078182884 9.3722555e-39 325 301
0.00769012 0.73100001 -0.078182884 8.913092e-39 326 301
0.0089718066 0.73100001 -0.078182884 9.005289e-39 327 301
0.010253493 0.73100001 -0.078182884 8.7297769e-39 328 301
0.01153518 0.73100001 -0.078182884 8.6375813e-39 329 301
0.012816866 0.73100001 -0.078182884 9.0045646e-39 330 301
0.014098554 0.73100001 -0.078182884 9.0045646e-39 331 301
0.01538024 0.73100001 -0.078182884 8.8212495e-39 332 301
0.016661927 0.73100001 -0.078182884 8.9134451e-39 333 301
0.017943613 0.73100001 -0.078182884 8.6386561e-39 334 301
0.019225299 0.73100001 -0.078182884 8.6386561e-39 335 301
0.020506985 0.73100001 -0.078182884 8.6383002e-39 336 301
0.021848286 0.73299998 -0.07839679 8.7304972e-39 337 301
0.023133477 0.73299998 -0.07839679 8.9141654e-39 338 301
0.024418673 0.73299998 -0.07839679 8.7301329e-39 339 301
0.025703866 0.73299998 -0.07839679 8.9134423e-39 340 301
0.026989058 0.73299998 -0.07839679 8.9134423e-39 341 301
0.028274251 0.73299998 -0.07839679 9.0967574e-39 342 301
0.029559445 0.73299998 -0.07839679 9.0045618e-39 343 301
0.030844638 0.73299998 -0.07839679 9.0960413e-39 344 301
0.032129832 0.73299998 -0.07839679 9.0960413e-39 345 301
0.033415023 0.73299998 -0.07839679 9.0045646e-39 346 301
0.034700219 0.73299998 -0.07839679 9.0045646e-39 347 301
0.035985414 0.73299998 -0.07839679 9.0045646e-39 348 301
0.037168913 0.73100001 -0.078182884 9.0045646e-39 349 301
0.038450599 0.73100001 -0.078182884 9.0042086e-39 350 301
0.039732285 0.73100001 -0.078182884 9.0042086e-39 351 301
0.041013971 0.73100001 -0.078182884 9.0956882e-39 352 301
0.042295661 0.73100001 -0.078182884 9.1878838e-39 353 301
0.043517731 0.73000002 -0.078075938 8.9134479e-39 354 301
0.044797666 0.73000002 -0.078075938 8.8208936e-39 355 301
0.046077598 0.73000002 -0.078075938 8.6379372e-39 356 301
0.047357533 0.73000002 -0.078075938 8.6379372e-39 357 301
0.048637468 0.73000002 -0.078075938 8.6379344e-39 358 301
0.0499174 0.73000002 -0.078075938 8.7301301e-39 359 301
0.051197331 0.73000002 -0.078075938 7.8128555e-39 360 301
0.052477267 0.73000002 -0.078075938 7.8128555e-39 361 301
0.053830836 0.73100001 -0.078182884 7.0785373e-39 362 301
0.055112526 0.73100001 -0.078182884 7.1707329e-39 363 301
0.056394216 0.73100001 -0.078182884 6.9881423e-39 364 301
0.057675898 0.73100001 -0.078182884 7.0803393e-39 365 301
0.058957584 0.73100001 -0.078182884 6.6240205e-39 366 301
0.060156867 0.73000002 -0.078075938 6.9009661e-39 367 301
0.061436798 0.73000002 -0.078075938 6.444999e-39 368 301
0.06271673 0.73000002 -0.078075938 6.5371947e-39 369 301
0.063996665 0.73000002 -0.078075938 6.8126899e-39 370 301
0.065097757 0.72799999 -0.077862024 6.9048856e-39 371 301
0.066374183 0.72799999 -0.077862024 7.2732995e-39 372 301
0.067650609 0.72799999 -0.077862024 7.0889111e-39 373 301
0.068927035 0.72799999 -0.077862024 7.1811053e-39 374 301
0.070203468 0.72799999 -0.077862024 6.9967169e-39 375 301
0.071479887 0.72799999 -0.077862024 7.0874818e-39 376 301
0.072756313 0.72799999 -0.077862024 6.9030891e-39 377 301
0.074032739 0.72799999 -0.077862024 7.3597737e-39 378 301
0.075309172 0.72799999 -0.077862024 7.0828281e-39 379 301
0.076585598 0.72799999 -0.077862024 6.8062636e-39 380 301
0.077862024 0.72799999 -0.077862024 6.4378398e-39 381 301
0.07913845 0.72799999 -0.077862024 5.8864807e-39 382 301
0.080414876 0.72799999 -0.077862024 5.8864807e-39 383 301
0.081579089 0.727 -0.077755071 5.3372628e-39 384 301
0.082853764 0.727 -0.077755071 5.3372628e-39 385 301
0.083897002 0.72500002 -0.077541165 5.6124105e-39 386 301
0.085168168 0.72500002 -0.077541165 5.7968032e-39 387 301
0.086439334 0.72500002 -0.077541165 6.1652256e-39 388 301
0.0877105 0.72500002 -0.077541165 6.5343682e-39 389 301
0.088981666 0.72500002 -0.077541165 6.9006298e-39 390 301
0.090252832 0.72500002 -0.077541165 6.2552604e-39 391 301
0.09127152 0.72299999 -0.077327259 6.4378566e-39 392 301
0.092539176 0.72299999 -0.077327259 6.2531052e-39 393 301
0.093677096 0.722 -0.077220306 5.7046076e-39 394 301
0.094943002 0.722 -0.077220306 5.8889988e-39 395 301
0.096208908 0.722 -0.077220306 6.349607e-39 396 301
0.097609811 0.72299999 -0.077327259 6.8105852e-39 397 301
0.098877482 0.72299999 -0.077327259 6.9953268e-39 398 301
0.091695823 0.662 -0.070803106 7.2715549e-39 399 301
0.092856526 0.662 -0.070803106 7.273343e-39 400 301
0.094017237 0.662 -0.070803106 7.273343e-39 401 301
0.095177941 0.662 -0.070803106 6.5400939e-39 402 301
0.096338652 0.662 -0.070803106 6.5400939e-39 403 301
0.097499363 0.662 -0.070803106 6.2645959e-39 404 301
0.098809093 0.66299999 -0.070910059 6.0802046e-39 405 301
0.099971555 0.66299999 -0.070910059 5.8951029e-39 406 301
0.10113402 0.66299999 -0.070910059 5.5266805e-39 407 301
0.10229647 0.66299999 -0.070910059 5.0653548e-39 408 301
0.10345893 0.66299999 -0.070910059 4.7884092e-39 409 301
0.1046214 0.66299999 -0.070910059 4.6072606e-39 410 301
0.1059434 0.66399997 -0.071017005 5.8979994e-39 411 301
0.10743023 0.66600001 -0.071230918 8.3854807e-39 412 301
0.10859796 0.66600001 -0.071230918 9.3999914e-39 413 301
-0.05594185 0.74199998 -0.080660343 1.0051494e-38 277 302
-0.054640878 0.74199998 -0.080660343 1.0601065e-38 278 302
-0.047948405 0.667 -0.072507344 9.7716648e-39 279 302
-0.046778932 0.667 -0.072507344 8.845726e-39 280 302
-0.045541082 0.66600001 -0.07239864 6.9096178e-39 281 302
-0.04437336 0.66600001 -0.07239864 4.7916294e-39 282 302
-0.043205637 0.66600001 -0.07239864 5.5291944e-39 283 302
-0.042037919 0.66600001 -0.07239864 6.5419114e-39 284 302
-0.040747464 0.66399997 -0.072181225 6.5419114e-39 285 302
-0.039583251 0.66399997 -0.072181225 6.3571474e-39 286 302
-0.038419038 0.66399997 -0.072181225 6.3571474e-39 287 302
-0.037198719 0.66299999 -0.072072513 6.1720345e-39 288 302
-0.036036257 0.66299999 -0.072072513 6.0798375e-39 289 302
-0.034821201 0.662 -0.071963809 6.2624309e-39 290 302
-0.033660494 0.662 -0.071963809 6.1702352e-39 291 302
-0.032450691 0.66100001 -0.071855105 6.8120047e-39 292 302
-0.031291738 0.66100001 -0.071855105 6.6279736e-39 293 302
-0.030132787 0.66100001 -0.071855105 7.4519721e-39 294 302
-0.031779166 0.72500002 -0.078812331 7.2672221e-39 295 302
-0.030423839 0.72299999 -0.078594916 7.999402e-39 296 302
-0.029156178 0.72299999 -0.078594916 7.9072063e-39 297 302
-0.02788852 0.72299999 -0.078594916 8.365679e-39 298 302
-0.026768139 0.727 -0.079029746 8.365679e-39 299 302
-0.025493465 0.727 -0.079029746 8.4582277e-39 300 302
-0.024218792 0.727 -0.079029746 8.1816422e-39 301 302
-0.022975679 0.72799999 -0.07913845 9.563834e-39 302 302
-0.021699252 0.72799999 -0.07913845 1.1130801e-38 303 302
-0.020422826 0.72799999 -0.07913845 1.0675188e-38 304 302
-0.0191464 0.72799999 -0.07913845 1.0398241e-38 305 302
-0.017869972 0.72799999 -0.07913845 1.0392853e-38 306 302
-0.016593546 0.72799999 -0.07913845 8.8255347e-39 307 302
-0.01531712 0.72799999 -0.07913845 9.7439261e-39 308 302
-0.014098554 0.73100001 -0.07946457 9.5595348e-39 309 302
-0.012799333 0.73000002 -0.079355866 9.373717e-39 310 302
-0.011519399 0.73000002 -0.079355866 9.2815214e-39 311 302
-0.010253493 0.73100001 -0.07946457 9.7417737e-39 312 302
-0.0089718066 0.73100001 -0.07946457 1.1032512e-38 313 302
-0.00769012 0.73100001 -0.07946457 1.2144217e-38 314 302
-0.006408433 0.73100001 -0.07946457 1.1959825e-38 315 302
-0.0051267464 0.73100001 -0.07946457 1.113329e-38 316 302
-0.0038397999 0.73000002 -0.079355866 9.7503552e-39 317 302
-0.0025598668 0.73000002 -0.079355866 9.5616676e-39 318 302
-0.0012799334 0.73000002 -0.079355866 9.7456987e-39 319 302
0 0.73000002 -0.079355866 9.9322452e-39 320 302
0.0012799334 0.73000002 -0.079355866 1.066981e-38 321 302
0.0025598668 0.73000002 -0.079355866 1.0120229e-38 322 302
0.0038397999 0.73000002 -0.079355866 9.2904687e-39 323 302
0.0051197335 0.73000002 -0.079355866 9.4662476e-39 324 302
0.0063996664 0.73000002 -0.079355866 9.1896593e-39 325 302
0.0076795998 0.73000002 -0.079355866 8.9134479e-39 326 302
0.0089595336 0.73000002 -0.079355866 8.9134479e-39 327 302
0.010239467 0.73000002 -0.079355866 9.0052918e-39 328 302
0.011519399 0.73000002 -0.079355866 9.0052918e-39 329 302
0.012816866 0.73100001 -0.07946457 8.913092e-39 330 302
0.014098554 0.73100001 -0.07946457 9.005289e-39 331 302
0.01538024 0.73100001 -0.07946457 8.9138123e-39 332 302
0.016661927 0.73100001 -0.07946457 8.7297797e-39 333 302
0.017943613 0.73100001 -0.07946457 8.6379471e-39 334 302
0.019199001 0.73000002 -0.079355866 8.6379471e-39 335 302
0.020478934 0.73000002 -0.079355866 8.7305028e-39 336 302
0.021758866 0.73000002 -0.079355866 8.7305028e-39 337 302
0.023038799 0.73000002 -0.079355866 8.9138123e-39 338 302
0.024318734 0.73000002 -0.079355866 8.9138123e-39 339 302
0.025633732 0.73100001 -0.07946457 9.005645e-39 340 302
0.026915418 0.73100001 -0.07946457 8.9134479e-39 341 302
0.028197108 0.73100001 -0.07946457 9.0967574e-39 342 302
0.029478792 0.73100001 -0.07946457 9.0967574e-39 343 302
0.03076048 0.73100001 -0.07946457 9.0045646e-39 344 302
0.032042164 0.73100001 -0.07946457 9.0045646e-39 345 302
0.033323854 0.73100001 -0.07946457 9.0045618e-39 346 302
0.034605537 0.73100001 -0.07946457 9.0045618e-39 347 302
0.035887226 0.73100001 -0.07946457 9.004559e-39 348 302
0.037118066 0.73000002 -0.079355866 9.004559e-39 349 302
0.038398001 0.73000002 -0.079355866 9.0960413e-39 350 302
0.039677933 0.73000002 -0.079355866 9.0960413e-39 351 302
0.040957868 0.73000002 -0.079355866 9.0964071e-39 352 302
0.0422378 0.73000002 -0.079355866 9.0964071e-39 353 302
0.043517731 0.73000002 -0.079355866 8.9130948e-39 354 302
0.044674929 0.72799999 -0.07913845 8.9130948e-39 355 302
0.045951359 0.72799999 -0.07913845 8.7297769e-39 356 302
0.047227785 0.72799999 -0.07913845 8.7297769e-39 357 302
0.048504211 0.72799999 -0.07913845 8.6386561e-39 358 302
0.049780637 0.72799999 -0.07913845 8.6386561e-39 359 302
0.051057063 0.72799999 -0.07913845 7.8132086e-39 360 302
0.052333489 0.72799999 -0.07913845 7.721013e-39 361 302
0.053609919 0.72799999 -0.07913845 6.8040986e-39 362 302
0.055037133 0.73000002 -0.079355866 6.8962942e-39 363 302
0.056317069 0.73000002 -0.079355866 6.3460043e-39 364 302
0.057597004 0.73000002 -0.079355866 6.4385587e-39 365 302
0.058715623 0.72799999 -0.07913845 5.707462e-39 366 302
0.059992049 0.72799999 -0.07913845 5.9836888e-39 367 302
0.061268479 0.72799999 -0.07913845 5.7114025e-39 368 302
0.062458992 0.727 -0.079029746 5.8957937e-39 369 302
0.06373366 0.727 -0.079029746 6.1720079e-39 370 302
0.064829499 0.72500002 -0.078812331 6.3563991e-39 371 302
0.066100664 0.72500002 -0.078812331 6.6326147e-39 372 302
0.067371838 0.72500002 -0.078812331 6.6326147e-39 373 302
0.068643004 0.72500002 -0.078812331 6.7251634e-39 374 302
0.069914162 0.72500002 -0.078812331 6.5407708e-39 375 302
0.071381703 0.727 -0.079029746 6.5396988e-39 376 302
0.072656378 0.727 -0.079029746 6.4475032e-39 377 302
0.073931053 0.727 -0.079029746 6.446434e-39 378 302
0.075205728 0.727 -0.079029746 6.3542383e-39 379 302
0.076585598 0.72799999 -0.07913845 6.1669884e-39 380 302
0.077755071 0.727 -0.079029746 5.8904029e-39 381 302
0.079029746 0.727 -0.079029746 5.7953571e-39 382 302
0.080304414 0.727 -0.079029746 5.7953571e-39 383 302
0.08135467 0.72500002 -0.078812331 5.3386991e-39 384 302
0.082625829 0.72500002 -0.078812331 5.6149259e-39 385 302
0.083897002 0.72500002 -0.078812331 5.5248812e-39 386 302
0.084933214 0.72299999 -0.078594916 5.5248812e-39 387 302
0.086200871 0.72299999 -0.078594916 5.891517e-39 388 302
0.087468542 0.72299999 -0.078594916 5.891517e-39 389 302
0.088736199 0.72299999 -0.078594916 6.440023e-39 390 302
0.090003856 0.72299999 -0.078594916 6.1634375e-39 391 302
0.091145277 0.722 -0.078486212 6.1619914e-39 392 302
0.092155196 0.72000003 -0.078268804 6.1619914e-39 393 302
0.0934176 0.72000003 -0.078268804 6.0701489e-39 394 302
0.094680004 0.72000003 -0.078268804 6.4385727e-39 395 302
0.096208908 0.722 -0.078486212 6.5322004e-39 396 302
0.097474813 0.722 -0.078486212 7.0853742e-39 397 302
0.090535119 0.662 -0.071963809 7.0878895e-39 398 302
0.091695823 0.662 -0.071963809 7.2726395e-39 399 302
0.092856526 0.662 -0.071963809 6.9074499e-39 400 302
0.094017237 0.662 -0.071963809 6.9074499e-39 401 302
0.095177941 0.662 -0.071963809 6.4479137e-39 402 302
0.096338652 0.662 -0.071963809 6.3557181e-39 403 302
0.097499363 0.662 -0.071963809 5.9876516e-39 404 302
0.098809093 0.66299999 -0.072072513 5.7114249e-39 405 302
