# .PCD v0.7 - Point Cloud Data file format
VERSION 0.7
FIELDS x y z
SIZE 4 4 4
TYPE F F F
COUNT 1 1 1
WIDTH 146
HEIGHT 1
VIEWPOINT 0 0 0 1 0 0 0
POINTS 146
DATA ascii
-0.006368611 -0.014663607 0.0095894244
0.0019462369 -0.012410617 0.0083547868
-0.014297914 -0.0043858811 0.0079961745
-0.0063292976 -0.0074083223 0.0072368514
0.005331683 -0.007106503 0.0071346825
0.014778924 -0.0043502967 0.0085721733
-0.020226695 0.0047377087 0.0094090626
-0.015419072 0.0047377087 0.0073009967
-0.009140227 0.0047377087 0.0061229523
0.0019462369 0.0075093247 0.0057004243
0.016119784 0.0047377087 0.0077203833
0.021347549 0.0061235167 0.0094027929
-0.014802597 0.015126383 0.0080531519
-0.007754419 0.017370813 0.0070391204
0.0047178529 0.018595789 0.0068482077
0.015285263 0.015348319 0.0078074923
0.021347549 0.011666749 0.0092265019
-0.014683463 0.021367408 0.0099549145
-0.005444739 0.02324984 0.0082581593
0.0047178529 0.022898704 0.0077939755
0.013032701 0.024139024 0.0089730695
-0.012133057 -0.020311933 0.018292954
-0.0049390118 -0.021404143 0.0166141
0.0050489786 -0.020846589 0.016745124
0.010261085 -0.020206839 0.019874522
-0.021233177 -0.012799795 0.016928403
-0.015534864 -0.01638357 0.015076288
-0.004982803 -0.01936934 0.013032686
0.0062611564 -0.017988153 0.013012631
0.014440226 -0.014930969 0.015210394
0.020975813 -0.011448714 0.018575918
-0.024199251 -0.005315478 0.015394909
0.017700432 -0.007569781 0.011143959
0.02350664 -0.0043077855 0.015252151
-0.025831308 0.0049493718 0.015690316
0.026128288 0.0045225145 0.014322495
-0.023000535 0.014707962 0.015287411
-0.017876983 0.017912069 0.010256587
0.02714945 0.01446092 0.014743011
0.030083735 0.011666749 0.018575918
-0.02051685 0.022244338 0.017350756
-0.015742786 0.025855293 0.015009059
-0.0074848472 0.02968226 0.012116648
0.0047178529 0.02968226 0.010149826
0.017248921 0.028419638 0.012305118
0.024319498 0.025378551 0.015869491
-0.011571396 0.031525217 0.017652046
-0.0051422738 0.033924602 0.015877433
0.0047178529 0.035696581 0.015459209
0.014330642 0.033717632 0.016202742
0.021347549 0.031187389 0.018575918
-0.01369183 -0.021074867 0.025936985
-0.0057389163 -0.023497051 0.025068916
0.0051162615 -0.023142077 0.025468457
0.011824721 -0.020651322 0.026130911
-0.022951113 -0.013936264 0.025920698
-0.017796803 -0.018466741 0.024465606
0.016975557 -0.016828075 0.024554623
0.021523131 -0.012528283 0.025433648
-0.027569346 -0.0047512287 0.02528898
0.026230199 -0.0057377391 0.025227791
-0.028617987 0.0053065023 0.025506329
0.029603845 0.001748746 0.024477787
0.030907189 0.0052920319 0.026059285
-0.026253168 0.014842567 0.025420848
0.031426065 0.014438362 0.025504958
-0.022078145 0.023167409 0.025356868
-0.017690547 0.02844396 0.025504962
0.027671579 0.025663329 0.024805758
0.030048303 0.021367408 0.028276578
-0.013154302 0.032365791 0.025144894
-0.0052964808 0.036777765 0.025699601
0.0047117141 0.038725175 0.024119023
0.014914465 0.036948889 0.02548456
0.022521818 0.032256722 0.025203861
-0.013147169 -0.020848315 0.03500811
-0.0050650467 -0.023296092 0.035925571
0.0051023685 -0.022378596 0.035559073
0.011551297 -0.020413736 0.033705194
-0.022346418 -0.013576321 0.035432082
-0.017475329 -0.017911801 0.035847932
0.0163204 -0.016974367 0.035967864
0.021408472 -0.01247635 0.035089381
-0.027221231 -0.0051581901 0.035531174
0.025827132 -0.0055225636 0.035415404
-0.028622786 0.0051958757 0.035290331
0.029549919 0.0028201863 0.036243461
0.030838747 0.0056615807 0.034281746
-0.026011806 0.01460989 0.035398636
0.029662404 0.018595789 0.039480358
0.031463411 0.014438363 0.035205614
-0.021830313 0.023023818 0.035490502
-0.017193841 0.028319841 0.035850119
0.027431112 0.025654256 0.035712093
0.03011515 0.021367408 0.03381981
-0.013005166 0.032202631 0.035402447
-0.0052916957 0.036579993 0.035146292
0.0050241309 0.038459975 0.036200386
0.014902296 0.036780652 0.03535891
0.022509089 0.032250121 0.035542484
-0.0050558709 -0.020593699 0.042105809
0.003577891 -0.020315275 0.040945388
-0.021074535 -0.011767226 0.041726783
-0.014899212 -0.014849654 0.044002082
-0.0052319542 -0.015360855 0.047297657
0.0046873023 -0.015458613 0.046719961
0.014031442 -0.01438183 0.043686233
-0.023094501 -0.004209368 0.044806644
-0.016072948 -0.0079624439 0.048760183
0.0074894689 -0.0091203749 0.049997818
0.015956789 -0.0062809209 0.047972593
0.023380179 -0.003900768 0.043364123
-0.024269391 0.0051007536 0.044644259
-0.019758228 0.0047377087 0.049063705
0.025688667 0.0046571083 0.045356415
-0.022563346 0.014394733 0.043847091
-0.017020509 0.015977383 0.048667204
0.026512468 0.014547051 0.045541491
0.030299518 0.014438365 0.04074885
-0.020490821 0.021455394 0.041862056
-0.014509106 0.024841869 0.044573549
-0.0066185319 0.027741695 0.048233662
0.015725937 0.027600007 0.048275135
0.02393399 0.024789218 0.044327702
-0.011911845 0.030291419 0.04074885
-0.0043437392 0.033329953 0.0436133
0.0047178534 0.034595221 0.045623977
0.013950335 0.033481069 0.043764461
0.021347549 0.031521048 0.04074885
-0.01403944 -0.0029156727 0.051432222
-0.0050064302 -0.0050454508 0.053293534
0.0047537768 -0.0045316936 0.053454626
0.012072951 -0.0026047977 0.051768649
-0.014363805 0.0049356809 0.052563835
-0.004952128 0.0041799233 0.056712855
0.0049897325 0.0042052818 0.057189781
0.014426147 0.0046142475 0.05308361
0.021347549 0.0075093247 0.050090902
-0.013181331 0.01353604 0.051974267
-0.0051460974 0.014627794 0.055517543
0.0048386436 0.01411496 0.057083286
0.014781289 0.014698172 0.053563889
0.021347549 0.013052557 0.050495185
-0.0037516467 0.023200998 0.051961578
0.0047178534 0.024952564 0.052666832
0.013371386 0.023081936 0.051768314
