# .PCD v0.7 - Point Cloud Data file format
VERSION 0.7
FIELDS x y z
SIZE 4 4 4
TYPE F F F
COUNT 1 1 1
WIDTH 1451
HEIGHT 1
VIEWPOINT 0 0 0 1 0 0 0
POINTS 1451
DATA ascii
1.2137502 0.030680887 -0.65638864
1.2411964 0.018876262 -0.65570903
1.2338533 0.01496128 -0.66010678
1.2147117 0.019362785 -0.65602326
1.2476712 0.01037363 -0.65400767
1.2424771 0.0074300766 -0.65542626
1.2368435 0.0092894435 -0.65459371
1.2224613 0.009760581 -0.65466589
1.2505095 -0.00024312735 -0.65668577
1.2410702 0.00013700128 -0.65473831
1.2262714 0.0012239814 -0.64941573
1.2201627 0.0018094331 -0.65318841
1.2610836 -0.01081647 -0.65164101
1.2548889 -0.0098636448 -0.65390438
1.2510502 -0.010629512 -0.6546185
1.2295606 -0.010699242 -0.65105146
1.2157842 -0.0081869215 -0.64830285
1.259987 -0.015696861 -0.64854014
1.2339902 -0.016778409 -0.64889252
1.2072892 0.087525643 -0.67393732
1.1989419 0.090031043 -0.67183077
1.1938323 0.088198125 -0.6707437
1.2223709 0.077614933 -0.6714887
1.2131506 0.078673482 -0.67427552
1.2057405 0.082421452 -0.67339694
1.2045447 0.078723848 -0.67568111
1.1940721 0.082201637 -0.67540491
1.1735575 0.081831925 -0.67321551
1.1709396 0.082846344 -0.67347795
1.2094444 0.072032899 -0.67275494
1.2024088 0.073004238 -0.67147154
1.1906518 0.074442342 -0.67469341
1.1838651 0.076236218 -0.67601234
1.2313128 0.065942906 -0.67023265
1.2218783 0.059820354 -0.67444074
1.2049876 0.067319199 -0.67481661
1.1883254 0.059736975 -0.66879833
1.1805189 0.062769286 -0.6708172
1.2331822 0.054393746 -0.67107213
1.2316333 0.057816744 -0.67141628
1.2136339 0.057278216 -0.6713472
1.2095788 0.053703159 -0.6729095
1.1782417 0.055518188 -0.67005461
1.2356166 0.041185267 -0.67080557
1.2291553 0.044681162 -0.67047489
1.2040814 0.047559358 -0.66837472
1.2572118 0.034310259 -0.66665101
1.2456397 0.03795711 -0.67102987
1.2400938 0.033558808 -0.67197102
1.2362843 0.032524414 -0.66776317
1.2277489 0.03517358 -0.67230546
1.2218797 0.036572285 -0.66745484
1.2150133 0.03795135 -0.67125547
1.2252784 0.027448297 -0.66575783
1.2484311 0.014943011 -0.66783631
1.2289677 0.020621359 -0.663975
1.2155162 0.014587 -0.65998441
1.235792 0.0066330805 -0.66450608
1.2286513 0.010843009 -0.66376209
1.2129883 0.0049671978 -0.66489154
1.2561228 -0.0019052401 -0.66673982
1.2439798 -0.0060452744 -0.66058069
1.2673597 -0.010658257 -0.66465038
1.2552828 -0.011765055 -0.66286623
1.2431238 -0.011224337 -0.66131669
1.2535269 -0.015760548 -0.65704316
1.2225233 0.090084627 -0.68825001
1.2156005 0.09285602 -0.68595499
1.2017739 0.091523983 -0.68725085
1.1802652 0.086315595 -0.68496907
1.2267458 0.082047783 -0.68851006
1.2095903 0.081379302 -0.68719608
1.2005568 0.078321368 -0.68441767
1.188394 0.079870224 -0.68233573
1.1743107 0.082902759 -0.67918652
1.2340649 0.058892787 -0.68304408
1.2136976 0.060680285 -0.6768167
1.2026169 0.065304756 -0.67672676
1.1939993 0.060023487 -0.6800521
1.1855177 0.06366726 -0.68456769
1.1829648 0.065662622 -0.68074709
1.2255027 0.04918129 -0.67476082
1.2161729 0.051466763 -0.67915893
1.2112585 0.048176244 -0.67808437
1.1997277 0.056502208 -0.67641169
1.2185171 0.042239927 -0.68048251
1.2032201 0.042626895 -0.67681521
1.187842 0.048410177 -0.67610925
1.2708988 0.033050872 -0.6806004
1.2427903 0.036915034 -0.67373532
1.2348691 0.029547177 -0.6751703
1.2198281 0.034658015 -0.6786474
1.196456 0.030823037 -0.67746848
1.2393473 0.024632044 -0.67416418
1.2337623 0.028449066 -0.68034625
1.2132794 0.026918247 -0.67584032
1.2538935 0.017219052 -0.67275155
1.2509078 0.014523029 -0.67343253
1.2442367 0.013378426 -0.67173374
1.2350545 0.017400496 -0.67532915
1.2319059 0.01625742 -0.67225409
1.2599159 0.0065152869 -0.67139536
1.2482786 0.0047353655 -0.6744042
1.2189714 0.0096772909 -0.67027479
1.262616 -0.0044028014 -0.67477238
1.2568681 -0.0064210072 -0.67190057
1.2424442 -0.00489562 -0.67401844
1.2350497 -0.0054051429 -0.67376381
1.2215067 -0.0041003674 -0.66987312
1.2131623 -0.0023147315 -0.67130309
1.2094526 -0.0096721426 -0.6746456
1.210429 0.084725738 -0.69639128
1.1928488 0.088574603 -0.69358236
1.1895909 0.089784861 -0.69646025
1.1834747 0.086540237 -0.69125885
1.2207834 0.080324598 -0.68988842
1.2128154 0.083225258 -0.69230264
1.2097123 0.076056786 -0.68850291
1.2016363 0.080436423 -0.69330323
1.1973814 0.07564719 -0.68757331
1.2212963 0.065277889 -0.69523084
1.2148781 0.070591353 -0.69311756
1.2106675 0.070855461 -0.69067061
1.2012792 0.071852379 -0.69505513
1.1921955 0.069326468 -0.69290709
1.1887066 0.069250084 -0.68636876
1.2360466 0.061869271 -0.69073808
1.2292769 0.059833758 -0.69053781
1.2175859 0.059871674 -0.69154125
1.2082299 0.062976815 -0.68576896
1.2045228 0.058824845 -0.68721974
1.2356186 0.049568243 -0.68734413
1.2259319 0.054172054 -0.69330394
1.2211082 0.051618859 -0.688483
1.2161698 0.050344974 -0.6889993
1.1973022 0.051929504 -0.68776625
1.2465202 0.042080037 -0.69088465
1.2430328 0.039938152 -0.68829101
1.2175057 0.042492904 -0.69218546
1.249189 0.033729829 -0.68861884
1.2435198 0.032755621 -0.68686807
1.237434 0.03739325 -0.68357396
1.2230366 0.031840429 -0.68249756
1.205985 0.034367874 -0.68920994
1.2544504 0.023042098 -0.68977278
1.231981 0.022174425 -0.68485266
1.1986345 0.025640771 -0.68883759
1.2710779 0.016245805 -0.68457818
1.2648872 0.015491746 -0.68569154
1.2418851 0.012357682 -0.68168545
1.2308983 0.013784327 -0.68244892
1.2074956 0.012679383 -0.68217605
1.2579446 0.0052122623 -0.68539637
1.2395693 0.0045050234 -0.68446964
1.2278045 0.0010187104 -0.68172055
1.295083 -0.0030637383 -0.68292201
1.2801871 -0.0054919049 -0.68205613
1.2447914 -0.003032811 -0.6811316
1.2141364 -0.0051503628 -0.68019789
1.2098044 -0.0025631934 -0.68372405
1.2672312 -0.010039717 -0.67753184
1.2136486 0.098171897 -0.70322853
1.2081314 0.095920376 -0.70589536
1.1994666 0.094224595 -0.70172554
1.2270317 0.085456416 -0.70707446
1.2151016 0.086046442 -0.70456415
1.2010002 0.083818257 -0.69991052
1.1679041 0.08608 -0.70381224
1.2076862 0.079511918 -0.7040906
1.2086142 0.068611264 -0.70136315
1.1954082 0.065586142 -0.69855618
1.1893663 0.065500796 -0.69812477
1.2395024 0.061358705 -0.69942808
1.2306468 0.054192752 -0.7035166
1.2102891 0.060823999 -0.69780743
1.2012808 0.062621243 -0.70272106
1.1951048 0.06380143 -0.69769847
1.2218608 0.052056342 -0.69693464
1.215003 0.051154353 -0.69952661
1.1985133 0.047652356 -0.6999498
1.2749034 0.037463851 -0.69979072
1.2480429 0.041951701 -0.69853294
1.2210301 0.039835878 -0.70008832
1.2185673 0.037680976 -0.69801176
1.2671854 0.031255335 -0.70029986
1.2281729 0.035107762 -0.69459456
1.2100961 0.034118526 -0.69622964
1.2754377 0.020113744 -0.69846541
1.2566153 0.021610782 -0.69211411
1.2499886 0.023994192 -0.69267106
1.2363501 0.02113419 -0.69614917
1.2269307 0.024032339 -0.6940614
1.302718 0.014301032 -0.69698751
1.2940829 0.014498174 -0.69695181
1.2603554 0.011626147 -0.69038469
1.2566234 0.013070971 -0.69048399
1.244325 0.0084180757 -0.69435
1.2192061 0.016133085 -0.69795293
1.2175037 0.016755469 -0.68902934
1.2668918 0.0007994473 -0.69335902
1.2590597 -0.0018035993 -0.69299906
1.2459745 0.0015138239 -0.69521523
1.2364963 0.0052881464 -0.69596899
1.2065185 0.0032341629 -0.68937975
1.3193648 -0.0084672123 -0.6944561
1.2830859 -0.0041063055 -0.68949354
1.270205 -0.0087831393 -0.69093752
1.2588148 -0.001231797 -0.68797481
1.223806 -0.0015531778 -0.6921128
1.2062604 -0.0021431297 -0.6952036
1.2084279 0.09679316 -0.71308464
1.2018026 0.093815178 -0.71540368
1.1894182 0.095543727 -0.7136513
1.2235423 0.083991915 -0.70831889
1.214998 0.089178376 -0.71360213
1.2091848 0.084881358 -0.71186858
1.2032269 0.082826748 -0.70994413
1.1945087 0.085662954 -0.70954901
1.1768138 0.089859702 -0.71639186
1.2158663 0.076127157 -0.70959103
1.2000062 0.078296579 -0.71309721
1.1892304 0.076066189 -0.71273375
1.2360314 0.065220527 -0.71034074
1.2261637 0.069653995 -0.71336031
1.2212027 0.068993621 -0.71077114
1.2174826 0.065731049 -0.71169639
1.2035363 0.067943074 -0.71152031
1.1925809 0.069543704 -0.71443498
1.242082 0.05445534 -0.70421332
1.2293372 0.057570502 -0.71157265
1.2162229 0.058968142 -0.71108019
1.2489485 0.045891926 -0.71231478
1.2443402 0.046550862 -0.70949864
1.2260654 0.046697453 -0.70621741
1.2668188 0.042340338 -0.70472026
1.2548227 0.04031498 -0.70348346
1.2400132 0.041981392 -0.70504028
1.2218193 0.037714742 -0.70643216
1.2438818 0.0252904 -0.70904064
1.2355558 0.028269082 -0.70820081
1.2078109 0.029533587 -0.70179385
1.2922488 0.018402435 -0.70346648
1.264581 0.021110713 -0.70573753
1.2293952 0.020068645 -0.70153058
1.2244185 0.020112835 -0.7024852
1.2027389 0.020132944 -0.69878221
1.2172579 0.011139236 -0.70366031
1.3107647 -0.0014035031 -0.69845498
1.2859724 -0.00059276819 -0.70028764
1.2628177 0.003459461 -0.69723868
1.2525959 0.00059705973 -0.69811189
1.2458436 0.0028958097 -0.69827169
1.2300534 0.0029766262 -0.69942772
1.2149446 0.0027183443 -0.69862586
1.250904 -0.0049108863 -0.69839972
1.2233747 0.099988684 -0.7250486
1.1965374 0.0996494 -0.72714186
1.226694 0.090043046 -0.72523969
1.2206125 0.090713583 -0.72193223
1.2020079 0.094002359 -0.72247607
1.1855488 0.094165891 -0.72282171
1.1686761 0.096008413 -0.71849853
1.2274184 0.088263258 -0.72689337
1.222924 0.082825795 -0.72311282
1.2151055 0.087981135 -0.72685295
1.2099311 0.084633693 -0.72424239
1.2033802 0.081325322 -0.71696973
1.2302989 0.071391039 -0.72386611
1.2106564 0.076654173 -0.71722704
1.1957397 0.079322718 -0.71731949
1.1857638 0.072443731 -0.71830666
1.2516614 0.068106048 -0.7248559
1.238192 0.066756152 -0.72325522
1.2314663 0.066178471 -0.72142005
1.2256831 0.062487476 -0.72273713
1.185636 0.068381883 -0.71961004
1.2096398 0.059934959 -0.71524876
1.2619629 0.044874631 -0.71956128
1.2364458 0.047734082 -0.71952921
1.217132 0.044461101 -0.71630263
1.2076215 0.051516287 -0.71280986
1.241588 0.038154818 -0.71313328
1.2357339 0.039607666 -0.71254998
1.228248 0.041353479 -0.71265799
1.2250427 0.041457579 -0.7126931
1.2169871 0.033426397 -0.71475005
1.2616029 0.026094824 -0.7106908
1.2258759 0.027185708 -0.7179392
1.2865492 0.022283517 -0.71572489
1.2510153 0.020061292 -0.71498734
1.2340171 0.023683645 -0.71431267
1.2275729 0.017470002 -0.71354902
1.2611116 0.0098928958 -0.71144712
1.2532318 0.0064734295 -0.7110728
1.245188 0.0095575899 -0.71021742
1.2341458 0.0064710528 -0.70711589
1.2302797 0.0091223344 -0.71525759
1.2211486 0.0057736859 -0.71212745
1.2862427 0.00049560517 -0.70927089
1.2793262 -0.001013495 -0.70694649
1.2641424 0.0045410916 -0.71327865
1.2264754 0.10464483 -0.73592812
1.2207566 0.10546662 -0.73884696
1.2054799 0.10002939 -0.7312184
1.2306927 0.089659996 -0.73391336
1.221391 0.093591996 -0.72997308
1.2164388 0.093486533 -0.73404211
1.2108835 0.093557015 -0.73448944
1.1857235 0.093639389 -0.72897154
1.2176099 0.08335714 -0.7295416
1.2079966 0.086674921 -0.72711009
1.2026019 0.083956845 -0.73064083
1.2119678 0.072084695 -0.72534227
1.1770943 0.075458162 -0.73187572
1.2339042 0.062498406 -0.7269063
1.2289639 0.062926352 -0.73130983
1.2181988 0.064897791 -0.72495931
1.275059 0.053312197 -0.72927201
1.2401097 0.05176495 -0.72584236
1.2389331 0.056000732 -0.73117572
1.2510241 0.041900322 -0.7255643
1.2418072 0.048703849 -0.72265995
1.2345715 0.045002438 -0.72443455
1.2586738 0.039613783 -0.72338867
1.244181 0.03250584 -0.72234023
1.2261636 0.037319221 -0.72770631
1.2869853 0.02859211 -0.72689629
1.2605221 0.023834839 -0.72751129
1.2510825 0.030211501 -0.7247752
1.2357255 0.030628324 -0.72833788
1.2258492 0.028514221 -0.72179943
1.2843107 0.015969448 -0.71973264
1.2538798 0.013827004 -0.72446585
1.2474797 0.0054219738 -0.72474134
1.2307472 0.0093444884 -0.72395492
1.2251329 0.0053479224 -0.72006565
1.2134855 0.0098052397 -0.71706921
1.2031288 0.005271025 -0.71545041
1.2576754 -0.0020693019 -0.71685487
1.2279242 0.095550261 -0.74679333
1.2238004 0.10494073 -0.74344778
1.2155145 0.10021154 -0.74627662
1.2118098 0.096880578 -0.74638414
1.1946334 0.097419053 -0.74155122
1.2308652 0.089547805 -0.74335164
1.2233987 0.091965295 -0.73925918
1.2181382 0.088789143 -0.74159926
1.2082462 0.088023707 -0.74106431
1.2143912 0.086261265 -0.74030179
1.2075584 0.083341129 -0.73687851
1.1920743 0.078365609 -0.7350682
1.182235 0.079280496 -0.7381826
1.2397552 0.071761094 -0.73607546
1.2159846 0.076955311 -0.73664045
1.2065634 0.07429184 -0.73771185
1.182416 0.072152592 -0.73500639
1.2367027 0.066311911 -0.73897648
1.2296995 0.058299601 -0.74136853
1.2489525 0.053587019 -0.73827326
1.2366933 0.051298119 -0.73695451
1.2255815 0.057260215 -0.73821056
1.2039088 0.05860088 -0.73300266
1.2604605 0.04564584 -0.73799539
1.2441005 0.048547268 -0.73617607
1.2714114 0.038298815 -0.73890293
1.2532145 0.030825265 -0.73796767
1.2455751 0.034070902 -0.73873651
1.2313254 0.030767508 -0.73400676
1.3064553 0.024259508 -0.73710406
1.282196 0.012968622 -0.73598784
1.2403458 0.012915291 -0.7357825
1.2233349 0.01324784 -0.72746789
1.2623659 0.0071648881 -0.73046362
1.2098014 0.003849037 -0.73372358
1.1878146 0.0036156029 -0.72819883
1.2392679 0.10765833 -0.75842023
1.2465221 0.09727934 -0.75143296
1.2251986 0.097539082 -0.75184143
1.2041872 0.10046475 -0.75714892
1.233896 0.091025755 -0.75445557
1.2180356 0.088309176 -0.74794084
1.2084062 0.095142961 -0.74817991
1.1968964 0.088918142 -0.74797225
1.2208133 0.08129666 -0.75462592
1.2174225 0.07708893 -0.75069618
1.2068759 0.08056888 -0.74901527
1.1911448 0.083060183 -0.75076222
1.1805563 0.081939466 -0.74828082
1.2409996 0.072751433 -0.74671209
1.2377725 0.075806402 -0.74815416
1.2122709 0.071677625 -0.75243384
1.203163 0.07401976 -0.74769825
1.2678151 0.054893985 -0.75000513
1.2536293 0.052092128 -0.74791759
1.2830713 0.046021216 -0.74280518
1.2372428 0.040655717 -0.7421332
1.2753645 0.037604578 -0.7434963
1.2554246 0.037513502 -0.7491352
1.2700289 0.02760835 -0.7400353
1.2225708 0.022530541 -0.73719305
1.3106062 0.012744747 -0.73804235
1.2625279 0.015466005 -0.73924339
1.2440053 0.012838952 -0.74492759
1.2356961 0.016706526 -0.74020064
1.2132726 0.019034393 -0.73836744
1.178865 0.0062317848 -0.74053246
1.2310485 0.10227467 -0.765944
1.2120075 0.10544707 -0.76391393
1.2351707 0.096805975 -0.76404238
1.2299322 0.10042415 -0.76571351
1.2242588 0.096720524 -0.76242447
1.206771 0.097537175 -0.75803554
1.2023027 0.094644941 -0.7590878
1.233458 0.090896726 -0.76294839
1.2265619 0.083698198 -0.76405531
1.2119026 0.092705965 -0.75926352
1.2061841 0.090905793 -0.76237857
1.1924173 0.092854805 -0.76346922
1.1776769 0.085187405 -0.75582153
1.2557428 0.078012928 -0.76331401
1.2361006 0.078132592 -0.76316237
1.233122 0.079438828 -0.75803566
1.2205399 0.0757991 -0.76116109
1.2155102 0.080569662 -0.76013333
1.211208 0.080709584 -0.75783288
1.2475599 0.070307709 -0.75580788
1.2631582 0.055636987 -0.75965911
1.2366564 0.060207859 -0.75507909
1.2628132 0.034396075 -0.74979514
1.2677639 0.023285411 -0.74853384
1.2645432 0.020053901 -0.7509895
1.2430341 0.020133048 -0.74826521
1.2317472 0.026423365 -0.75014919
1.3028659 0.0093977153 -0.7470063
1.2925564 0.0096994266 -0.74882567
1.274186 0.014384195 -0.74672693
1.2664932 0.012969039 -0.74978924
1.2060311 0.011343449 -0.75391901
1.270811 0.0078627989 -0.75113851
1.2550315 0.11041118 -0.77361733
1.2077332 0.10727423 -0.77627492
1.2018119 0.10219661 -0.76918566
1.2327875 0.095709652 -0.77221149
1.216426 0.097603813 -0.7686134
1.2124046 0.09681502 -0.77380127
1.2014511 0.096440539 -0.77536988
1.1914091 0.087400496 -0.7708506
1.1835139 0.086250782 -0.76680928
1.2453265 0.07928063 -0.7693913
1.2298658 0.079268396 -0.77265221
1.1838034 0.079337977 -0.76553124
1.2428871 0.071592562 -0.76405543
1.2652743 0.040956102 -0.75953388
1.2595433 0.020056903 -0.7594375
1.2641164 0.0082719997 -0.75816476
1.2310675 0.010085106 -0.76224929
1.2081764 0.0099218711 -0.76254398
1.2087828 0.11152528 -0.78607959
1.1893311 0.11031265 -0.78425789
1.237462 0.10384667 -0.78327322
1.2319402 0.10529802 -0.78463376
1.224052 0.10560556 -0.77939892
1.2163997 0.10413563 -0.78151369
1.2086316 0.10655163 -0.78454185
1.2491754 0.093516991 -0.77818131
1.2288115 0.098997891 -0.77975464
1.2094892 0.099050149 -0.7779339
1.20292 0.094728239 -0.77798611
1.196474 0.093517318 -0.78273523
1.2108718 0.089382999 -0.77878773
1.1972744 0.087112427 -0.77731574
1.2441454 0.077095747 -0.77533746
1.2181497 0.073209144 -0.77827227
1.2068604 0.081566319 -0.77544481
1.2667419 0.022407874 -0.76874119
1.20233 0.018723667 -0.77380913
1.2178891 0.013316579 -0.772798
1.240126 0.11763985 -0.7955066
1.2292583 0.11110902 -0.79340297
1.2101492 0.10915596 -0.79450077
1.2495219 0.10099239 -0.79104948
1.2316788 0.10039359 -0.78996742
1.2226216 0.099019609 -0.78872496
1.2104846 0.10002626 -0.78727061
1.2251726 0.094960503 -0.79179037
1.2173903 0.091186859 -0.78639144
1.2020831 0.0919239 -0.79227763
1.1864713 0.090562075 -0.78533769
1.2254052 0.085137546 -0.79032826
1.2046741 0.08761283 -0.78882641
1.2458618 0.075837947 -0.79123414
1.243258 0.067854576 -0.78267723
1.2261689 0.017790526 -0.78305167
1.2405343 0.11165635 -0.80371618
1.2307884 0.10907374 -0.80451053
1.2253431 0.10838953 -0.7979005
1.2165399 0.11309218 -0.79923338
1.2125546 0.11080105 -0.8005839
1.1975176 0.11433391 -0.79767805
1.2496079 0.098547235 -0.79687113
1.2464797 0.099416368 -0.80276144
1.2267838 0.098178908 -0.80108094
1.2195184 0.10361201 -0.79917127
1.2070854 0.1053121 -0.79635954
1.2342269 0.089621037 -0.7990219
1.2236531 0.094462946 -0.80320519
1.215517 0.092761457 -0.79525054
1.2053194 0.097269811 -0.79522431
1.2449157 0.084852181 -0.79906762
1.2244172 0.032472655 -0.787911
1.2165017 0.020163856 -0.79030478
1.2333589 0.11666922 -0.81352603
1.2222712 0.1152616 -0.81525427
1.2183367 0.11647931 -0.81339896
1.2414371 0.10854416 -0.81270629
1.2285051 0.10910293 -0.8102079
1.2240218 0.11304064 -0.81438857
1.2047628 0.1114758 -0.81450146
1.2305702 0.10507751 -0.80772322
1.2218628 0.098836146 -0.80761516
1.2203077 0.097068518 -0.81309408
1.2069519 0.097082205 -0.80691689
1.1936548 0.099981017 -0.80659437
1.2392005 0.086637974 -0.80904531
1.2281483 0.093126304 -0.80891222
1.2039747 0.091671631 -0.80553204
1.2425053 0.079768285 -0.80728221
1.2192975 0.016312122 -0.79427105
1.2455349 0.11529871 -0.81990039
1.2359558 0.11504578 -0.8224743
1.2324244 0.11638568 -0.82262075
1.2240062 0.11793064 -0.82216132
1.2138309 0.11484924 -0.82567513
1.2361654 0.10832625 -0.82077527
1.2304678 0.11098722 -0.82468659
1.2230107 0.10477474 -0.82020247
1.2018412 0.10400224 -0.8200146
1.2788606 0.09682826 -0.82421571
1.2553685 0.095910594 -0.82213712
1.2435515 0.10351548 -0.81920815
1.2283258 0.10044786 -0.82085496
1.21902 0.099806495 -0.82209456
1.2138319 0.10178404 -0.82195038
1.200555 0.099363536 -0.81873727
1.2645167 0.093009353 -0.81980902
1.2441846 0.086683258 -0.82012498
1.2371711 0.091453113 -0.81710625
1.2506334 0.020035081 -0.80737805
1.2415063 0.028068632 -0.81206393
1.2156322 0.12211175 -0.8356024
1.2477497 0.11331728 -0.82918209
1.2394201 0.11545484 -0.83190733
1.2314632 0.11538854 -0.82816929
1.2300031 0.1031039 -0.83170092
1.2100278 0.10802351 -0.83343476
1.2576399 0.094473079 -0.832277
1.2342259 0.096872702 -0.8322413
1.1903112 0.1007726 -0.83039659
1.1775244 0.10174114 -0.82607925
1.2572017 0.09301281 -0.82621503
1.2260472 0.085607089 -0.82402861
1.2215312 0.037619427 -0.81906503
1.2128433 0.024677664 -0.81488961
1.2053901 0.026986197 -0.81718266
1.2309295 0.12233224 -0.83924639
1.2224721 0.12224042 -0.84461093
1.2206966 0.1218063 -0.83798617
1.269237 0.11583935 -0.84574848
1.2503884 0.11694403 -0.83987415
1.242856 0.11241654 -0.84148717
1.2343259 0.11709661 -0.84148288
1.222899 0.11822264 -0.83684886
1.2192519 0.11128496 -0.83907068
1.2478932 0.1003729 -0.84352058
1.2378988 0.10923719 -0.83638793
1.2179776 0.10653666 -0.83812433
1.2111284 0.10713949 -0.8436721
1.2927449 0.092041031 -0.8379516
1.2602359 0.10028669 -0.84026659
1.2446171 0.091713496 -0.8388148
1.2335461 0.098865047 -0.8356325
1.2905068 0.0842053 -0.83380276
1.2864645 0.050319597 -0.83711827
1.2382112 0.033662699 -0.83118433
1.2335805 0.025831528 -0.82532811
1.2551925 0.1239814 -0.85587138
1.2432957 0.120657 -0.85329944
1.2397265 0.12071861 -0.85038316
1.2303637 0.12406383 -0.85332483
1.2196549 0.1262697 -0.85184622
1.2511092 0.11178806 -0.85214221
1.2275918 0.11118771 -0.85201728
1.2055172 0.11468377 -0.85281187
1.2787043 0.096681498 -0.84727037
1.2733008 0.090398766 -0.85151404
1.264002 0.099283531 -0.84888166
1.2516465 0.093892008 -0.8430779
1.1935544 0.096441902 -0.84834027
1.2790396 0.046431988 -0.84508026
1.2437865 0.036987759 -0.83796632
1.2405568 0.030286565 -0.84103709
1.2294017 0.12762651 -0.86573702
1.2690057 0.11988669 -0.86160278
1.2534084 0.12119006 -0.86101538
1.2399716 0.12479355 -0.86031479
1.2155807 0.11769506 -0.85765314
1.241739 0.11713603 -0.85937798
1.2246861 0.11233343 -0.859658
1.2178974 0.11146216 -0.85891438
1.2072887 0.11452386 -0.8612749
1.2800702 0.10059824 -0.85757434
1.2499174 0.1052862 -0.86259383
1.2379662 0.1069928 -0.85412967
1.2189342 0.10606062 -0.85711581
1.201682 0.1004342 -0.86166388
1.2581052 0.031231806 -0.84969968
1.2376227 0.12969007 -0.86918247
1.2513379 0.11866815 -0.87163043
1.2459905 0.12545493 -0.866732
1.2243005 0.12139415 -0.8699646
1.2188804 0.11804134 -0.87172586
1.2136446 0.11867604 -0.86613542
1.2856084 0.10634318 -0.87245339
1.2558047 0.10684857 -0.87008971
1.2483635 0.11406691 -0.86790931
1.2463208 0.11175703 -0.87117553
1.2278413 0.10959608 -0.86884964
1.2173282 0.11082315 -0.8636868
1.3007874 0.10269243 -0.87259912
1.2940044 0.09910953 -0.86386466
1.2358491 0.10079653 -0.86271787
1.2225379 0.10171311 -0.86919147
1.2121664 0.10364235 -0.86666775
1.270308 0.094587907 -0.8683219
1.2972447 0.085938349 -0.86958361
1.2311944 0.046803847 -0.86145842
1.2202593 0.044294156 -0.85721487
1.275025 0.039211005 -0.85507625
1.2673355 0.034895666 -0.86185968
1.2685457 0.12522805 -0.88293207
1.2577878 0.12738295 -0.87626565
1.2504412 0.12975013 -0.8836388
1.2448341 0.13080211 -0.87785321
1.2330201 0.12509322 -0.882276
1.272174 0.12369161 -0.87799793
1.2587855 0.11944701 -0.87971914
1.245656 0.12155175 -0.88412553
1.2406219 0.12185556 -0.87726879
1.2240429 0.11980284 -0.87810576
1.2489294 0.11040495 -0.87431902
1.2263337 0.11417332 -0.87478352
1.2936531 0.10387865 -0.88275266
1.2834027 0.10196219 -0.87713748
1.2793844 0.099082336 -0.87611651
1.232125 0.066539124 -0.86885059
1.3058295 0.050088137 -0.87333363
1.280401 0.056022242 -0.8750388
1.2406439 0.050106615 -0.87143475
1.2524823 0.048853852 -0.86946672
1.2637277 0.040255003 -0.86429083
1.2598119 0.13229626 -0.89533901
1.2474128 0.13432689 -0.88793039
1.2427735 0.12410855 -0.8871156
1.2364615 0.12583205 -0.89275044
1.2281009 0.12301034 -0.88738626
1.2578993 0.1139653 -0.88613558
1.2501974 0.11896987 -0.88978213
1.2477193 0.11429975 -0.89097548
1.2314358 0.12010752 -0.88939887
1.2238795 0.12020047 -0.89216334
1.2445319 0.11313295 -0.88596296
1.2296062 0.11104052 -0.89129066
1.2085388 0.11006834 -0.88494039
1.2673153 0.098777033 -0.88512975
1.2542322 0.099849761 -0.88833851
1.2389625 0.097589552 -0.88726896
1.2967577 0.062128343 -0.88094181
1.2500933 0.053409405 -0.88141114
1.2618644 0.046868853 -0.87795532
1.2405367 0.042362332 -0.87724787
1.2530198 0.13194719 -0.90333933
1.2324281 0.13436832 -0.90030432
1.2752278 0.12814352 -0.89713061
1.2509602 0.12812981 -0.90053582
1.2454729 0.12827468 -0.89886498
1.2395048 0.12657505 -0.8951596
1.2349302 0.12767756 -0.90230906
1.2561725 0.12061865 -0.90063447
1.2509416 0.11203391 -0.89774776
1.2443451 0.12087371 -0.89697695
1.2411516 0.11709128 -0.9021253
1.2863026 0.1102289 -0.89505702
1.2722592 0.10719859 -0.89650995
1.2843474 0.069153331 -0.89111072
1.2719374 0.050229184 -0.88647199
1.2569122 0.048172161 -0.88527673
1.2484684 0.055862077 -0.88824379
1.2474601 0.046783522 -0.89283741
1.2857966 0.042223372 -0.88617963
1.2512352 0.045169987 -0.88684744
1.2528098 0.14104007 -0.91266972
1.2381454 0.13316754 -0.91285646
1.2522027 0.12872866 -0.90901005
1.2424012 0.12284766 -0.91007823
1.2396384 0.12406203 -0.90904593
1.2818635 0.11247245 -0.91178137
1.2609789 0.11441619 -0.9077273
1.2437267 0.11059793 -0.90566903
1.2643228 0.10296614 -0.90193766
1.2611034 0.10423759 -0.90381044
1.2355822 0.10154785 -0.9034313
1.2927788 0.073294953 -0.90493274
1.2897801 0.060216695 -0.90503287
1.2801964 0.061218992 -0.89967108
1.2704322 0.056468576 -0.89481026
1.2812341 0.048262253 -0.89397532
1.263949 0.052981146 -0.90065271
1.2366683 0.043256119 -0.89692014
1.2462782 0.13906433 -0.92098129
1.259504 0.13499214 -0.91812217
1.251689 0.13500263 -0.91890788
1.2449739 0.12875286 -0.91988331
1.2417597 0.13234481 -0.91723186
1.23114 0.13255286 -0.92108786
1.2671177 0.12307347 -0.91702974
1.2504846 0.1228784 -0.92004603
1.2401958 0.12236959 -0.92243361
1.2767388 0.11355594 -0.91873014
1.2506065 0.11529977 -0.92070258
1.2463468 0.11183444 -0.91357404
1.2324979 0.11495504 -0.91639036
1.2742561 0.10102122 -0.91950518
1.26133 0.10715526 -0.91874546
1.2322022 0.10550619 -0.91959369
1.2684624 0.048106663 -0.90387279
1.2538897 0.045282871 -0.91003454
1.254504 0.038734891 -0.9014321
1.2669915 0.13743594 -0.93328834
1.2373196 0.13581355 -0.92983681
1.2333081 0.1371116 -0.92484218
1.2858502 0.13281481 -0.92791045
1.2606121 0.12905014 -0.92881411
1.2513326 0.1321587 -0.92753911
1.2318932 0.12886702 -0.93180251
1.2845732 0.1221672 -0.93091387
1.2767113 0.11920778 -0.93089062
1.2557653 0.1221378 -0.92822498
1.2710892 0.10935275 -0.92775494
1.5003527 0.083367668 -0.92245567
1.2402983 0.06368164 -0.91727978
1.2571833 0.060742624 -0.92120618
1.2445555 0.058715537 -0.92294794
1.2628728 0.042845778 -0.91515148
1.2480031 0.14428908 -0.93599576
1.2813358 0.13704726 -0.93539602
1.2675086 0.13931105 -0.93870747
1.2552191 0.14238638 -0.93711138
1.2382312 0.13545057 -0.9393062
1.2353297 0.13930246 -0.93707168
1.2655431 0.12934913 -0.94100696
1.2596565 0.13350989 -0.93624794
1.2502307 0.12893599 -0.93400586
1.2422037 0.12724349 -0.94135392
1.3013049 0.11539611 -0.93846756
1.2917548 0.11721855 -0.93813044
1.276962 0.12033884 -0.94096458
1.2594142 0.1208349 -0.93517458
1.2463988 0.11726746 -0.93274045
1.2801359 0.11527696 -0.93362147
1.2724179 0.10952578 -0.93539494
1.2791235 0.10539731 -0.93763465
1.2556921 0.10590053 -0.935938
1.4770663 0.089369744 -0.94051421
1.2851801 0.094624802 -0.93337268
1.4953241 0.070454612 -0.93296129
1.4969897 0.063492484 -0.9316048
1.2751975 0.067201123 -0.92598283
1.2485448 0.067732334 -0.93079829
1.2920901 0.059638187 -0.92626595
1.284868 0.049619272 -0.92943227
1.2627993 0.049062565 -0.92261422
1.2843897 0.14149919 -0.95452863
1.2820436 0.14487103 -0.95015907
1.2639968 0.14803039 -0.94922709
1.2513578 0.14848681 -0.95474237
1.2421089 0.14393544 -0.95188504
1.2897577 0.13712072 -0.94663519
1.2790809 0.13750641 -0.94790363
1.2686021 0.13679132 -0.94582015
1.2568109 0.1359053 -0.95071274
1.2472596 0.13309465 -0.95069146
1.238062 0.13353136 -0.94790292
1.2727813 0.12653053 -0.95183849
1.2643664 0.12470348 -0.95076954
1.260655 0.1185341 -0.94955504
1.2472118 0.12189494 -0.95095372
1.2919083 0.10445765 -0.94474614
1.2682147 0.10527003 -0.94182116
1.4929836 0.090978414 -0.94330531
1.487258 0.077860937 -0.94864786
1.2841072 0.070980802 -0.93856251
1.2746716 0.068892881 -0.94141871
1.3196149 0.06369184 -0.93623906
1.3072478 0.06487827 -0.94269174
1.2876282 0.059615508 -0.93479067
1.2531594 0.064816475 -0.93651426
1.2446536 0.053274333 -0.93977976
1.2290921 0.048088029 -0.93801093
1.2690394 0.14181565 -0.96320987
1.251991 0.14592092 -0.95868188
1.236703 0.14740711 -0.95643109
1.2315336 0.14205958 -0.95846123
1.265595 0.139392 -0.96228468
1.2572387 0.13990088 -0.9622463
1.2924747 0.12521119 -0.95321774
1.2456388 0.13089155 -0.96008676
1.2948337 0.12170701 -0.95742017
1.2839818 0.12011628 -0.95268416
1.3030938 0.1052236 -0.95632493
1.283991 0.10977343 -0.95576406
1.2798488 0.10630921 -0.95276064
1.4849045 0.10049021 -0.9582541
1.2687848 0.10168006 -0.9527663
1.2623205 0.087946221 -0.94726676
1.5128611 0.078685284 -0.95620286
1.4887178 0.075128764 -0.9531514
1.48492 0.081512004 -0.95527339
1.277954 0.082640827 -0.95526844
1.2567912 0.071783051 -0.94431674
1.3006356 0.052928254 -0.95163608
1.2661835 0.054213122 -0.94797295
1.2497047 0.053810477 -0.94737327
1.2379993 0.051623493 -0.94974476
1.2679083 0.15194947 -0.97163206
1.2778082 0.14379081 -0.96836197
1.2738687 0.14393629 -0.96639091
1.2652267 0.14224248 -0.96456301
1.2579577 0.1337001 -0.96897113
1.2461113 0.13641343 -0.963817
1.2788457 0.12261905 -0.96595126
1.2744981 0.12680304 -0.96727508
1.267607 0.12466241 -0.96688181
1.2586077 0.1252204 -0.96847057
1.2460715 0.12920226 -0.96243596
1.253896 0.11996904 -0.96804976
1.4803962 0.10594383 -0.96771425
1.4829036 0.098315001 -0.9658547
1.4680399 0.097462103 -0.96240878
1.297102 0.087612882 -0.96186072
1.497758 0.07956937 -0.96797103
1.4897149 0.076485515 -0.96172142
1.4796952 0.078308508 -0.96661913
1.2819939 0.074915156 -0.95595962
1.2439722 0.075915784 -0.96139014
1.4798937 0.064802721 -0.96427935
1.4808575 0.054490685 -0.96307439
1.2922827 0.055608898 -0.96006495
1.2587729 0.057183892 -0.95854694
1.29184 0.054260403 -0.95798534
1.2879797 0.055178434 -0.95630938
1.2704148 0.14798085 -0.98290539
1.2668172 0.14869972 -0.97589099
1.2546322 0.15297042 -0.98099458
1.2249562 0.1485686 -0.9773308
1.2852348 0.14489485 -0.98030353
1.2775367 0.1421224 -0.97594106
1.2646124 0.14043897 -0.97643936
1.2628304 0.14597233 -0.98129326
1.2441814 0.14074822 -0.98096567
1.2634237 0.13583213 -0.97368532
1.2614567 0.13330816 -0.97835398
1.2537081 0.13485518 -0.97331476
1.2471991 0.12917028 -0.97757667
1.2979127 0.12619546 -0.9767099
1.2876226 0.12335409 -0.97985917
1.2720786 0.1269228 -0.97436231
1.2657553 0.12182553 -0.97946197
1.2623281 0.12586546 -0.97129726
1.2803947 0.11220825 -0.96965718
1.2628671 0.11812304 -0.97710443
1.5198426 0.10557182 -0.97941047
1.5014063 0.099701598 -0.97274697
1.4947348 0.10286684 -0.97851288
1.4755929 0.10262394 -0.97891313
1.2712021 0.10965045 -0.97483706
1.2637051 0.10146201 -0.97215998
1.5384976 0.08133541 -0.97618949
1.5091529 0.083027989 -0.97543836
1.4752272 0.085014164 -0.97662216
1.2799982 0.077477306 -0.97178507
1.493104 0.066453055 -0.9721455
1.4683342 0.062608659 -0.96864462
1.2963486 0.059289321 -0.97002876
1.2394674 0.061220497 -0.96994156
1.2861248 0.15477791 -0.98861718
1.2816844 0.14806214 -0.98693645
1.2517133 0.15085483 -0.98614186
1.2315778 0.15279703 -0.99224073
1.2651865 0.14192557 -0.98790836
1.2531878 0.13927561 -0.98709953
1.2489463 0.14123128 -0.99142534
1.2792851 0.12772988 -0.98494065
1.2714173 0.1310294 -0.98339331
1.2647241 0.13209881 -0.98423982
1.2877982 0.12607807 -0.98528177
1.260112 0.12466913 -0.98427349
1.4878886 0.11072838 -0.98458505
1.2802212 0.11496508 -0.98688519
1.4999115 0.10498239 -0.99043351
1.4869438 0.10338782 -0.98591435
1.5160809 0.090088174 -0.98934299
1.4958026 0.081641033 -0.98090696
1.4889065 0.085327893 -0.98576975
1.2600678 0.082781926 -0.97646141
1.2448952 0.088429272 -0.98371816
1.470426 0.072799847 -0.98557812
1.2894043 0.076517463 -0.98203069
1.2508522 0.080617607 -0.97642362
1.5315905 0.062885493 -0.97893274
1.4773028 0.067013994 -0.98334658
1.3269932 0.069355816 -0.98257118
1.276909 0.06393075 -0.98089439
1.2598478 0.063055784 -0.98035729
1.497413 0.059601411 -0.98297662
1.4878194 0.05975467 -0.98124456
1.3445413 0.058181062 -0.98036897
1.3115393 0.05643937 -0.98008305
1.2896966 0.056004569 -0.97378999
1.2596231 0.15701289 -0.99671566
1.2808758 0.15052846 -0.99997836
1.2737842 0.1455728 -1.0000472
1.2681913 0.15267514 -0.9976849
1.2605735 0.15223597 -0.99816406
1.254979 0.14945891 -0.99793458
1.2803757 0.14084765 -1.001724
1.2683302 0.13695125 -1.0000618
1.260888 0.13634397 -0.99951029
1.2530558 0.14251068 -0.99457729
1.2965897 0.13519935 -0.99199158
1.2603981 0.13361578 -0.99568957
1.2539184 0.13346112 -0.99270672
1.289116 0.1183842 -0.99822176
1.2601335 0.12183949 -0.99390012
1.2767576 0.099541008 -0.99556422
1.5358331 0.086555734 -0.99608558
1.5188119 0.090730488 -0.99009579
1.4829035 0.094156399 -0.99351698
1.5256642 0.082367942 -0.9943704
1.4819461 0.085875809 -0.99461406
1.280097 0.086118251 -0.99013621
1.5304027 0.070149526 -0.99235088
1.4869726 0.073807389 -0.9914248
1.4992369 0.064082325 -0.98767191
1.490199 0.063580483 -0.9890669
1.2928154 0.064225435 -0.98755354
1.279453 0.065008268 -0.98378992
1.3294799 0.055240512 -0.98659635
1.2634298 0.056609422 -0.98299181
1.2881656 0.15973134 -1.0078462
1.2815816 0.15624738 -1.0121065
1.2699277 0.15458722 -1.0081638
1.2556702 0.15697433 -1.0127124
1.2381991 0.15702546 -1.0071507
1.2569582 0.14516675 -1.0045593
1.2986469 0.14019348 -1.0113785
1.2640085 0.13492754 -1.0054873
1.2580076 0.1433543 -1.0047514
1.2545645 0.13628612 -1.0039638
1.266328 0.12936917 -1.0004972
1.2630956 0.13299456 -1.0037146
1.4938463 0.10860713 -1.0039303
1.5097712 0.097259089 -1.0084889
1.4971983 0.090132684 -1.0014406
1.4833817 0.089918613 -1.0036753
1.4965054 0.077851489 -1.0048846
1.4779184 0.077584386 -1.002449
1.2983741 0.080077827 -0.99384725
1.528926 0.068105817 -0.99882871
1.2753993 0.071427405 -1.0007685
1.2403947 0.072659373 -0.99155235
1.5191718 0.064248219 -0.99589294
1.4947813 0.065018639 -0.9994148
1.3206376 0.060050756 -0.99206895
1.3158096 0.063876152 -0.99705416
1.3033774 0.065472096 -0.99242079
1.2861136 0.15511662 -1.0182823
1.2768316 0.154521 -1.0178882
1.2697942 0.15161373 -1.0171287
1.2615123 0.15919255 -1.0164235
1.2464465 0.15634517 -1.0176739
1.2917302 0.14351098 -1.0192436
1.2578088 0.14678393 -1.0122807
1.2716644 0.1386043 -1.017958
1.2643642 0.14129297 -1.0164409
1.2601601 0.14123896 -1.0168581
1.2456346 0.136703 -1.0187768
1.2733625 0.10578579 -1.0124663
1.5084397 0.095953733 -1.0176848
1.4903959 0.098940909 -1.0103879
1.5336215 0.093306899 -1.0097322
1.5217237 0.086982355 -1.0132117
1.5067835 0.087944567 -1.0088108
1.4732548 0.0755198 -1.0141934
1.2894727 0.078217328 -1.0075247
1.2787622 0.082801327 -1.0084624
1.5152314 0.068862632 -1.0147341
1.4962867 0.068736002 -1.0082525
1.299842 0.070178002 -1.0061567
1.2945391 0.064118773 -1.0085751
1.3066469 0.16265355 -1.0252752
1.2812332 0.16097885 -1.0308454
1.2642757 0.16039011 -1.024049
1.254768 0.15913224 -1.0316499
1.278332 0.1552356 -1.0291829
1.273773 0.15882465 -1.0265908
1.2625618 0.15105717 -1.0299842
1.2521732 0.15143126 -1.0223341
1.2540882 0.14634222 -1.022509
1.2854941 0.13581271 -1.0221841
1.2644445 0.13999783 -1.0243258
1.489417 0.095029563 -1.0226951
1.4857534 0.096814632 -1.0213096
1.4903796 0.08506459 -1.0237688
1.4854108 0.08236894 -1.0193198
1.4791311 0.079004005 -1.0179718
1.2986621 0.0814998 -1.0208608
1.5262617 0.073326096 -1.0187248
1.4838512 0.073583141 -1.0213296
1.2722706 0.074849412 -1.0162196
1.2892674 0.062462404 -1.0120273
1.3026123 0.15832385 -1.0359555
1.2645172 0.16357294 -1.0352489
1.2904162 0.15753132 -1.0371909
1.2739174 0.15867683 -1.0332493
1.261888 0.15263981 -1.0339402
1.3032659 0.14621332 -1.0370277
1.2908438 0.14203164 -1.0338564
1.2843121 0.14736098 -1.0325209
1.2610753 0.14713864 -1.0328783
1.2541134 0.14029992 -1.0307481
1.3255266 0.13623194 -1.0379541
1.2407525 0.13618338 -1.0356599
1.4727125 0.11022872 -1.0379016
1.5174081 0.10035908 -1.0323867
1.4642032 0.10942124 -1.0349584
1.4564875 0.10391006 -1.0321293
1.4957517 0.09631443 -1.0306458
1.4827365 0.09591189 -1.0302786
1.4875243 0.084401652 -1.0298376
1.2808195 0.087795407 -1.0278493
1.5032912 0.077060744 -1.0274453
1.4763498 0.07808736 -1.0317762
1.3206857 0.082279325 -1.0282841
1.2887112 0.083467692 -1.0256274
1.2807643 0.080492795 -1.0256383
1.2788961 0.071682468 -1.0226556
1.2766991 0.070423231 -1.0248235
1.2922468 0.16963822 -1.0463043
1.2834473 0.16587475 -1.0521505
1.2469229 0.16597097 -1.0507046
1.2808847 0.16571032 -1.0495842
1.2760046 0.16211013 -1.0454714
1.269261 0.16099882 -1.0491506
1.302762 0.15018164 -1.0501524
1.2825866 0.15306038 -1.0450592
1.2578208 0.15290758 -1.0490986
1.2451704 0.15689769 -1.0425699
1.2806032 0.14306246 -1.0419087
1.2606814 0.13693355 -1.0412515
1.4603444 0.10755415 -1.0468831
1.4121511 0.10853641 -1.0448439
1.4814757 0.097100586 -1.0410521
1.4730915 0.082005903 -1.0428783
1.4642811 0.083667904 -1.0353304
1.4509768 0.088057309 -1.037662
1.4269456 0.072645262 -1.0400627
1.3023787 0.081629246 -1.0344092
1.2864966 0.082776397 -1.0322733
1.2686793 0.079770014 -1.0324343
1.281466 0.067840368 -1.036395
1.2669513 0.068791136 -1.0303434
1.2971889 0.16514756 -1.0612345
1.2869922 0.16533829 -1.0562611
1.2828697 0.16475515 -1.0578965
1.2549319 0.16723585 -1.0533495
1.2892641 0.16239867 -1.055642
1.276039 0.16315439 -1.0614576
1.238862 0.16352831 -1.0610814
1.3001829 0.15052874 -1.0543424
1.277684 0.14869198 -1.0577203
1.2710711 0.14749372 -1.0546907
1.2536582 0.15506493 -1.0597742
1.3222016 0.14164315 -1.0532495
1.3133608 0.14413512 -1.0586277
1.4035774 0.11711982 -1.0531656
1.4087248 0.11370999 -1.0567394
1.4007587 0.11427985 -1.0519361
1.454023 0.098215371 -1.0526196
1.480903 0.090811491 -1.0520631
1.4429027 0.09602724 -1.0474322
1.4324225 0.095656291 -1.0466448
1.4206094 0.089943409 -1.0513493
1.4562691 0.08110176 -1.0450979
1.4221966 0.089164272 -1.0472745
1.3769461 0.084679008 -1.0463735
1.2380118 0.088646993 -1.0467166
1.3997811 0.074013203 -1.0477446
1.2768829 0.077016428 -1.0483092
1.3067333 0.071849048 -1.0408978
1.3107618 0.17264174 -1.064049
1.2962023 0.16868773 -1.0677886
1.2864765 0.17029057 -1.0711281
1.2810007 0.16542394 -1.0675794
1.3048192 0.15517576 -1.0695392
1.2873772 0.15736742 -1.0629027
1.3058243 0.14577153 -1.0623585
1.2500145 0.15138671 -1.0605103
1.3236816 0.14358182 -1.0627905
1.4502358 0.11042213 -1.0588553
1.4079803 0.11179863 -1.0618137
1.3923739 0.1148434 -1.061697
1.3965788 0.10204485 -1.059626
1.4545897 0.09006685 -1.0560626
1.4408054 0.089269921 -1.0588486
1.4327403 0.089520171 -1.0589797
1.3943405 0.09615241 -1.0560066
1.3905452 0.082308441 -1.0583414
1.3574917 0.088429958 -1.0527978
1.2655503 0.079941422 -1.0566275
1.3127879 0.074797675 -1.0547388
1.2736505 0.071969613 -1.0533737
1.2339957 0.076095611 -1.0527114
1.3128191 0.17763583 -1.0834359
1.2665402 0.17278531 -1.0787737
1.3010651 0.16941892 -1.0798088
1.292168 0.16167448 -1.0807461
1.2874318 0.17044914 -1.0752504
1.2839943 0.167062 -1.0744989
1.2728373 0.16892803 -1.0740868
1.2585334 0.16603006 -1.0717695
1.2971001 0.15484422 -1.0716571
1.2602799 0.15929338 -1.0746841
1.255357 0.155911 -1.0773466
1.2470068 0.15378748 -1.0785228
1.329863 0.14617062 -1.075304
1.2673118 0.14960054 -1.0762844
1.3331898 0.14301628 -1.0733612
1.3837579 0.13039599 -1.0728128
1.376471 0.12993398 -1.0724491
1.4471157 0.11906578 -1.0710795
1.424842 0.11508462 -1.0748247
1.4112915 0.11713047 -1.0721859
1.4007255 0.12068745 -1.0719368
1.4119463 0.099303469 -1.073714
1.4055016 0.097561032 -1.0737197
1.3672838 0.098547995 -1.0656163
1.4184129 0.093595147 -1.0653663
1.3578568 0.091304228 -1.0636648
1.2649673 0.094993517 -1.0694201
1.2614967 0.089611173 -1.0648639
1.2837026 0.081371427 -1.0636654
1.4121788 0.076196164 -1.0668281
1.2809652 0.076460734 -1.0666935
1.2687751 0.074907228 -1.0642812
1.2425926 0.075586602 -1.0616958
1.2939004 0.17221329 -1.0871084
1.2895057 0.1747064 -1.0901059
1.2652148 0.17059626 -1.0863693
1.3060576 0.16673417 -1.0867471
1.2669014 0.1635218 -1.089594
1.3236065 0.15808256 -1.0876218
1.3087693 0.15765263 -1.0899746
1.2680866 0.15643944 -1.0873002
1.3547938 0.14863123 -1.0890431
1.3113341 0.15025756 -1.0837574
1.4238554 0.12625633 -1.0851401
1.3896462 0.12560959 -1.0839144
1.3829775 0.12806892 -1.0789411
1.3793581 0.12480298 -1.0809195
1.4046432 0.11732814 -1.0807419
1.389454 0.11918306 -1.0814302
1.3717935 0.11438431 -1.08083
1.4279394 0.10678989 -1.0849841
1.4091748 0.10694164 -1.0827768
1.39519 0.11031832 -1.077247
1.2673836 0.10603841 -1.0772581
1.414629 0.098025993 -1.0834579
1.4113916 0.10250805 -1.075053
1.3939686 0.10120282 -1.0760086
1.3867034 0.10249619 -1.0825673
1.436918 0.094123915 -1.0789998
1.4068153 0.089902133 -1.0817561
1.3998847 0.087340802 -1.0733902
1.25888 0.091258585 -1.077816
1.4048223 0.084960178 -1.0776621
1.256917 0.078022987 -1.0723023
1.3049412 0.17369021 -1.0983835
1.2719935 0.17623499 -1.0980244
1.2716939 0.17375755 -1.0923948
1.2606993 0.16043526 -1.0941831
1.2511524 0.16156724 -1.0917175
1.3331037 0.15087417 -1.0907958
1.3142538 0.15452367 -1.0972264
1.3121285 0.15167925 -1.0963509
1.2740418 0.15419984 -1.0909902
1.3553522 0.13992558 -1.0962428
1.3446093 0.14564314 -1.0919108
1.368439 0.1368833 -1.0914552
1.3638408 0.13435367 -1.0959767
1.4000151 0.12438065 -1.09194
1.3819723 0.12888359 -1.0900555
1.3749179 0.12917668 -1.0916281
1.4289838 0.1196488 -1.0946728
1.4149022 0.12065366 -1.0880551
1.3920341 0.10956387 -1.0932934
1.3849676 0.11034757 -1.0927955
1.3741198 0.1079201 -1.0885473
1.2343525 0.10437845 -1.0903885
1.4002708 0.099013433 -1.0851732
1.2869918 0.1027777 -1.0860101
1.2487288 0.10204595 -1.0877578
1.3763769 0.084952489 -1.082383
1.370488 0.093718797 -1.0826436
1.3590955 0.091494828 -1.0910506
1.2716951 0.092581153 -1.0823042
1.262913 0.091176346 -1.0852683
1.2387277 0.086101308 -1.0862089
1.2658978 0.083098501 -1.0870074
1.2362257 0.082902357 -1.0803328
1.3088214 0.17711435 -1.1075901
1.2705508 0.17858714 -1.1107028
1.311379 0.17652377 -1.1053252
1.3025002 0.17089979 -1.103756
1.2869972 0.17700176 -1.1045936
1.2815742 0.16815026 -1.1007979
1.273523 0.16775024 -1.1045039
1.3231492 0.1618111 -1.1078711
1.3092611 0.15866852 -1.1052238
1.2891152 0.15986058 -1.1005813
1.280736 0.16277692 -1.1086786
1.2753701 0.15927148 -1.1002474
1.2594589 0.16509101 -1.1034453
1.3378017 0.15548913 -1.1087711
1.3315605 0.15226395 -1.1005459
1.396305 0.1338547 -1.1027114
1.3686513 0.13220094 -1.1014112
1.4008893 0.12172402 -1.0986907
1.3934724 0.12609729 -1.0977736
1.3882351 0.1243328 -1.1009518
1.4058939 0.11153395 -1.1012025
1.3831564 0.11759132 -1.0984869
1.3788238 0.11887372 -1.0966601
1.2338743 0.11780764 -1.1012809
1.4272113 0.10042332 -1.1029782
1.4100112 0.10305876 -1.0948427
1.4049855 0.10446376 -1.1031089
1.3871688 0.10791112 -1.1026866
1.3860579 0.11000708 -1.0969006
1.2633791 0.10358173 -1.0917044
1.3748069 0.09473221 -1.0993572
1.2680776 0.097537756 -1.0986377
1.2416952 0.097485796 -1.0939767
1.4118516 0.09050709 -1.092124
1.2994854 0.086049601 -1.0950202
1.2810495 0.085311696 -1.0915003
1.2561511 0.084852606 -1.0913225
1.2577409 0.083009571 -1.0913157
1.2929997 0.18001179 -1.1187257
1.2863272 0.1724235 -1.1185013
1.2801445 0.17197865 -1.1194139
1.3305929 0.16034453 -1.1143832
1.3098406 0.16226973 -1.1140631
1.2675214 0.16089112 -1.1092738
1.3825561 0.15176997 -1.1137128
1.3520678 0.15431063 -1.1176167
1.3409704 0.14990447 -1.1093103
1.3362082 0.15539978 -1.1102453
1.3291566 0.15161172 -1.1157436
1.3715023 0.13870996 -1.1092974
1.3960366 0.13189442 -1.1094755
1.3926264 0.13535494 -1.1164705
1.3821962 0.13161583 -1.1121385
1.3670704 0.13533688 -1.1071709
1.3656913 0.13662975 -1.1112622
1.3999426 0.127947 -1.1099218
1.392356 0.11918186 -1.1118265
1.4197332 0.113023 -1.1115359
1.3895206 0.11448869 -1.1120634
1.3771769 0.11778772 -1.1121911
1.3634555 0.11545485 -1.1089773
1.3990419 0.1042062 -1.104858
1.3658719 0.10318068 -1.1113933
1.2295004 0.1032673 -1.1091177
1.4240621 0.093716174 -1.1111583
1.4161046 0.091953248 -1.1042651
1.3775262 0.10026547 -1.1054305
1.3644507 0.094341829 -1.1081489
1.2310026 0.093486488 -1.1048554
1.4046111 0.08505787 -1.1030117
1.2763934 0.086827144 -1.102468
1.2483542 0.083833292 -1.0992082
1.3048271 0.18408486 -1.1316704
1.3118753 0.18156628 -1.1267228
1.2951487 0.18299507 -1.1244526
1.2846558 0.181868 -1.1294467
1.3277555 0.16815349 -1.126717
1.3154992 0.16929175 -1.1242036
1.2861195 0.16733609 -1.1256448
1.3552184 0.15809675 -1.1281999
1.3076061 0.15721709 -1.1236393
1.2875016 0.16339849 -1.1204016
1.3277982 0.14915833 -1.1189294
1.3595269 0.14247727 -1.1261668
1.3422819 0.14192554 -1.1238961
1.3939382 0.13151227 -1.1178926
1.3801028 0.13202876 -1.1201595
1.3700308 0.13155262 -1.1200856
1.4132957 0.12428667 -1.1181798
1.3710507 0.12532566 -1.1174288
1.4191934 0.11417422 -1.1209435
1.4109068 0.10892856 -1.1158472
1.405501 0.11090931 -1.1221447
1.3938336 0.10973339 -1.1158255
1.3811762 0.10781342 -1.1208712
1.3767016 0.11766639 -1.1166431
1.4270031 0.10618846 -1.1209327
1.3725343 0.10264251 -1.1210043
1.26446 0.10249436 -1.1149713
1.2670851 0.097882435 -1.1133562
1.2831068 0.09030579 -1.1108873
1.2724168 0.085078865 -1.1098109
1.2968451 0.18424921 -1.1371527
1.3099271 0.17789486 -1.1393917
1.2867659 0.1762071 -1.1343238
1.2759124 0.17875828 -1.1380967
1.3014529 0.1691893 -1.1327822
1.2990688 0.17091247 -1.1390973
1.3656167 0.15913217 -1.1342169
1.3560395 0.15868732 -1.1366494
1.3248422 0.15740597 -1.134249
1.3986341 0.14455223 -1.1341528
1.3621686 0.14538994 -1.1285877
1.3992712 0.13448144 -1.1319439
1.3893716 0.13991079 -1.1347498
1.3753077 0.14126404 -1.1283188
1.3565824 0.14397039 -1.1305932
1.4031535 0.13262774 -1.130038
1.3864068 0.12590678 -1.1295822
1.3628407 0.1328357 -1.1340166
1.403626 0.11913265 -1.1324587
1.3692999 0.12267542 -1.1290299
1.3805895 0.11165363 -1.1241179
1.3741791 0.1072613 -1.1250117
1.4400328 0.10285488 -1.1228167
1.3996544 0.10196559 -1.1220229
1.3564063 0.10409394 -1.1274253
1.2501677 0.10539569 -1.1220032
1.2416925 0.10093306 -1.1267254
1.2360743 0.1074653 -1.1239204
1.4640213 0.090095729 -1.1269637
1.4308596 0.091975152 -1.1249666
1.2651955 0.092636734 -1.1247835
1.237079 0.098081052 -1.1207148
1.2265846 0.091110259 -1.1229264
1.2251265 0.088726982 -1.1169547
1.3216404 0.18755165 -1.1504115
1.2964537 0.18533725 -1.1470256
1.346899 0.17119215 -1.1454277
1.2915032 0.17189525 -1.142611
1.2676862 0.17202657 -1.141802
1.3537056 0.16340888 -1.1475695
1.314357 0.16926716 -1.1437325
1.3168119 0.15582818 -1.1389883
1.304022 0.16141409 -1.1407764
1.3637429 0.14421776 -1.1392162
1.4123282 0.13471244 -1.137481
1.3849692 0.13555543 -1.1397526
1.4095118 0.12871757 -1.1362715
1.3947139 0.1299874 -1.1432006
1.3913581 0.1274793 -1.1431786
1.3597075 0.13177702 -1.139924
1.3519764 0.12783015 -1.1386113
1.4158862 0.11880374 -1.1395183
1.3911922 0.12237814 -1.1423508
1.3731081 0.11493209 -1.1395066
1.4298223 0.11120212 -1.1384023
1.415218 0.11172485 -1.134591
1.4047253 0.10652457 -1.1409099
1.3796248 0.1074883 -1.136498
1.2426482 0.11166328 -1.1387229
1.4141712 0.0976744 -1.1354561
1.2640022 0.10219789 -1.1306709
1.452945 0.094866961 -1.1322287
1.2637185 0.093208417 -1.1369321
1.2411716 0.093674466 -1.1316378
1.2356169 0.091753587 -1.1343782
1.2186748 0.095527738 -1.1344216
1.312098 0.19157134 -1.1561537
1.3035167 0.18528931 -1.1560541
1.2656432 0.18499739 -1.1573921
1.3069685 0.17479283 -1.1520472
1.2931917 0.17600453 -1.1512188
1.2743198 0.17656003 -1.156297
1.3600113 0.16306403 -1.1556821
1.3489586 0.16637222 -1.154381
1.3407543 0.16304107 -1.1538682
1.3236322 0.16338044 -1.1536459
1.3926253 0.15105227 -1.151631
1.3307341 0.15932585 -1.1494141
1.3239548 0.15392469 -1.1516169
1.375757 0.14903766 -1.1493891
1.3700613 0.14614856 -1.1514812
1.3476669 0.15118863 -1.1496149
1.4060463 0.13522846 -1.1522588
1.3988996 0.13953187 -1.1519459
1.3910096 0.14174412 -1.1470156
1.369764 0.13725685 -1.1496063
1.4240992 0.12362096 -1.1526769
1.4182395 0.12037216 -1.1519042
1.453092 0.10532273 -1.1429819
1.4318811 0.11005647 -1.1454337
1.4017249 0.10973506 -1.1485165
1.36835 0.11403486 -1.1425569
1.3473703 0.11168993 -1.1466295
1.260359 0.11446287 -1.1432247
1.4606317 0.094840348 -1.1460003
1.4071285 0.095643148 -1.1488255
1.2648442 0.097405866 -1.1436714
1.2542846 0.097611576 -1.1466693
1.4541866 0.093956992 -1.1410652
1.3264787 0.18932888 -1.1626611
1.3136177 0.18857846 -1.1678321
1.3036678 0.19337948 -1.1679865
1.3319044 0.17822441 -1.165812
1.314868 0.17867318 -1.1649971
1.300009 0.18466398 -1.1641437
1.299314 0.18063371 -1.1671978
1.3367225 0.17014644 -1.166821
1.326334 0.17223072 -1.1628884
1.3076915 0.17719647 -1.1645186
1.2968867 0.1764544 -1.1595774
1.3375032 0.1636485 -1.1646563
1.3300533 0.1626884 -1.1615088
1.4008716 0.15510298 -1.1651495
1.3533919 0.15133408 -1.1589088
1.3447959 0.15643677 -1.1633073
1.3948691 0.14234212 -1.158131
1.3883374 0.14379872 -1.1623231
1.4024282 0.1359152 -1.1585282
1.3813033 0.13371167 -1.1565298
1.3583384 0.13264062 -1.155216
