# .PCD v0.7 - Point Cloud Data file format
VERSION 0.7
FIELDS x y z
SIZE 4 4 4
TYPE F F F
COUNT 1 1 1
WIDTH 1407
HEIGHT 1
VIEWPOINT 0 0 0 1 0 0 0
POINTS 1407
DATA ascii
-0.46916106 0.083199233 -2.2032955
-0.46681878 0.077013195 -2.202673
-0.46782699 0.06797415 -2.2035215
-0.47603801 0.067814052 -2.1967785
-0.44858938 0.12033838 -2.2132745
-0.45236787 0.11815819 -2.2188301
-0.45579568 0.10191247 -2.2142982
-0.45857176 0.10175475 -2.2144725
-0.45210367 0.089867592 -2.2166698
-0.45667863 0.081029356 -2.2138004
-0.45925522 0.085490674 -2.209712
-0.45654315 0.072285682 -2.2115352
-0.46324125 0.07366538 -2.2100215
-0.46278599 0.053876042 -2.2056384
-0.44219005 0.1219613 -2.2266438
-0.44018701 0.10975823 -2.2281189
-0.44850218 0.11022055 -2.2215576
-0.44875416 0.097415239 -2.2262094
-0.45730674 0.078332663 -2.2169957
-0.45507351 0.07197988 -2.2173767
-0.45353189 0.067084134 -2.2199676
-0.45399961 0.058126152 -2.2125955
-0.42832381 0.14622858 -2.2434943
-0.43376189 0.12966776 -2.2399364
-0.43603384 0.11396113 -2.2377284
-0.44035485 0.11407906 -2.23423
-0.44165027 0.097157925 -2.2367685
-0.45075127 0.084085196 -2.2290995
-0.44911569 0.072344393 -2.2292321
-0.44980398 0.064055502 -2.2297087
-0.45558771 0.054201961 -2.2283902
-0.42472902 0.13450089 -2.2458036
-0.43176472 0.13187715 -2.2437799
-0.42113426 0.1227732 -2.2481124
-0.42788708 0.11869621 -2.2414596
-0.43649468 0.11176917 -2.2415102
-0.43631169 0.098035395 -2.2443578
-0.4398523 0.088216126 -2.2381334
-0.4437511 0.06872806 -2.2343209
-0.4112764 0.14242917 -2.2588003
-0.42234758 0.1357148 -2.2579236
-0.42232275 0.12714863 -2.2589769
-0.41753948 0.1110456 -2.2504213
-0.42899433 0.10571429 -2.2517858
-0.43521792 0.098531455 -2.2492032
-0.43478498 0.087131888 -2.2519443
-0.4421469 0.07496354 -2.2446067
-0.44329917 0.068712592 -2.2447317
-0.41215065 0.14513385 -2.2700281
-0.41282219 0.13235733 -2.2681103
-0.42019117 0.12564579 -2.2606804
-0.41624981 0.11148453 -2.2618628
-0.4202292 0.11681011 -2.2636855
-0.41300166 0.10219046 -2.2652984
-0.41268113 0.09571895 -2.2621427
-0.41971168 0.098005027 -2.2587361
-0.42747349 0.094349116 -2.2614522
-0.42604131 0.086800486 -2.2617424
-0.43208084 0.064127475 -2.2563
-0.40025061 0.13760248 -2.2799089
-0.40116611 0.12942252 -2.2805033
-0.40678608 0.13366684 -2.2735217
-0.40655318 0.12003675 -2.2726188
-0.41319415 0.1122936 -2.2751796
-0.40797526 0.10237321 -2.2735968
-0.41514999 0.089103311 -2.2736914
-0.42247692 0.094281793 -2.2689526
-0.41570446 0.081016004 -2.2706859
-0.42148688 0.085253716 -2.2684131
-0.41833404 0.072959602 -2.2695355
-0.3921054 0.14923197 -2.2890923
-0.39671183 0.12605745 -2.2821822
-0.40790969 0.12027541 -2.2816648
-0.39317307 0.11451247 -2.2844551
-0.39967188 0.11045718 -2.2780912
-0.39611474 0.098852336 -2.2803762
-0.40848693 0.10225475 -2.2804441
-0.41115546 0.10309893 -2.2825875
-0.40846378 0.09333533 -2.2801754
-0.41392732 0.087448865 -2.2797549
-0.40642685 0.085068941 -2.276871
-0.41153628 0.07731387 -2.2760127
-0.38887253 0.15201864 -2.3025229
-0.39261961 0.13553613 -2.2987196
-0.39578345 0.12888524 -2.2945542
-0.39900309 0.13201627 -2.293484
-0.38668382 0.11853841 -2.2906909
-0.39559612 0.11945474 -2.295042
-0.40018243 0.12005699 -2.2919228
-0.38963428 0.10296741 -2.2867281
-0.40339476 0.087750852 -2.2901926
-0.38855064 0.14048192 -2.3036435
-0.38764203 0.12860277 -2.3089926
-0.38981768 0.11231753 -2.3038857
-0.38870588 0.10579523 -2.2991004
-0.39350876 0.10704288 -2.303803
-0.39162448 0.090090007 -2.2950974
-0.39979163 0.08709082 -2.2977254
-0.40392599 0.084480226 -2.2950525
-0.38025522 0.14272296 -2.3138607
-0.37898347 0.13925362 -2.312216
-0.37688306 0.12034112 -2.3169456
-0.38410175 0.12403515 -2.3159492
-0.37627354 0.11439329 -2.3088703
-0.38326538 0.11505949 -2.3160779
-0.38044322 0.10648578 -2.3146293
-0.38683158 0.11063653 -2.3097496
-0.39104256 0.10745484 -2.3088486
-0.38332745 0.096167624 -2.3074827
-0.39323881 0.095046461 -2.3097653
-0.39414698 0.089368433 -2.3092241
-0.38800567 0.081156731 -2.3108542
-0.39714044 0.077100843 -2.3049204
-0.36703277 0.15390688 -2.3302522
-0.37206668 0.1437811 -2.3229618
-0.37098011 0.13435793 -2.3267317
-0.37953046 0.11507103 -2.3216763
-0.38411939 0.11486092 -2.3199544
-0.3749797 0.098422796 -2.317764
-0.38567582 0.097616017 -2.3197269
-0.38512039 0.090727031 -2.3183265
-0.38510185 0.080410004 -2.3159559
-0.35903975 0.15688843 -2.3383672
-0.35752445 0.15232384 -2.3363316
-0.35420874 0.14009911 -2.3378484
-0.36497369 0.13807413 -2.3343751
-0.37158173 0.14045423 -2.3301454
-0.36772308 0.13476175 -2.3371758
-0.37364027 0.12961575 -2.3325799
-0.36039364 0.12445951 -2.333534
-0.36844966 0.12621808 -2.3307292
-0.37203485 0.12268913 -2.332459
-0.37200111 0.11331117 -2.3301768
-0.36663198 0.10067803 -2.3280454
-0.36962897 0.10668671 -2.3348098
-0.37884191 0.10412914 -2.3281505
-0.38045734 0.096006304 -2.3298731
-0.38363725 0.096324474 -2.3260345
-0.35616022 0.15473786 -2.3500764
-0.35101798 0.14708078 -2.3500512
-0.35719487 0.15113238 -2.3484435
-0.35374773 0.14021099 -2.3483422
-0.36044681 0.1433031 -2.3447411
-0.35691071 0.12842727 -2.3464365
-0.36403209 0.12880877 -2.3411744
-0.36363724 0.12190709 -2.3402765
-0.36112612 0.1097644 -2.340946
-0.36362514 0.11104736 -2.3424487
-0.37220713 0.10935441 -2.3381085
-0.36862469 0.10709956 -2.3360903
-0.34972826 0.15643659 -2.3594131
-0.34707332 0.15168723 -2.3547294
-0.34800002 0.13374376 -2.3514686
-0.35210377 0.14262334 -2.350481
-0.35672578 0.12992179 -2.3533621
-0.35344067 0.11965725 -2.3508759
-0.36066812 0.12397808 -2.3505898
-0.35846013 0.11132023 -2.3529465
-0.35134065 0.1030612 -2.3490174
-0.35747665 0.098472595 -2.3435001
-0.3661412 0.099407047 -2.3505287
-0.32909042 0.16685724 -2.372411
-0.34572315 0.1474255 -2.3642211
-0.34436908 0.13464534 -2.362098
-0.35058936 0.13605073 -2.3632784
-0.34560251 0.13004586 -2.3630118
-0.35242644 0.12947112 -2.3598793
-0.34313181 0.12036443 -2.3625793
-0.3576113 0.11581421 -2.3588896
-0.34548238 0.10902277 -2.3628106
-0.35185146 0.11060494 -2.3580449
-0.35720286 0.10808149 -2.3577783
-0.35813275 0.10124302 -2.3593192
-0.33209285 0.18044537 -2.3810134
-0.33235386 0.17373192 -2.3807178
-0.32866558 0.15921688 -2.3786983
-0.3355549 0.15321109 -2.3780608
-0.33168358 0.13994595 -2.375869
-0.33912158 0.14704096 -2.3719699
-0.33898744 0.13626769 -2.3712952
-0.34189805 0.13624802 -2.3737209
-0.33671638 0.12565538 -2.3730814
-0.34909093 0.1239056 -2.3697996
-0.33424693 0.11922148 -2.367214
-0.34770763 0.11608651 -2.3680894
-0.3464798 0.10700351 -2.3702509
-0.35346884 0.098141849 -2.3650992
-0.32341856 0.16998243 -2.3866906
-0.32116455 0.15339625 -2.3848245
-0.33293527 0.15257722 -2.3839593
-0.31178844 0.14775363 -2.3799422
-0.32432824 0.14339742 -2.381434
-0.33237907 0.1430203 -2.3836408
-0.32106483 0.13136539 -2.3829265
-0.33557004 0.12997633 -2.3821955
-0.32840303 0.12785059 -2.3773696
-0.33659664 0.1253911 -2.3803525
-0.32512245 0.11575523 -2.3788698
-0.33794677 0.11099753 -2.3802958
-0.33822367 0.10858783 -2.3803186
-0.34758094 0.10225302 -2.374176
-0.31710875 0.17669672 -2.4008253
-0.31937206 0.16948017 -2.400851
-0.32318267 0.17055327 -2.3964927
-0.31861767 0.15991768 -2.3982787
-0.3255198 0.15791383 -2.392375
-0.30973828 0.15021196 -2.3922453
-0.32416129 0.14894304 -2.3950748
-0.30650911 0.13830602 -2.3937225
-0.3242532 0.14227572 -2.3949466
-0.32978767 0.14398888 -2.3926032
-0.31682104 0.13351163 -2.3917437
-0.32679924 0.12766635 -2.3949921
-0.33062977 0.13195539 -2.3899238
-0.3318533 0.12358013 -2.3901885
-0.32303968 0.11825272 -2.3913689
-0.3310087 0.1109859 -2.3908899
-0.34006214 0.10562634 -2.3867927
-0.33567035 0.098379076 -2.3818371
-0.29649189 0.17630321 -2.4096968
-0.30290523 0.17951733 -2.411588
-0.30875945 0.17633894 -2.4070699
-0.30378675 0.16784653 -2.4084139
-0.30947301 0.16409481 -2.4054618
-0.31084242 0.15583369 -2.4024901
-0.3104454 0.15010321 -2.4043078
-0.31425002 0.15184709 -2.4052429
-0.30445895 0.14076442 -2.4060256
-0.31211838 0.14185393 -2.4062996
-0.31993508 0.13816971 -2.4059138
-0.32324824 0.14193431 -2.4015639
-0.32497349 0.13027555 -2.4002712
-0.32095698 0.12075025 -2.403868
-0.32370207 0.11485139 -2.3963437
-0.32988808 0.11275771 -2.3975174
-0.33215854 0.10290304 -2.3959408
-0.3035228 0.18572924 -2.4201241
-0.30513126 0.17705187 -2.4140184
-0.30993405 0.16563445 -2.4169114
-0.30596912 0.15560493 -2.4144297
-0.31020901 0.15824613 -2.4176283
-0.29052114 0.14969409 -2.416486
-0.30543053 0.15033516 -2.4171519
-0.31031993 0.1500856 -2.4167325
-0.31256077 0.13918412 -2.4146698
-0.30638048 0.12782806 -2.4145734
-0.31777301 0.13161987 -2.4106231
-0.31437272 0.12052548 -2.4099422
-0.31975654 0.11512932 -2.406312
-0.32206389 0.09600535 -2.4077163
-0.29121915 0.18266955 -2.4293358
-0.28773174 0.17193583 -2.427351
-0.29653451 0.17856041 -2.4261563
-0.28790137 0.16827205 -2.4267864
-0.29821271 0.16878605 -2.4237239
-0.30385274 0.16540435 -2.4251363
-0.28469202 0.15811962 -2.427918
-0.29766661 0.15804735 -2.4218812
-0.30292782 0.15449005 -2.4250793
-0.30288786 0.14543325 -2.4188027
-0.29150286 0.13455862 -2.4250698
-0.30929604 0.13895863 -2.4187515
-0.29917964 0.13131684 -2.4198058
-0.30052942 0.13320002 -2.4159677
-0.31472236 0.12876844 -2.4179716
-0.29963163 0.12134302 -2.4161515
-0.31237328 0.12004742 -2.4174008
-0.3172819 0.11226937 -2.4188802
-0.282107 0.192193 -2.4378743
-0.28794459 0.19117123 -2.4374409
-0.28268999 0.18469894 -2.4392028
-0.28834715 0.1789104 -2.4389286
-0.27803493 0.17098713 -2.4368396
-0.28095046 0.17371428 -2.4363697
-0.29198992 0.17210656 -2.4341481
-0.29695234 0.17283022 -2.4340653
-0.29101798 0.16810328 -2.4390426
-0.29567429 0.16291511 -2.4336407
-0.27605447 0.15590391 -2.4341037
-0.28531367 0.15036082 -2.4374816
-0.28889912 0.15417635 -2.4355175
-0.29924801 0.15607905 -2.4343743
-0.28582704 0.14303392 -2.4358115
-0.29122064 0.14934611 -2.4369781
-0.30110455 0.14460781 -2.4329212
-0.28247628 0.13591716 -2.4341719
-0.29713392 0.13255447 -2.4336727
-0.30429345 0.13706562 -2.4326029
-0.30131051 0.12728548 -2.4320717
-0.3032892 0.11634248 -2.427912
-0.31060225 0.11766723 -2.426362
-0.30646962 0.110921 -2.4283905
-0.31287307 0.10506299 -2.4277782
-0.31836915 0.069671214 -2.4242599
-0.2720688 0.19680649 -2.4534903
-0.27479166 0.1900548 -2.4490156
-0.28163216 0.19112578 -2.4477053
-0.27003211 0.17889073 -2.445565
-0.27817556 0.17859629 -2.4476328
-0.27285287 0.17394486 -2.4445896
-0.2825942 0.17515653 -2.4463987
-0.28964362 0.17407444 -2.4444036
-0.27517796 0.16619334 -2.448941
-0.28387472 0.16330367 -2.4434488
-0.29035354 0.16167033 -2.4416287
-0.27628708 0.15171936 -2.4465835
-0.28247911 0.15297833 -2.4416842
-0.29036418 0.15639964 -2.44556
-0.27753565 0.14337072 -2.4422965
-0.28929043 0.14408684 -2.441565
-0.29758275 0.14008608 -2.4416742
-0.2902675 0.13446707 -2.4414554
-0.29493511 0.13536447 -2.4374313
-0.28559846 0.12851754 -2.4435327
-0.29465395 0.12557495 -2.4422011
-0.29250622 0.11923075 -2.4337907
-0.29899329 0.11707923 -2.4395144
-0.31023037 0.10155454 -2.4318666
-0.3143062 0.085690916 -2.4281218
-0.26309824 0.19815665 -2.4625359
-0.26782805 0.19763809 -2.4578378
-0.27600905 0.1981253 -2.4582822
-0.26311049 0.18703133 -2.457937
-0.26760077 0.18847615 -2.4591541
-0.27500331 0.19206566 -2.4561133
-0.26027846 0.18380263 -2.4592469
-0.26990861 0.18013152 -2.4538038
-0.27768824 0.1771954 -2.455354
-0.26411858 0.17409778 -2.4569013
-0.26873413 0.16850364 -2.456378
-0.27397737 0.17002076 -2.4539905
-0.2805604 0.16914326 -2.4542093
-0.26438862 0.15714839 -2.4550617
-0.270962 0.16079885 -2.453481
-0.27418762 0.15988305 -2.4546368
-0.2825177 0.16106492 -2.4536872
-0.26956427 0.15117493 -2.4547839
-0.27580512 0.15537843 -2.4553511
-0.28215373 0.15258276 -2.4537258
-0.2866706 0.15354353 -2.4518993
-0.26996341 0.14220899 -2.4536912
-0.28205419 0.14342949 -2.4522648
-0.26882827 0.13545579 -2.4544489
-0.27919671 0.13208896 -2.4509828
-0.28954998 0.13601309 -2.4475288
-0.28342283 0.1205979 -2.4429502
-0.29029679 0.12484324 -2.4480598
-0.2970593 0.12282464 -2.4450712
-0.29715222 0.11117899 -2.4444013
-0.25498447 0.19874808 -2.4698002
-0.26273352 0.19976363 -2.4681222
-0.2548995 0.19085702 -2.4682364
-0.26119953 0.18929639 -2.4693222
-0.26778448 0.18851304 -2.4687819
-0.25174621 0.17644027 -2.4653902
-0.25469339 0.17965388 -2.4645727
-0.26286227 0.17475379 -2.468473
-0.26940003 0.1790531 -2.4654193
-0.27366894 0.18150353 -2.4646423
-0.26279798 0.16950354 -2.4676456
-0.26969892 0.1691587 -2.4665473
-0.27636561 0.17178425 -2.4646342
-0.2485929 0.16202357 -2.462544
-0.26335126 0.15928161 -2.4668148
-0.26937279 0.15807018 -2.4673197
-0.27561507 0.158411 -2.4669392
-0.2616303 0.15251413 -2.4573569
-0.27655736 0.14951906 -2.4593668
-0.26161569 0.14446416 -2.463973
-0.26871297 0.14309362 -2.4643266
-0.27898538 0.14144102 -2.4577653
-0.28136805 0.14177087 -2.4637589
-0.25842512 0.13247377 -2.4576645
-0.27124128 0.12795636 -2.4605508
-0.27779141 0.13388008 -2.4551523
-0.28355509 0.13114133 -2.4591613
-0.28743735 0.13142994 -2.4577804
-0.29032132 0.12316555 -2.4561038
-0.24846792 0.19498757 -2.4772713
-0.25813243 0.19235533 -2.4810748
-0.26205036 0.19692078 -2.4790485
-0.24498414 0.18492287 -2.4718392
-0.25387365 0.18321595 -2.4796703
-0.26338226 0.18698895 -2.478272
-0.24298333 0.17825794 -2.4749072
-0.24752763 0.17857999 -2.4773357
-0.25711533 0.17830622 -2.4738767
-0.26132309 0.17833135 -2.474442
-0.2688365 0.17948258 -2.4730284
-0.24404548 0.16420162 -2.4750824
-0.25327176 0.16905868 -2.4742246
-0.26475555 0.17153606 -2.4776073
-0.26795453 0.1673488 -2.4762657
-0.2567721 0.16118827 -2.4765217
-0.2508699 0.15067685 -2.4733
-0.26255539 0.14894783 -2.4717216
-0.27448624 0.14912343 -2.4702711
-0.26393607 0.13793999 -2.4671476
-0.26765355 0.13782558 -2.4665725
-0.2556192 0.13495553 -2.4699924
-0.27134126 0.13417691 -2.4681065
-0.27492326 0.1295079 -2.4689732
-0.27812162 0.12108505 -2.4644346
-0.28341708 0.12412459 -2.4644647
-0.28598958 0.12006921 -2.463587
-0.29561049 0.072061032 -2.4606783
-0.24324217 0.20142946 -2.4907665
-0.24271435 0.19519934 -2.4898057
-0.24934469 0.19309399 -2.4862731
-0.25505382 0.19889486 -2.4862134
-0.23640463 0.18687686 -2.4816511
-0.24786635 0.18366897 -2.4888053
-0.25695008 0.18585351 -2.4833181
-0.25511801 0.17559829 -2.4821398
-0.24370386 0.16313925 -2.4841893
-0.24896313 0.16808608 -2.4818592
-0.25598711 0.16893858 -2.4831634
-0.26134452 0.16754052 -2.4827838
-0.24759188 0.15662637 -2.4859478
-0.25733098 0.15473908 -2.4844849
-0.26212001 0.15750805 -2.4792414
-0.26810259 0.15872678 -2.4796741
-0.25331587 0.14598632 -2.4839778
-0.26805609 0.14876619 -2.4786332
-0.24994434 0.14060104 -2.4829187
-0.25548697 0.14002907 -2.4797959
-0.26312521 0.13765538 -2.4792223
-0.26880693 0.13820124 -2.4786789
-0.26261687 0.12901339 -2.4734406
-0.26988715 0.12777162 -2.4757607
-0.27530456 0.12859863 -2.476388
-0.25754577 0.1215716 -2.4789615
-0.26758492 0.12313208 -2.4764991
-0.2753793 0.11900255 -2.475431
-0.27608246 0.11083084 -2.4757285
-0.28635183 0.073454559 -2.4700143
-0.29561436 0.049399883 -2.4667158
-0.29940039 0.0064791739 -2.4604337
-0.2344189 0.19744045 -2.5000229
-0.24247636 0.20194295 -2.4982634
-0.24680924 0.19912493 -2.4963214
-0.24072021 0.19286343 -2.5002315
-0.24839652 0.19353566 -2.4961872
-0.236829 0.18739945 -2.498714
-0.24195921 0.18392271 -2.4969435
-0.24910858 0.1827009 -2.4932649
-0.23740101 0.17138353 -2.4928489
-0.24803373 0.17443445 -2.4944882
-0.25519079 0.17343023 -2.4943192
-0.23488575 0.1649684 -2.4937661
-0.24007662 0.16569862 -2.4970846
-0.24688941 0.16619182 -2.4935572
-0.25650814 0.16345358 -2.4912579
-0.24371792 0.15891519 -2.4939609
-0.24703962 0.15992334 -2.49523
-0.25486434 0.15581855 -2.4911847
-0.2613852 0.15453976 -2.4906294
-0.24444176 0.14782712 -2.4936152
-0.25550699 0.14512619 -2.4887798
-0.2620593 0.14549455 -2.4917626
-0.25443769 0.14040384 -2.4850051
-0.26357284 0.13902488 -2.4877634
-0.2542161 0.1312829 -2.4837875
-0.26129198 0.12577769 -2.4902456
-0.26250738 0.12260869 -2.4845853
-0.27046698 0.11690232 -2.4821634
-0.2685695 0.10871598 -2.4867482
-0.2770932 0.074848056 -2.4793506
-0.28702345 0.043753386 -2.4773602
-0.28116691 0.03239271 -2.4776127
-0.29663739 0.015708327 -2.4735491
-0.23359823 0.20897064 -2.5099742
-0.2283816 0.20144153 -2.5106828
-0.24107388 0.20262811 -2.5058856
-0.22780244 0.18875805 -2.5078161
-0.23215289 0.1920436 -2.5062954
-0.24159864 0.19276235 -2.5084434
-0.2292408 0.18130514 -2.506207
-0.24068139 0.18381977 -2.5039558
-0.24611393 0.18709275 -2.5036705
-0.23460841 0.17017916 -2.5076325
-0.24084803 0.1725454 -2.5040205
-0.24719723 0.17498997 -2.5017745
-0.22606768 0.16679755 -2.5033431
-0.24329975 0.16250092 -2.4989161
-0.24931975 0.16352421 -2.5025086
-0.23807772 0.15655234 -2.5004871
-0.24820261 0.15317112 -2.5010452
-0.25235069 0.15692359 -2.4990213
-0.24043563 0.14939049 -2.4998596
-0.24866803 0.14478227 -2.4989648
-0.25588125 0.14475319 -2.4986546
-0.24884681 0.13951254 -2.4973843
-0.25484192 0.13419977 -2.5015197
-0.25069821 0.12521246 -2.4920878
-0.25540462 0.12854284 -2.4961865
-0.27802795 0.058738202 -2.4886429
-0.28404257 0.030108362 -2.4783425
-0.29206687 0.0076270998 -2.4794188
-0.22151065 0.20839083 -2.5178614
-0.22584134 0.20882607 -2.5174403
-0.21328275 0.20029107 -2.5201402
-0.22030647 0.19883284 -2.5178132
-0.22776076 0.20236889 -2.5171466
-0.2335401 0.19904241 -2.5139554
-0.22325817 0.19024068 -2.5133939
-0.22733298 0.19223034 -2.5153537
-0.23549473 0.19114885 -2.5167775
-0.21852472 0.18449742 -2.5174327
-0.2255061 0.18105409 -2.5157235
-0.23537089 0.18004829 -2.5113912
-0.2415427 0.17855203 -2.5125265
-0.2199644 0.17574334 -2.5107446
-0.22956611 0.17090976 -2.5162086
-0.23441617 0.17415112 -2.5135276
-0.24026129 0.16875446 -2.512291
-0.22375327 0.16645908 -2.5138805
-0.23509501 0.16220888 -2.5110967
-0.24237327 0.16285828 -2.5117946
-0.24566767 0.15998447 -2.5121517
-0.23419757 0.15038729 -2.5122921
-0.23906383 0.15173978 -2.5077705
-0.24730383 0.15584221 -2.5080087
-0.2358336 0.14639461 -2.5135891
-0.24060002 0.14393941 -2.5110641
-0.24853572 0.1450834 -2.5078592
-0.24302199 0.13649082 -2.506259
-0.24805345 0.13274685 -2.5086808
-0.25159854 0.13195246 -2.5056705
-0.25101119 0.1278322 -2.5081134
-0.25518042 0.12837145 -2.5036302
-0.26870948 0.060140729 -2.4980395
-0.28008226 0.032599539 -2.4914384
-0.2677564 0.010213137 -2.4923813
-0.28659001 0.014772147 -2.4883125
-0.28420123 -0.0039545 -2.4908082
-0.20206796 0.20584428 -2.5283356
-0.20743284 0.20383066 -2.5274448
-0.22005169 0.20832616 -2.5275764
-0.22608033 0.21073866 -2.5260599
-0.21208625 0.20205635 -2.526567
-0.22291189 0.19659501 -2.5260344
-0.22474366 0.20079866 -2.5298467
-0.20771232 0.19013897 -2.5256026
-0.21265675 0.18992943 -2.5261381
-0.22023109 0.18877408 -2.5284185
-0.2330119 0.1884858 -2.5223389
-0.20491089 0.17731532 -2.5265253
-0.21133083 0.17770964 -2.5206182
-0.21994239 0.18214023 -2.5267236
-0.22713825 0.18295988 -2.523721
-0.23355968 0.18163493 -2.5226383
-0.21568558 0.17195076 -2.5187662
-0.22073989 0.16930303 -2.5238583
-0.22864836 0.16777563 -2.5217562
-0.23493689 0.16846985 -2.5250373
-0.23487458 0.16307768 -2.5205448
-0.2402522 0.16047037 -2.5199475
-0.21832703 0.15293697 -2.5228651
-0.22753322 0.15197712 -2.5205448
-0.23391587 0.15062553 -2.5200398
-0.24129075 0.14940393 -2.5188243
-0.23010208 0.14486313 -2.5173626
-0.24077214 0.13531095 -2.5186005
-0.24765091 0.13086456 -2.5165517
-0.26053953 0.06791088 -2.5079937
-0.25749287 0.055304945 -2.5093236
-0.27648202 0.0016398728 -2.4983621
-0.28534734 -0.0031802952 -2.4937599
-0.27346402 -0.011697143 -2.4997792
-0.28104997 -0.018277615 -2.491396
-0.28250676 -0.02990526 -2.4927838
-0.19671254 0.21799776 -2.5377004
-0.20786086 0.21748215 -2.5372384
-0.21130888 0.21687576 -2.5397511
-0.20020689 0.20713544 -2.5384405
-0.20656586 0.20459813 -2.5396247
-0.21403247 0.20618895 -2.5401869
-0.22154555 0.20350614 -2.5363703
-0.19923878 0.19243008 -2.5368807
-0.20499071 0.19332674 -2.5355256
-0.21592769 0.19889671 -2.5381365
-0.2194327 0.19848847 -2.5357037
-0.20092601 0.18912783 -2.5356162
-0.2071557 0.19042611 -2.5336194
-0.21315992 0.18770659 -2.5359728
-0.22154897 0.18675652 -2.5317457
-0.20269726 0.17967585 -2.5304918
-0.20771913 0.17415354 -2.5295625
-0.21236455 0.17457923 -2.5309851
-0.22364092 0.18240112 -2.5358789
-0.22593066 0.17473513 -2.5283937
-0.20863821 0.17187113 -2.5325003
-0.21406208 0.16833779 -2.5315745
-0.22024617 0.17074239 -2.5341845
-0.22679247 0.17084607 -2.5316572
-0.21147187 0.16383016 -2.5294299
-0.21762639 0.15856081 -2.528316
-0.22768842 0.15950954 -2.5291696
-0.23338625 0.16019204 -2.5293255
-0.20639771 0.15480071 -2.5291686
-0.22392625 0.14932492 -2.5268056
-0.22864996 0.15196887 -2.5278881
-0.23221739 0.15314785 -2.5273373
-0.22145404 0.14507994 -2.5301206
-0.22678603 0.14152893 -2.5253639
-0.23531501 0.13716105 -2.5293508
-0.23300582 0.13273871 -2.5241597
-0.24110329 0.13252285 -2.5238659
-0.23596069 0.1271154 -2.5233235
-0.23854351 0.12528157 -2.5254695
-0.27138492 0.019857109 -2.5071158
-0.27597833 -0.015702188 -2.5045605
-0.27955958 -0.02729848 -2.5057323
-0.18794963 0.21981549 -2.5472169
-0.18220584 0.21617699 -2.5530694
-0.1957712 0.21561298 -2.5514247
-0.20219463 0.21774304 -2.5528982
-0.20825844 0.2131032 -2.5500338
-0.19904195 0.20561481 -2.5470595
-0.20870517 0.20257577 -2.5478733
-0.21464579 0.20565939 -2.5452423
-0.18945934 0.19426739 -2.548856
-0.19512659 0.19450852 -2.5459828
-0.19675717 0.19613722 -2.5416751
-0.2038525 0.19304049 -2.545773
-0.21152689 0.19329804 -2.5446258
-0.19338115 0.18564352 -2.5434632
-0.19819365 0.18724161 -2.5423236
-0.20751901 0.18849921 -2.5431535
-0.21473008 0.18443465 -2.5435255
-0.20115425 0.17787308 -2.5445366
-0.20841166 0.18056414 -2.5413866
-0.22101212 0.17572436 -2.5401626
-0.19829901 0.16333839 -2.5412064
-0.20730464 0.16658905 -2.5392046
-0.21188246 0.16894576 -2.5419164
-0.22212322 0.16895783 -2.5397596
-0.21575432 0.1593008 -2.5422435
-0.21996406 0.15768364 -2.5376246
-0.22758776 0.15707332 -2.5384238
-0.21270996 0.14707139 -2.5401208
-0.22023034 0.14929521 -2.5383124
-0.22678331 0.14795518 -2.5361454
-0.21647528 0.14314258 -2.5371864
-0.21730916 0.13994828 -2.5374043
-0.22699271 0.1391353 -2.5355539
-0.22582597 0.13425571 -2.537725
-0.2311959 0.13513011 -2.5352476
-0.23985691 0.096224695 -2.5286252
-0.24979191 0.07431832 -2.5250373
-0.25071418 0.060212642 -2.5212774
-0.25600845 0.057271153 -2.5221479
-0.25486752 0.041367441 -2.5182939
-0.26069006 0.036788046 -2.519479
-0.26619968 0.010291874 -2.5195942
-0.26993379 -0.008903116 -2.512768
-0.26962754 -0.02139163 -2.5176215
-0.1885069 0.22378114 -2.5597816
-0.1975385 0.22200084 -2.5588312
-0.17245667 0.21357119 -2.5593977
-0.18507652 0.2104407 -2.5589814
-0.19312711 0.21072862 -2.5569019
-0.20071581 0.21298102 -2.5603821
-0.20697665 0.21024433 -2.557024
-0.18357448 0.20064244 -2.557204
-0.19136071 0.20583901 -2.5553253
-0.19955102 0.20189092 -2.5535717
-0.2077339 0.20347184 -2.5539849
-0.18116388 0.19650838 -2.5590732
-0.18872388 0.19810563 -2.5528886
-0.19340223 0.19576111 -2.5553806
-0.20119734 0.19406548 -2.5546615
-0.20433725 0.19349676 -2.5554378
-0.18882748 0.18350062 -2.5559092
-0.19872846 0.18210155 -2.5512404
-0.20632756 0.1844573 -2.5534999
-0.21419449 0.1844559 -2.5508943
-0.17350549 0.17597109 -2.5503366
-0.18630601 0.17223996 -2.5555701
-0.19226542 0.1747236 -2.5534565
-0.198338 0.17697448 -2.5484924
-0.20663504 0.17572945 -2.5500696
-0.2118385 0.17655361 -2.5504575
-0.19466557 0.16917422 -2.5520632
-0.20093721 0.16761193 -2.5507927
-0.20703477 0.16451582 -2.5519145
-0.21186797 0.16782838 -2.5500112
-0.21898246 0.16565013 -2.5486946
-0.19119707 0.1588718 -2.551441
-0.20647362 0.1602608 -2.5448015
-0.21358517 0.15834814 -2.5482798
-0.21972533 0.1568501 -2.5481632
-0.19872481 0.14809436 -2.5507457
-0.20939702 0.15114373 -2.5463164
-0.21414773 0.14669418 -2.5495265
-0.22023304 0.14986786 -2.5502572
-0.21151926 0.14255133 -2.549777
-0.22127932 0.13614923 -2.5482466
-0.22549425 0.14200228 -2.5472715
-0.22003883 0.12996969 -2.5475619
-0.2398569 0.081022352 -2.5385699
-0.24297839 0.062946945 -2.5369616
-0.24977279 0.044234693 -2.5331907
-0.25081864 0.036204457 -2.5266078
-0.25473958 0.027813613 -2.5302594
-0.26340178 -0.002912432 -2.5264606
-0.26184508 -0.017586768 -2.5274932
-0.26532766 -0.033081889 -2.5246778
-0.17119858 0.2260496 -2.5729403
-0.17940453 0.21877375 -2.5719225
-0.18267858 0.22129518 -2.5693958
-0.19377112 0.21867147 -2.5656168
-0.19809937 0.21882892 -2.5673869
-0.17973635 0.21156085 -2.5655677
-0.18638057 0.21488389 -2.5683899
-0.1914209 0.21205062 -2.5675139
-0.19984838 0.21064913 -2.5663102
-0.17989288 0.20295832 -2.5693781
-0.18584204 0.19986176 -2.5663176
-0.19320254 0.20245743 -2.5659986
-0.19747438 0.19957703 -2.5648072
-0.18144777 0.19036371 -2.5611086
-0.18870962 0.18991205 -2.566843
-0.19113207 0.19074568 -2.5667067
-0.19862467 0.19200841 -2.5651963
-0.2052692 0.19409958 -2.5609801
-0.18732622 0.18516815 -2.5648322
-0.19185039 0.18386167 -2.5623097
-0.19897059 0.18185905 -2.5620155
-0.20440532 0.18795669 -2.5602093
-0.17315903 0.17777249 -2.5608037
-0.18628278 0.1746859 -2.5642004
-0.19339146 0.17446387 -2.5610757
-0.20054573 0.17670757 -2.5638533
-0.20632586 0.17232582 -2.5574851
-0.18232293 0.16071257 -2.5610788
-0.18621668 0.16659278 -2.5583062
-0.19245706 0.16409716 -2.5633154
-0.19845638 0.16337115 -2.56163
-0.20941725 0.16248047 -2.5584757
-0.19588704 0.15329492 -2.5609655
-0.2010504 0.15712938 -2.5573318
-0.20580307 0.15600729 -2.5581634
-0.21365631 0.15568185 -2.5586298
-0.19541082 0.14716944 -2.5562155
-0.20761406 0.15011421 -2.559999
-0.21125343 0.14598987 -2.5545268
-0.217801 0.14432761 -2.5578806
-0.21169426 0.13544667 -2.5555878
-0.21948667 0.13274401 -2.5520778
-0.22950161 0.080566406 -2.5499563
-0.23902337 0.062197506 -2.5469673
-0.24731098 0.026885927 -2.5385036
-0.25162372 0.030144155 -2.5361898
-0.25036809 0.01763919 -2.5365882
-0.24695385 0.0039458871 -2.536782
-0.25537771 0.0014210045 -2.5309782
-0.24270785 -0.012529284 -2.537179
-0.25720733 -0.028542399 -2.5291643
-0.17961568 0.22858357 -2.5791769
-0.18635865 0.22640169 -2.5801022
-0.17386049 0.22312433 -2.5789726
-0.18054187 0.2194705 -2.574264
-0.18685383 0.21707287 -2.5781224
-0.17068732 0.20861685 -2.5761085
-0.17901501 0.21054095 -2.5753992
-0.18507947 0.20918638 -2.5783296
-0.19009553 0.21065581 -2.5762558
-0.17485173 0.20420024 -2.5715606
-0.17678154 0.19932523 -2.5744464
-0.18557109 0.19807976 -2.5760705
-0.1924099 0.20220262 -2.5764968
-0.19752055 0.20240593 -2.5715778
-0.17297602 0.18868971 -2.5717809
-0.18028009 0.19229826 -2.5745337
-0.18865344 0.18848467 -2.5771625
-0.19188802 0.19148937 -2.5710046
-0.19783601 0.19355905 -2.5748572
-0.17435068 0.17758906 -2.5712044
-0.18164255 0.18148488 -2.5690556
-0.1846904 0.18348959 -2.5712662
-0.19294848 0.18286279 -2.5726705
-0.1988762 0.18349466 -2.5716755
-0.19205834 0.1719878 -2.5698054
-0.20228261 0.17419842 -2.5729158
-0.20477307 0.17285699 -2.5699291
-0.1813392 0.16472286 -2.5686629
-0.1833159 0.16547292 -2.5725327
-0.19337173 0.16363043 -2.5666571
-0.19829413 0.16599289 -2.5656924
-0.1877937 0.15597701 -2.5670185
-0.20014739 0.1549834 -2.568635
-0.20461601 0.1576103 -2.5644112
-0.18701006 0.14943889 -2.5665624
-0.19177152 0.14652738 -2.5651169
-0.20263676 0.14443469 -2.5672593
-0.20682842 0.14714983 -2.5624011
-0.20704642 0.13845572 -2.5682263
-0.22343242 0.074490458 -2.5605607
-0.24279758 0.019724786 -2.5507712
-0.24455196 0.0082590282 -2.5481012
-0.19443819 -0.00011274219 -2.5487461
-0.20597677 -0.0019999444 -2.5414186
-0.24681795 -0.0011928082 -2.5474842
-0.24939902 -0.0087599158 -2.5450578
-0.16504239 0.22495353 -2.5885491
-0.17439498 0.22581634 -2.5877197
-0.17917316 0.22233874 -2.5901544
-0.16708605 0.21693528 -2.5834594
-0.17355146 0.21791846 -2.5855701
-0.17734063 0.21740034 -2.586484
-0.16551527 0.2059263 -2.5853767
-0.17131393 0.21094507 -2.5857863
-0.18115032 0.21160722 -2.5893767
-0.18743186 0.20749694 -2.5838077
-0.17387417 0.20233929 -2.5845969
-0.17901771 0.20082876 -2.5823843
-0.18557745 0.19908652 -2.5844264
-0.17081973 0.1901128 -2.5843978
-0.17975369 0.19008604 -2.5806508
-0.1870015 0.19040745 -2.5817311
-0.16667688 0.17642921 -2.5849776
-0.17329481 0.18374005 -2.5793371
-0.17930979 0.18036717 -2.5834033
-0.18644865 0.18296301 -2.5821731
-0.19405368 0.18245971 -2.5778236
-0.17417477 0.16684872 -2.5817506
-0.17987829 0.17125258 -2.5817788
-0.18548653 0.17287046 -2.5804334
-0.19334882 0.17195863 -2.5801148
-0.17912608 0.16520619 -2.58008
-0.18824786 0.16417593 -2.5780122
-0.19221184 0.16260055 -2.5773537
-0.18572858 0.1491982 -2.577244
-0.19252358 0.15122813 -2.5772948
-0.20196977 0.15050849 -2.5748382
-0.19925031 0.14582986 -2.5773301
-0.20259154 0.09311071 -2.5732341
-0.22638521 0.067369968 -2.562572
-0.23221427 0.043824404 -2.5572505
-0.23992795 -0.00035828352 -2.55217
-0.21699664 -0.010835797 -2.550669
-0.24793003 -0.010584414 -2.5514877
-0.15222548 0.22430798 -2.6006787
-0.16032335 0.22466975 -2.6000288
-0.16530985 0.2274133 -2.5964479
-0.17090932 0.22430995 -2.5998149
-0.15748334 0.2204679 -2.5950327
-0.1647546 0.21402934 -2.5952187
-0.17192984 0.21855351 -2.5965912
-0.18021558 0.21341428 -2.5926471
-0.15948537 0.20991912 -2.5957508
-0.1667888 0.20612973 -2.5960538
-0.1702956 0.20510811 -2.590328
-0.17843534 0.2062535 -2.5940917
-0.16208726 0.19543439 -2.5957558
-0.16845122 0.2004641 -2.591886
-0.17149559 0.1978668 -2.5933576
-0.17847982 0.19731602 -2.5904131
-0.16494709 0.18599519 -2.5896187
-0.17209843 0.18838871 -2.5919747
-0.18299374 0.1912007 -2.5886831
-0.15889391 0.18083465 -2.5928738
-0.16832185 0.18179059 -2.5927887
-0.17870693 0.17662963 -2.5922487
-0.18749662 0.18111178 -2.588203
-0.17161131 0.17036799 -2.5914629
-0.18040454 0.17122599 -2.5895107
-0.18610518 0.16649336 -2.5894423
-0.17696232 0.16183138 -2.5836797
-0.18739744 0.15796787 -2.5888422
-0.17664431 0.15566346 -2.5863142
-0.19235632 0.14890677 -2.5853777
-0.19441035 0.14171156 -2.5860229
-0.20175838 0.13497007 -2.5831556
-0.21680029 0.064846486 -2.571595
-0.21849234 0.056535006 -2.5710232
-0.21388257 0.05195263 -2.5729651
-0.22333424 0.031891018 -2.5704596
-0.23079143 0.0024187565 -2.5663574
-0.23601043 0.0053482056 -2.562577
-0.22287785 -0.0084006786 -2.5593512
-0.23685229 -0.0070269406 -2.5629871
-0.23554255 -0.014541119 -2.5634406
-0.24177468 -0.015304923 -2.5602529
-0.15286705 0.23452619 -2.6055269
-0.15744266 0.23346707 -2.6096501
-0.16517109 0.23467514 -2.6064837
-0.1469973 0.22099754 -2.6062889
-0.15420604 0.22011539 -2.6038458
-0.1578685 0.22344187 -2.6054733
-0.16838558 0.22018999 -2.606216
-0.15434168 0.21255669 -2.6057291
-0.15760034 0.21431783 -2.6056578
-0.16488457 0.21707124 -2.6044745
-0.17411841 0.21519291 -2.6026356
-0.15512612 0.20695487 -2.6068079
-0.15821806 0.20608264 -2.6030021
-0.16544501 0.20699993 -2.6042507
-0.16913077 0.2108843 -2.6014085
-0.15321313 0.19727519 -2.6053936
-0.16163927 0.19885427 -2.6068892
-0.16612974 0.19658372 -2.6038415
-0.17137852 0.19494462 -2.6022289
-0.15266615 0.19085184 -2.6049664
-0.15888277 0.18600318 -2.6031413
-0.16387609 0.18780813 -2.6020291
-0.17103279 0.1868521 -2.6018951
-0.1785188 0.1837489 -2.6002774
-0.16358149 0.17370257 -2.6028047
-0.17124516 0.17837715 -2.5962796
-0.1807524 0.17824578 -2.6032832
-0.15910043 0.16553649 -2.6030781
-0.16675946 0.17203769 -2.5987132
-0.17271022 0.16932726 -2.6011455
-0.17834359 0.16897631 -2.6012836
-0.16701452 0.15986988 -2.5943999
-0.17544988 0.16418442 -2.5943553
-0.18144941 0.15992871 -2.5997651
-0.18601243 0.15882227 -2.594022
-0.18155058 0.15425423 -2.5929577
-0.18654507 0.15119198 -2.5984087
-0.19092737 0.14648148 -2.59654
-0.18447226 0.14256901 -2.5906322
-0.19167204 0.14097574 -2.5949736
-0.198682 0.1045641 -2.5895376
-0.2031741 0.09431535 -2.5908153
-0.20046338 0.085137576 -2.5900667
-0.20456351 0.074627221 -2.5861046
-0.20646755 0.067292452 -2.5809917
-0.21046968 0.054653823 -2.5855224
-0.21588466 0.037515491 -2.5831137
-0.22043118 0.018204898 -2.5803034
-0.22602677 0.012586147 -2.5751319
-0.15221064 0.23185489 -2.6180532
-0.15757173 0.23305899 -2.6168058
-0.14483677 0.22675857 -2.6152802
-0.15198348 0.2227129 -2.6160212
-0.15753584 0.22204587 -2.6148064
-0.16404326 0.22186875 -2.6173246
-0.13744812 0.21461555 -2.6170001
-0.14753234 0.21371558 -2.6179135
-0.15173766 0.21366096 -2.6143289
-0.15667038 0.21501827 -2.61502
-0.16451263 0.21348125 -2.6102405
-0.13268116 0.20310539 -2.616281
-0.15112947 0.20423391 -2.6145587
-0.15751867 0.20510429 -2.6152267
-0.16419703 0.20480984 -2.6132927
-0.14549156 0.19767007 -2.6160927
-0.15263709 0.19181165 -2.6152754
-0.15787555 0.1950345 -2.6135819
-0.16654716 0.19450638 -2.6167421
-0.17084917 0.19759884 -2.6131318
-0.14962476 0.18560311 -2.6127553
-0.15626544 0.18554661 -2.6128988
-0.16538678 0.18728575 -2.6121039
-0.16985278 0.18731573 -2.6137979
-0.15483741 0.17569396 -2.6128044
-0.15693344 0.17307776 -2.6102314
-0.16732036 0.17732102 -2.6108997
-0.1727031 0.17493576 -2.6117933
-0.17824078 0.17643085 -2.6062632
-0.13795236 0.16991645 -2.6092665
-0.15429094 0.16788381 -2.6100547
-0.16600546 0.16707441 -2.607429
-0.1715129 0.1629687 -2.6064973
-0.16573323 0.15542561 -2.6103041
-0.17097214 0.15921444 -2.6058371
-0.17826642 0.15937132 -2.6047103
-0.18265195 0.15858659 -2.6025534
-0.17835811 0.14733949 -2.606302
-0.18882135 0.12386289 -2.6042657
-0.1930216 0.11100447 -2.5990424
-0.18833172 0.10400271 -2.5991158
-0.19248295 0.1028299 -2.5995157
-0.18808514 0.091065049 -2.5970066
-0.18999967 0.097269148 -2.599606
-0.18913369 0.087612897 -2.5986521
-0.19108428 0.086549163 -2.5995247
-0.1981388 0.083807021 -2.5966389
-0.20823282 0.053664029 -2.5887024
-0.20861074 0.032714278 -2.5853331
-0.21345679 0.016436279 -2.5862494
-0.22100002 0.013225347 -2.584013
-0.22329332 -0.0030469894 -2.5859685
-0.22435808 -0.016450256 -2.5795853
-0.14464481 0.23964766 -2.62853
-0.15276788 0.24086323 -2.6297827
-0.13380861 0.23170489 -2.6272635
-0.13759138 0.23254463 -2.6280479
-0.14374021 0.22996292 -2.6266582
-0.15183739 0.22621173 -2.6272328
-0.13092202 0.21858466 -2.6278019
-0.14481935 0.22460589 -2.6274002
-0.15290032 0.22413054 -2.6260991
-0.15493035 0.22482011 -2.6229663
-0.13900228 0.21349257 -2.6277659
-0.14565064 0.21141353 -2.6269345
-0.15017636 0.21216658 -2.6261806
-0.13653696 0.19917464 -2.6187596
-0.14620976 0.19983366 -2.6236441
-0.15233143 0.20365533 -2.6247478
-0.15741369 0.20406014 -2.6217911
-0.14071073 0.19667605 -2.6237161
-0.15104285 0.19188476 -2.6242523
-0.15543763 0.19697163 -2.6212244
-0.16315071 0.19355503 -2.6229403
-0.15257935 0.1863586 -2.6192162
-0.16184896 0.18065262 -2.6193936
-0.16453265 0.18598801 -2.6188486
-0.14609334 0.17768535 -2.6228046
-0.151301 0.17729434 -2.6183343
-0.15983458 0.17480025 -2.6183672
-0.16326997 0.18013749 -2.6165755
-0.15124464 0.16524613 -2.6165988
-0.15946993 0.16739357 -2.6149845
-0.17130309 0.16220847 -2.6163108
-0.15715915 0.15911275 -2.6177323
-0.16395035 0.15826261 -2.6130862
-0.17156988 0.15558249 -2.6143053
-0.16800565 0.14775082 -2.616143
-0.17178889 0.14736018 -2.6168654
-0.17790091 0.11467931 -2.6145368
-0.18254595 0.12271696 -2.6137102
-0.19131747 0.10757738 -2.6051149
-0.18391491 0.10210186 -2.6108913
-0.18914934 0.086161673 -2.6080182
-0.19210571 0.081390262 -2.6053519
-0.18994537 0.076766282 -2.6071267
-0.19974227 0.070978135 -2.6020296
-0.19794764 0.053775579 -2.5967696
-0.21012288 0.028319567 -2.5949435
-0.20551829 0.015412688 -2.5965147
-0.21537264 0.0086748898 -2.5938468
-0.21372898 -0.010977089 -2.5956168
-0.12010809 0.2358813 -2.641439
-0.12916288 0.23406401 -2.6393223
-0.13842335 0.23896751 -2.6397321
-0.14400786 0.24064267 -2.6375041
-0.13297746 0.23199695 -2.6400709
-0.13718614 0.22799954 -2.6393313
-0.14218256 0.22679871 -2.6330373
-0.12978412 0.21739715 -2.6371887
-0.13910173 0.22281677 -2.6362722
-0.14479057 0.220294 -2.6364181
-0.1499631 0.22156322 -2.6351023
-0.12923381 0.21181637 -2.6344209
-0.13679895 0.21056944 -2.6364396
-0.14627159 0.2080439 -2.6365106
-0.15319344 0.20968369 -2.6365025
-0.1336316 0.19936919 -2.6348414
-0.14097121 0.19866976 -2.6367581
-0.14659892 0.20487201 -2.6359937
-0.15043761 0.20246094 -2.6283176
-0.13417307 0.18947032 -2.6265569
-0.14068522 0.19435957 -2.6354878
-0.14562508 0.19220304 -2.630939
-0.15191224 0.19365683 -2.6321537
-0.15919551 0.18863171 -2.6316099
-0.137766 0.1822651 -2.6312723
-0.14629416 0.18400547 -2.6302414
-0.14838225 0.1817981 -2.6282432
-0.15744586 0.18279183 -2.6312881
-0.14054778 0.17178756 -2.6321142
-0.14549275 0.17161089 -2.6288309
-0.15429763 0.17365858 -2.6291089
-0.15707411 0.17308804 -2.6274188
-0.16680819 0.17309418 -2.6232827
-0.15161644 0.1646125 -2.6279728
-0.16753787 0.16399652 -2.6246395
-0.15515023 0.16026676 -2.6231503
-0.16104229 0.15058792 -2.6277435
-0.16658537 0.15814999 -2.6239169
-0.16879576 0.11656803 -2.6244249
-0.18052989 0.088490278 -2.618634
-0.18742046 0.092038602 -2.6147158
-0.17883237 0.078454912 -2.614629
-0.18409584 0.081569165 -2.6121879
-0.19188395 0.082369864 -2.6102338
-0.19055988 0.071048021 -2.6097798
-0.17906645 0.056617379 -2.6158087
-0.19456637 0.043949395 -2.6102269
-0.20095995 0.036047667 -2.6077535
-0.19995907 0.02336815 -2.6055863
-0.20606206 0.025040805 -2.603981
-0.20721672 -0.00057029724 -2.6053822
-0.13116544 0.24429271 -2.6490562
-0.13656473 0.24494091 -2.6497982
-0.1229461 0.23311484 -2.6468921
-0.13356625 0.23994425 -2.6483665
-0.13550608 0.23625594 -2.6499205
-0.13148543 0.22746888 -2.6454282
-0.1294155 0.2200869 -2.6439629
-0.13814521 0.21521989 -2.6408105
-0.14521982 0.21899933 -2.6403027
-0.12671259 0.21173999 -2.6432934
-0.13074274 0.20953536 -2.6411421
-0.13703054 0.21002087 -2.6470029
-0.14420541 0.21053836 -2.6421025
-0.12529634 0.20422831 -2.6427796
-0.13125239 0.1990774 -2.6432462
-0.13853264 0.19895169 -2.6398807
-0.14633134 0.2012288 -2.6388597
-0.14891481 0.20184878 -2.6439524
-0.12250481 0.19039732 -2.6432819
-0.13171981 0.19103438 -2.6391692
-0.14615515 0.19105861 -2.6392217
-0.15214093 0.18941474 -2.6407001
-0.13727243 0.18238476 -2.6382442
-0.14603265 0.18356836 -2.6381834
-0.15144832 0.18139684 -2.6392801
-0.12972137 0.17348272 -2.6423259
-0.13863386 0.17429465 -2.6380355
-0.14557597 0.17386058 -2.638382
-0.15187615 0.17175645 -2.6360412
-0.14502633 0.16582537 -2.6388564
-0.15012479 0.16720158 -2.6394262
-0.15744597 0.16110218 -2.6356678
-0.15407895 0.15342504 -2.6393442
-0.15956214 0.15377763 -2.6335702
-0.16568218 0.13361627 -2.6351748
-0.17207225 0.13154775 -2.6273825
-0.17516547 0.11396778 -2.6246316
-0.17394701 0.099271655 -2.6271882
-0.17967284 0.09886086 -2.6240015
-0.17191043 0.090818882 -2.6292505
-0.17999218 0.088426769 -2.6247914
-0.17766865 0.082787842 -2.6229708
-0.18216634 0.07315594 -2.6203125
-0.18535161 0.062107444 -2.6230886
-0.16833512 0.053314239 -2.6161878
-0.18114902 0.049934924 -2.6198339
-0.18807203 0.049342483 -2.6215494
-0.18643108 0.041152239 -2.6201901
-0.1950953 0.033395976 -2.6163092
-0.19438909 0.021997035 -2.6199825
-0.19486924 0.013838738 -2.6154842
-0.20111749 0.014126182 -2.6114588
-0.19086102 -0.00078132749 -2.6151485
-0.19669409 -0.0039091706 -2.610086
-0.20711644 -0.0055743158 -2.6098711
-0.13043046 0.24147761 -2.6567852
-0.12525906 0.23441711 -2.6537855
-0.1288659 0.23617017 -2.6613133
-0.13403076 0.2287108 -2.6567678
-0.13602068 0.22880125 -2.6570015
-0.12497136 0.21863085 -2.6530461
-0.13063496 0.2206035 -2.6497276
-0.13897739 0.2197381 -2.6522667
-0.13010521 0.21039996 -2.648818
-0.13814403 0.20951158 -2.6524286
-0.1258397 0.19535393 -2.6497488
-0.12901689 0.19824535 -2.6486573
-0.13567764 0.20174825 -2.6508336
-0.1441246 0.19869468 -2.6524897
-0.11765944 0.18949255 -2.6544755
-0.13666046 0.19039825 -2.6485999
-0.14250825 0.18859655 -2.6511633
-0.11971329 0.1765663 -2.6437843
-0.12421817 0.18201679 -2.6479769
-0.13250819 0.17877665 -2.6485755
-0.14432354 0.17912865 -2.6452544
-0.13739556 0.17232707 -2.6482701
-0.15065086 0.17415974 -2.6439133
-0.140854 0.16227466 -2.644475
-0.14530922 0.16019532 -2.6481662
-0.15107945 0.16258249 -2.6465373
-0.15628751 0.15857485 -2.6411116
-0.15579323 0.15550256 -2.6428821
-0.15732253 0.13156047 -2.6406627
-0.16424437 0.098662138 -2.6363447
-0.1726497 0.09617424 -2.6355305
-0.1737242 0.076219946 -2.634105
-0.17391837 0.070085287 -2.6308193
-0.17823167 0.070978612 -2.6296625
-0.17243393 0.056413233 -2.6273656
-0.18233399 0.055731475 -2.6318481
-0.17903787 0.043964922 -2.6318092
-0.18279484 0.025960922 -2.6271727
-0.17932606 0.010693163 -2.624383
-0.18768468 0.017256677 -2.6273229
-0.19143938 0.00546363 -2.6220171
-0.12579218 0.2462737 -2.6679981
-0.11302671 0.23715863 -2.6622655
-0.11959873 0.23619333 -2.6679096
-0.125521 0.23355657 -2.6629891
-0.11850275 0.2247985 -2.6644874
-0.12555572 0.22814524 -2.6652987
-0.13071094 0.22664705 -2.6622891
-0.1241072 0.21461967 -2.6613696
-0.13387711 0.21558937 -2.6588988
-0.12408444 0.20935401 -2.6624117
-0.13056546 0.20635033 -2.661051
-0.12015732 0.19658756 -2.6629376
-0.12257581 0.19452 -2.6559772
-0.13127536 0.20105731 -2.659456
-0.13840325 0.19594294 -2.6598194
-0.12620784 0.18788776 -2.6603005
-0.13186978 0.18550688 -2.660495
-0.13633117 0.18793204 -2.6594341
-0.12864852 0.18088943 -2.6588082
-0.13616319 0.17840558 -2.6568196
-0.1255115 0.17021453 -2.6574767
-0.13409209 0.17124772 -2.6560283
-0.13498399 0.16493073 -2.6592309
-0.13245492 0.16413721 -2.6596613
-0.14803225 0.16244406 -2.6514523
-0.1471156 0.15626216 -2.6509447
-0.15386197 0.13532522 -2.6471593
-0.15917654 0.1017507 -2.647258
-0.16168913 0.095656782 -2.6420782
-0.16471563 0.082015306 -2.6468163
-0.16050875 0.076009512 -2.6434255
-0.16604152 0.076462567 -2.6423204
-0.17091756 0.075322896 -2.6407001
-0.16601805 0.068939805 -2.642868
-0.17174634 0.068653941 -2.638639
-0.16570485 0.056617588 -2.6388099
-0.17412581 0.059048563 -2.6418273
-0.17692411 0.047302902 -2.6360996
-0.17286801 0.040357113 -2.6390972
-0.18050012 0.020674646 -2.6391616
-0.17909181 0.01295048 -2.6348135
-0.18414252 0.0090031624 -2.6307111
-0.19377576 0.003770858 -2.627454
-0.11833601 0.2487627 -2.6732101
-0.11268228 0.24400121 -2.6811831
-0.11401841 0.23947075 -2.6778057
-0.12393953 0.23144361 -2.6738849
-0.11122688 0.22563976 -2.6783078
-0.12153622 0.22496754 -2.6722293
-0.11778893 0.21501666 -2.6681712
-0.12366176 0.21649384 -2.6727042
-0.12419023 0.1963594 -2.668818
-0.12921369 0.19512844 -2.6705968
-0.12235816 0.18391621 -2.6688199
-0.12789947 0.18882108 -2.6677704
-0.13670652 0.18652055 -2.665257
-0.11799917 0.17636076 -2.665777
-0.12253705 0.17721361 -2.6705282
-0.13231046 0.17704743 -2.6625259
-0.13514277 0.17774951 -2.6664326
-0.13836099 0.16477445 -2.6639705
-0.14015228 0.15909922 -2.6625454
-0.15613934 0.11276776 -2.6550937
-0.15271606 0.097700387 -2.6523399
-0.15667967 0.091092318 -2.6512904
-0.16082028 0.082809985 -2.6563423
-0.1637249 0.07684207 -2.6513546
-0.15888157 0.066171318 -2.6523387
-0.16572917 0.043753356 -2.6508603
-0.17118818 0.048408657 -2.6459775
-0.16952729 0.037644833 -2.6502607
-0.16790348 0.032159507 -2.6424849
-0.1755684 0.027558416 -2.6455853
-0.16114132 0.014834613 -2.6451793
-0.16416231 0.017541409 -2.6415415
-0.17543782 0.016687989 -2.6482511
-0.11247958 0.23813602 -2.6811497
-0.11963235 0.22100854 -2.6812854
-0.11811584 0.20062348 -2.681145
-0.12210384 0.19843793 -2.6773753
-0.12240417 0.1861718 -2.6769848
-0.13102432 0.18797982 -2.6741302
-0.13410784 0.16906849 -2.6743965
-0.13318893 0.16193634 -2.6741459
-0.13899468 0.13356537 -2.6684446
-0.14335017 0.13259247 -2.6701226
-0.14486755 0.12123063 -2.667908
-0.151501 0.10775447 -2.6633487
-0.14986691 0.090230256 -2.6634159
-0.15401918 0.080273509 -2.6623726
-0.15708241 0.073484629 -2.6619058
-0.15054877 0.063273728 -2.6612806
-0.15661618 0.068411767 -2.664418
-0.1537451 0.056803465 -2.6618297
-0.1589866 0.047440797 -2.6611581
-0.16504201 0.048146188 -2.6555717
-0.16051027 0.034972101 -2.654104
-0.15776372 0.01469931 -2.6501937
-0.16614614 0.022820413 -2.6500885
-0.1701684 0.01341024 -2.6553252
-0.17414291 0.011006206 -2.6484597
-0.11242147 0.21662262 -2.6916366
-0.1198729 0.19653812 -2.6870866
-0.11794529 0.18446976 -2.689729
-0.12227502 0.17024896 -2.6828792
-0.12627693 0.1390349 -2.6832728
-0.13059659 0.125314 -2.6788795
-0.13254504 0.12228891 -2.6817632
-0.13818663 0.11997965 -2.6796088
-0.13845165 0.10620299 -2.6795866
-0.14166172 0.089858294 -2.6759217
-0.1328366 0.086071283 -2.6704421
-0.13636568 0.083091766 -2.6766069
-0.14601056 0.083876669 -2.674026
-0.14405885 0.069912285 -2.6741223
-0.14994219 0.072606415 -2.6702287
-0.14710179 0.062595308 -2.6739275
-0.15692279 0.053309321 -2.6652701
-0.1516715 0.047568172 -2.6702485
-0.15859035 0.047149539 -2.6626236
-0.16142136 0.038240373 -2.6612792
-0.16086169 0.018607974 -2.6658065
-0.16682044 0.019191414 -2.6616423
-0.10032228 0.22411084 -2.7031088
-0.10626435 0.21170628 -2.6966457
-0.10707031 0.2140159 -2.7017198
-0.11205108 0.20404875 -2.6951711
-0.11614202 0.1336779 -2.6891036
-0.11419722 0.12890339 -2.6858337
-0.12653787 0.12503281 -2.6878145
-0.11360541 0.11643729 -2.6856921
-0.1273599 0.1187138 -2.6866481
-0.13243134 0.11740163 -2.6846726
-0.13248819 0.1085965 -2.6845708
-0.12478505 0.10306853 -2.682483
-0.13688695 0.099812865 -2.686224
-0.13921249 0.090777248 -2.6838298
-0.13201691 0.084357589 -2.6855774
-0.13764939 0.083886176 -2.6828475
-0.13428111 0.074480712 -2.6812098
-0.14184846 0.074037015 -2.6781456
-0.13092606 0.060146153 -2.6810751
-0.14709744 0.062294155 -2.6787786
-0.14770065 0.056142181 -2.6739595
-0.14988241 0.054302424 -2.6767595
-0.14472538 0.045637637 -2.6759632
-0.15153264 0.046703339 -2.6751168
-0.15276608 0.023939759 -2.675766
-0.12697822 0.015933871 -2.674396
-0.14571069 0.017857581 -2.6761644
-0.1558373 0.015175194 -2.6693945
-0.091905788 0.23718566 -2.7101979
-0.091334075 0.22597528 -2.7128701
-0.099387012 0.21497801 -2.7079782
-0.12653072 0.10886309 -2.698956
-0.13083127 0.097904354 -2.6951976
-0.12498802 0.086339027 -2.6933284
-0.12780941 0.077188879 -2.6932523
-0.13596258 0.076925963 -2.6907036
-0.13741799 0.070355535 -2.6899722
-0.12445437 0.06285435 -2.6931174
-0.13371319 0.061108261 -2.6888783
-0.14000684 0.065485984 -2.6857474
-0.14245841 0.059962571 -2.688889
-0.13519439 0.053289354 -2.6888587
-0.14470315 0.051353455 -2.6859698
-0.14781271 0.03930518 -2.6850662
-0.14446852 0.03188026 -2.686799
-0.070024922 0.26445079 -2.7288957
-0.07264623 0.26154998 -2.7285748
-0.059350472 0.25072938 -2.7306929
-0.080786802 0.25163686 -2.724112
-0.08558026 0.24262714 -2.7255511
-0.079021022 0.23845091 -2.7272742
-0.091834567 0.22222817 -2.7213242
-0.092509672 0.21824983 -2.7193108
-0.090185285 0.20878738 -2.7198403
-0.11955227 0.11343905 -2.7090628
-0.1249664 0.087230176 -2.6973231
-0.1213377 0.079897046 -2.7052946
-0.13291191 0.06837672 -2.6975672
-0.13557065 0.06846562 -2.6957333
-0.12831886 0.062545568 -2.7016578
-0.13319108 0.042811185 -2.6975806
-0.12841034 0.036054343 -2.693397
-0.13758613 0.03445673 -2.6976683
-0.14733234 0.028194517 -2.68926
-0.12162369 0.023106605 -2.688247
-0.13984986 0.020492554 -2.6886885
-0.14598058 0.024269313 -2.6891935
-0.066255569 0.264424 -2.7423556
-0.076208711 0.25471327 -2.7387149
-0.080578327 0.23941636 -2.7345936
-0.079532087 0.23409247 -2.7363019
-0.076245792 0.22470069 -2.7277734
-0.083102688 0.2132374 -2.7308848
-0.091664568 0.20605651 -2.7281957
-0.096622981 0.15007648 -2.718087
-0.10916989 0.13478327 -2.7189317
-0.12328505 0.083080858 -2.7062783
-0.11914039 0.067533463 -2.7059977
-0.12569791 0.070546597 -2.7064118
-0.12936072 0.067801714 -2.7048583
-0.12245719 0.056536615 -2.7092161
-0.12631586 0.04918611 -2.7073658
-0.12357518 0.038509667 -2.7059479
-0.11328284 0.031304479 -2.7034218
-0.12358257 0.027237713 -2.7023482
-0.13972615 0.0319148 -2.6988859
-0.13398904 0.023127466 -2.7012126
-0.070297897 0.25379553 -2.7471676
-0.074461892 0.2521621 -2.7419932
-0.073316686 0.24221155 -2.7438657
-0.069795795 0.23419487 -2.7422111
-0.070658267 0.22721273 -2.7397137
-0.076619729 0.21751243 -2.7421536
-0.070080824 0.21012554 -2.7361569
-0.082568139 0.20465425 -2.7400322
-0.076960593 0.19323924 -2.7361214
-0.083774425 0.18896633 -2.7358501
-0.076406732 0.17903227 -2.732296
-0.09048152 0.17645273 -2.7368948
-0.091226391 0.15807882 -2.733515
