# .PCD v0.7 - Point Cloud Data file format
VERSION 0.7
FIELDS x y z
SIZE 4 4 4
TYPE F F F
COUNT 1 1 1
WIDTH 576
HEIGHT 1
VIEWPOINT 0 0 0 1 0 0 0
POINTS 576
DATA ascii
1.2000186 0.23545238 -1.7476264
1.1466383 0.25224355 -1.7644416
1.1973137 0.23214869 -1.7580944
1.1924248 0.23307431 -1.7623649
1.1354229 0.23628041 -1.7560043
1.1432644 0.2555427 -1.767962
1.2319245 0.24668197 -1.7691786
1.2127742 0.24867108 -1.766878
1.2008716 0.24963284 -1.7738976
1.1799288 0.24833257 -1.7666035
1.1220033 0.2528342 -1.7699686
1.2184706 0.24351327 -1.7709236
1.2105654 0.23883986 -1.771701
1.1412693 0.23646355 -1.7694019
1.1381246 0.24021856 -1.7729292
1.1612265 0.27866352 -1.7880349
1.1511058 0.27480504 -1.7799196
1.1283733 0.2790249 -1.7864873
1.2152891 0.27047837 -1.7820605
1.1992629 0.26884878 -1.7868795
1.1779963 0.26605484 -1.7785079
1.2235144 0.25364107 -1.7852088
1.1949205 0.25471464 -1.7774312
1.1825867 0.25910956 -1.7838291
1.1787945 0.25312495 -1.7847704
1.163738 0.26142272 -1.7812296
1.1583319 0.25375345 -1.7779166
1.1472315 0.25811818 -1.7834219
1.1168396 0.25572464 -1.7825814
1.1870096 0.25009054 -1.7770957
1.1627563 0.24386559 -1.7791346
1.1576769 0.24645673 -1.7805463
1.1225635 0.24808237 -1.7761803
1.2028484 0.23753889 -1.7806039
1.1936116 0.237138 -1.7751186
1.188641 0.23825859 -1.7794486
1.1860418 0.29847351 -1.8007717
1.1896214 0.2911005 -1.7961544
1.2115271 0.28738618 -1.7961229
1.2011011 0.28205943 -1.7973938
1.1837907 0.28419641 -1.7915703
1.211965 0.27580455 -1.7948121
1.190827 0.27138811 -1.7925291
1.1637814 0.27464294 -1.7922751
1.1538073 0.27874327 -1.7968445
1.1638499 0.26879025 -1.7914656
1.1434157 0.26512253 -1.7901188
1.1227174 0.26459628 -1.7929671
1.2129587 0.26016062 -1.787943
1.1915327 0.25965643 -1.7901623
1.1704336 0.25563529 -1.7889863
1.1260576 0.25647932 -1.7850697
1.1134405 0.25303358 -1.789068
1.20687 0.24316742 -1.7893708
1.1854326 0.24287874 -1.7919707
1.1750679 0.24916254 -1.7935139
1.1408572 0.24697168 -1.7901251
1.1069024 0.24326524 -1.7863038
1.0914028 0.25029439 -1.7883343
1.1503456 0.24012217 -1.7854953
1.1294718 0.24223503 -1.7829392
1.2005789 0.29762727 -1.804261
1.1600916 0.2971926 -1.8030608
1.1946443 0.29268566 -1.8079627
1.1695651 0.2927072 -1.8058444
1.1944786 0.28084946 -1.8060694
1.1646135 0.28239608 -1.8042657
1.154202 0.28085315 -1.8064007
1.1302049 0.28347087 -1.8037465
1.2114761 0.27570257 -1.7992761
1.1836408 0.27450883 -1.7995458
1.174222 0.27676982 -1.8043016
1.1590319 0.27181175 -1.8001938
1.1493663 0.27244377 -1.8045934
1.1341819 0.26998067 -1.8030233
1.1115583 0.2689701 -1.804547
1.1950594 0.26519716 -1.7988106
1.17662 0.26442397 -1.8010449
1.1600113 0.26652879 -1.7980558
1.1345221 0.26539534 -1.8041862
1.1177562 0.26089191 -1.7987783
1.1634392 0.25886261 -1.797352
1.1559116 0.25431308 -1.7979932
1.1172848 0.25061047 -1.7994559
1.1045012 0.25791115 -1.8017945
1.1591098 0.24878025 -1.795904
1.1435397 0.24345458 -1.7951896
1.1383345 0.24309032 -1.7946036
1.0984124 0.2456769 -1.8000054
1.1780101 0.29790434 -1.8196169
1.1730075 0.30086824 -1.8152536
1.1423354 0.29623097 -1.8137096
1.1353401 0.29632261 -1.8162761
1.1974342 0.28635356 -1.8149275
1.1772505 0.28581753 -1.8171499
1.1677421 0.28966427 -1.8098257
1.1624694 0.28784275 -1.8128948
1.1551145 0.28717268 -1.8171481
1.1054411 0.28970754 -1.8127202
1.1936326 0.28153914 -1.8095813
1.1634462 0.27919471 -1.8103024
1.1578643 0.28206998 -1.8158931
1.1431823 0.28370181 -1.8100264
1.1387058 0.27773815 -1.8096737
1.1231611 0.2810778 -1.8134475
1.1072882 0.28454411 -1.8160399
1.1562847 0.27163491 -1.8148817
1.1465269 0.2756559 -1.8132751
1.1437676 0.2705003 -1.8059434
1.1189998 0.27643222 -1.8078368
1.1121005 0.2706973 -1.8075716
1.182215 0.25948459 -1.8128991
1.1437429 0.26382226 -1.8088539
1.1128275 0.2607972 -1.8095448
1.1105001 0.26612043 -1.8095413
1.1042837 0.26614696 -1.8131942
1.1714289 0.2534239 -1.8109133
1.1422548 0.254471 -1.8060708
1.1378053 0.25410208 -1.8077108
1.1070694 0.25569797 -1.8124336
1.093208 0.25467622 -1.8053443
1.1286767 0.24917905 -1.807501
1.1243392 0.24867953 -1.8074288
1.1147686 0.24718453 -1.8059165
1.1974248 0.30204254 -1.8219764
1.1688958 0.30008417 -1.8246609
1.1643504 0.30194375 -1.8257271
1.179781 0.29115152 -1.8255008
1.1498659 0.28839326 -1.822891
1.1197755 0.28955138 -1.8192759
1.1101549 0.28661716 -1.826383
1.1373297 0.28136021 -1.8213989
1.1913923 0.26949131 -1.8163444
1.1375222 0.27366167 -1.8190304
1.1273055 0.27543426 -1.816776
1.1198423 0.27091247 -1.8163401
1.1162168 0.27015877 -1.8164804
1.1017008 0.27361244 -1.8198266
1.1517441 0.26572168 -1.8183239
1.1406218 0.25917503 -1.8146598
1.1200751 0.26034474 -1.8208615
1.0923258 0.26482677 -1.8227746
1.0832834 0.26100469 -1.8198761
1.1501001 0.25542712 -1.8168687
1.1456239 0.24937344 -1.8207546
1.1105611 0.25418502 -1.8200672
1.0944133 0.25358209 -1.8122119
1.0882313 0.24996082 -1.816169
1.1488479 0.29633361 -1.8290275
1.1224198 0.29340613 -1.8358421
1.1072463 0.29408938 -1.8297305
1.1571231 0.28982222 -1.8316218
1.1458002 0.29187894 -1.8298664
1.121545 0.29058284 -1.830519
1.0842288 0.29283088 -1.8344653
1.1429428 0.27985287 -1.8304121
1.1242456 0.27971745 -1.8339611
1.1168641 0.27656028 -1.8321134
1.0797377 0.28144032 -1.829344
1.0762218 0.2806614 -1.8261814
1.0660377 0.27813882 -1.8340651
1.1356794 0.27106529 -1.8297222
1.1035752 0.26774496 -1.8298182
1.091458 0.27175853 -1.8260187
1.0584707 0.26659101 -1.8267969
1.1339191 0.25985098 -1.8259182
1.12379 0.26406866 -1.8249978
1.109261 0.26560402 -1.8259461
1.0869117 0.25836188 -1.8241044
1.0730551 0.25711456 -1.8256676
1.1275679 0.25386295 -1.8252568
1.1119442 0.25141329 -1.8252369
1.1550162 0.29805487 -1.846547
1.1444138 0.29802996 -1.8424848
1.1394104 0.29188105 -1.8448066
1.1241258 0.29747903 -1.8389592
1.1089799 0.29633766 -1.8427218
1.1519679 0.29029208 -1.8421823
1.1355557 0.28243876 -1.841539
1.1260936 0.28459173 -1.8406322
1.0950035 0.2851997 -1.8372693
1.0653411 0.28587991 -1.8387313
1.1412799 0.28009465 -1.8376274
1.1110907 0.26517254 -1.8333716
1.1056945 0.27041078 -1.8423474
1.0897548 0.27005073 -1.8410039
1.074811 0.26675141 -1.8341054
1.1129404 0.25946641 -1.837253
1.0970002 0.25960839 -1.8325249
1.0606885 0.2627067 -1.8382342
1.1296053 0.25484025 -1.8321347
1.0975271 0.25189537 -1.8317612
1.0821438 0.25332797 -1.8317568
1.0707856 0.25377727 -1.8349481
1.1379952 0.30359316 -1.8562671
1.1277504 0.30269545 -1.8528292
1.1151621 0.30202383 -1.8512585
1.0944089 0.30082107 -1.8550786
1.1112761 0.29782581 -1.8490647
1.0846267 0.29745907 -1.8516614
1.1229401 0.28475624 -1.8492827
1.1188149 0.28805158 -1.851229
1.1042842 0.28151333 -1.8520194
1.0982538 0.28878152 -1.8528453
1.0823271 0.28521523 -1.8455673
1.0759208 0.28584996 -1.8533564
1.0664327 0.28273368 -1.8511375
1.1333362 0.2756561 -1.8472189
1.1021727 0.27786061 -1.8461807
1.0909026 0.27363792 -1.8452332
1.1334536 0.26756912 -1.8489339
1.0985397 0.26498598 -1.849075
1.0844448 0.26561064 -1.8464795
1.0774003 0.27052638 -1.8503288
1.0602378 0.27087995 -1.8434465
1.0577258 0.27109319 -1.8516699
1.1138309 0.260225 -1.8433464
1.1081082 0.25590897 -1.8415978
1.0995224 0.25477579 -1.8440554
1.0839317 0.25736091 -1.8450938
1.0427662 0.25697321 -1.843951
1.1089644 0.3015514 -1.8600363
1.1083003 0.29085249 -1.8570408
1.1023347 0.2935811 -1.8607838
1.0726067 0.28992704 -1.8578637
1.1225363 0.28875738 -1.857641
1.1032059 0.28557587 -1.8633018
1.0671082 0.29016891 -1.855381
1.1021281 0.27521756 -1.8587488
1.0831965 0.2748273 -1.856968
1.0620046 0.27516896 -1.8600962
1.0556637 0.27635843 -1.8587055
1.0765749 0.26442885 -1.8592572
1.069044 0.26232117 -1.8564497
1.0631276 0.26506007 -1.8556399
1.0916698 0.26111749 -1.8512715
1.081959 0.25876549 -1.856005
1.1373981 0.30416021 -1.8734347
1.1079597 0.30201992 -1.8668797
1.0835888 0.30243027 -1.8686299
1.1185524 0.29060334 -1.8714905
1.1031191 0.29401127 -1.8709316
1.0751784 0.29367596 -1.8739753
1.068875 0.29445785 -1.8720306
1.0629002 0.29092813 -1.8653035
1.1019758 0.28603593 -1.8692563
1.0830404 0.28194565 -1.8701645
1.07312 0.28031042 -1.8663779
1.0690625 0.28486118 -1.8699753
1.1001556 0.27715859 -1.868952
1.0991491 0.27264255 -1.8633087
1.0830123 0.27075452 -1.8652896
1.0574075 0.27541518 -1.8687869
1.0799116 0.26507172 -1.8699249
1.0568138 0.267474 -1.8678306
1.0508041 0.26187009 -1.8634018
1.1209835 0.30884236 -1.8837622
1.0810684 0.29780227 -1.8767825
1.0559149 0.2993457 -1.8830879
1.1019857 0.29304859 -1.878625
1.088997 0.2908617 -1.8748511
1.062582 0.29525012 -1.8824205
1.0642406 0.28215408 -1.8774562
1.0582179 0.28008184 -1.8747072
1.0445729 0.28053412 -1.8805214
1.0961119 0.27689394 -1.8803662
1.0832807 0.27500379 -1.8780926
1.0628015 0.27118844 -1.8758248
1.0757443 0.26450807 -1.8746638
1.0340291 0.26651207 -1.8726262
1.029741 0.26773822 -1.8714969
1.1189116 0.30610147 -1.890655
1.1154219 0.29708859 -1.8916587
1.1011676 0.300466 -1.8898435
1.0824276 0.30398828 -1.8865044
1.0749443 0.29607281 -1.8862079
1.0726056 0.30222663 -1.8885022
1.0996677 0.29055849 -1.8864932
1.076424 0.28825492 -1.8884331
1.0675203 0.28919566 -1.8868293
1.0824986 0.28536481 -1.8845115
1.0618737 0.27649137 -1.8894511
1.0548253 0.28285551 -1.8861808
1.037055 0.28570482 -1.8826503
1.0823873 0.27264374 -1.8830775
1.0610429 0.27072722 -1.8864098
1.0485247 0.2758134 -1.8884611
1.0340163 0.27107638 -1.8881638
1.0788101 0.30894494 -1.9028379
1.0620881 0.30519596 -1.9003942
1.0989299 0.29948202 -1.8985177
1.0843697 0.29559961 -1.8971506
1.0611174 0.30120701 -1.8974094
1.0555738 0.30003917 -1.8975997
1.0497103 0.30022678 -1.8940572
1.0672942 0.28949431 -1.8935934
1.0436209 0.28554755 -1.8960807
1.0930747 0.28114533 -1.8974237
1.0802455 0.27450657 -1.8999975
1.0656226 0.28036243 -1.8929833
1.0545024 0.27808473 -1.8994774
1.0517334 0.27555603 -1.894701
1.0704201 0.27252153 -1.8903618
1.0373924 0.27075547 -1.897817
1.0976012 0.30527276 -1.9062448
1.0587386 0.30654758 -1.9137762
1.0493942 0.30451772 -1.9110515
1.0830822 0.30196294 -1.9057064
1.0728064 0.29321158 -1.9047667
1.0595773 0.2928184 -1.904969
1.0772517 0.28592718 -1.9074348
1.0633481 0.28481892 -1.9099679
1.0548521 0.28890404 -1.9054015
1.0513749 0.28845915 -1.9025474
1.0641525 0.27954215 -1.9091945
1.0548986 0.27904406 -1.909869
1.0496355 0.28190747 -1.9014559
1.0361472 0.27502769 -1.9042661
1.0388037 0.2694234 -1.900974
1.0815449 0.31042975 -1.9153801
1.0953805 0.30579865 -1.9182357
1.0795225 0.3077158 -1.9208385
1.0600492 0.30572081 -1.9145204
1.0553384 0.30179089 -1.9142666
1.0820783 0.30008891 -1.9142606
1.0754175 0.29490843 -1.9170755
1.0691887 0.29816818 -1.9211001
1.0627427 0.29630637 -1.9201369
1.0539118 0.29215741 -1.9184407
1.0321918 0.29480463 -1.9126116
1.0895631 0.28956264 -1.9195998
1.0616099 0.2906411 -1.9172715
1.0495811 0.28375632 -1.916965
1.0429325 0.28993368 -1.9130716
1.0365733 0.28588167 -1.9153824
1.0711083 0.27393842 -1.9136207
1.0570943 0.27995518 -1.9116006
1.0373733 0.27590299 -1.9172097
1.0271939 0.28011513 -1.9172292
1.0200911 0.27290547 -1.9123406
1.0705868 0.31356874 -1.9304049
1.0612754 0.31024569 -1.9296696
1.047767 0.30977803 -1.9267478
1.0797871 0.30457827 -1.9313707
1.0545176 0.30068222 -1.9314241
1.0432683 0.3069866 -1.9260234
1.0446146 0.29672456 -1.9300094
1.0339221 0.29900476 -1.9289167
1.0299231 0.29497492 -1.9241683
1.0257134 0.29250798 -1.9249705
1.0276164 0.28891253 -1.9286275
1.0684065 0.27411145 -1.9260952
1.0551273 0.27861792 -1.9229913
1.0229663 0.28044754 -1.9256344
1.0911589 0.31240988 -1.9370828
1.0770525 0.31040308 -1.9395705
1.0646954 0.30948174 -1.9415952
1.0445265 0.31337234 -1.9426452
1.0842961 0.29925138 -1.9407554
1.0353092 0.30584219 -1.9386976
1.0274655 0.30030009 -1.9393516
1.0860323 0.29369733 -1.9364823
1.0738471 0.28871185 -1.9337299
1.0586172 0.2948302 -1.9340794
1.0398204 0.28243124 -1.9346426
1.0289243 0.28431535 -1.9335341
1.0528295 0.27891204 -1.9357951
1.0231397 0.27720442 -1.9305898
1.075648 0.31438008 -1.944429
1.061309 0.31253803 -1.950889
1.0780652 0.30269766 -1.9449977
1.0698732 0.29826346 -1.9457831
1.0471344 0.30039781 -1.9457959
1.0433092 0.29769799 -1.9484986
1.0356524 0.30320501 -1.9452217
1.0720172 0.28684798 -1.9469407
1.057695 0.29106784 -1.9426908
1.0307206 0.29233333 -1.943503
1.0261002 0.2970055 -1.9416811
1.0186421 0.28936732 -1.9449915
1.0781238 0.28361642 -1.9424634
1.051648 0.2826921 -1.9396268
1.0403957 0.27861807 -1.9394708
1.0237563 0.28398207 -1.9443291
1.0152484 0.27982605 -1.9444314
1.0088308 0.28269592 -1.9405438
1.0869019 0.31969303 -1.9554486
1.0740377 0.31462312 -1.9565026
1.0721431 0.31848434 -1.9611874
1.0624208 0.31393811 -1.9585799
1.0484464 0.31739071 -1.9620346
1.0744209 0.30769089 -1.961452
1.0807296 0.30405807 -1.9571568
1.0556245 0.29901931 -1.9508872
1.0439911 0.29867762 -1.9540071
1.0285935 0.30206156 -1.9589947
1.0745572 0.28842315 -1.9588647
1.0498368 0.2831012 -1.952603
1.0423402 0.2861045 -1.950429
1.0381377 0.28304207 -1.9563318
1.0584196 0.31912664 -1.9659793
1.0511429 0.30363977 -1.9646387
1.0380626 0.3058002 -1.9620615
1.0663683 0.30236781 -1.9625413
1.0586685 0.29370266 -1.9676175
1.0683728 0.29184124 -1.9633949
1.0628034 0.28930503 -1.9644306
1.04486 0.28977785 -1.9662154
1.0219393 0.28915253 -1.9615136
1.0707767 0.31268412 -1.9779062
1.0391132 0.31160536 -1.9778315
1.0771631 0.3088648 -1.9735581
1.0628636 0.30647215 -1.9792998
1.052174 0.30774438 -1.9773687
1.0417331 0.30310169 -1.9708683
1.02863 0.3064405 -1.9757869
1.0253593 0.30919829 -1.9730831
1.0523325 0.2973046 -1.9720293
1.0231423 0.29645172 -1.9751171
1.019807 0.29379481 -1.9762318
1.046844 0.2872903 -1.9694109
1.081257 0.32233751 -1.9857659
1.0732548 0.31585893 -1.98633
1.0429438 0.31217727 -1.9884634
1.0287608 0.31646925 -1.9889836
1.049639 0.30739757 -1.9845029
1.0612047 0.29682198 -1.9812071
1.055128 0.29847449 -1.9838997
1.0570887 0.29035556 -1.980654
1.0233049 0.29124185 -1.979544
1.0706218 0.32253551 -1.9998111
1.0671325 0.31767738 -1.9943603
1.0593586 0.31057638 -1.9960582
1.0352648 0.31485218 -1.998006
1.0286665 0.31081954 -1.992579
1.0610843 0.30182773 -1.9963034
1.0519756 0.30710086 -1.9948907
1.0237974 0.30188107 -1.9935694
1.0563471 0.29099175 -1.9938234
1.0412105 0.29491454 -1.9895329
1.0243583 0.29710564 -1.9921638
1.0187539 0.29824406 -1.9930975
1.0125493 0.2965205 -1.9906892
1.0777261 0.32647225 -2.0026484
1.0649933 0.32728335 -2.0072987
1.0700302 0.31847841 -2.0063605
1.0603541 0.32550398 -2.0022402
1.0425738 0.32000574 -2.0104418
1.0591629 0.31124756 -2.0090272
1.0276468 0.31499553 -2.008523
1.0697478 0.30086628 -2.0052068
1.0515875 0.30324626 -2.0001817
1.0434691 0.29350972 -2.0001295
1.0683305 0.32702482 -2.016921
1.076009 0.32238698 -2.0189483
1.0479497 0.31947458 -2.0198247
1.03556 0.3176389 -2.0135591
1.0566469 0.31075087 -2.0127869
1.0480469 0.30801809 -2.0164638
1.0297589 0.31540155 -2.0102191
1.0500791 0.29856408 -2.0141706
1.0406847 0.30162829 -2.0087461
1.0239633 0.30297145 -2.011183
1.0177009 0.30269313 -2.0099633
1.0122377 0.30075091 -2.0074434
1.0869638 0.33041361 -2.027729
1.0664637 0.32328513 -2.0227621
1.0561481 0.31546772 -2.025959
1.0287395 0.31957754 -2.0261629
1.0641513 0.30826023 -2.0204239
1.0431876 0.3052769 -2.0244269
1.0153844 0.3109175 -2.0206447
1.0107505 0.30502614 -2.0235116
1.0378659 0.29985771 -2.0198345
0.99878639 0.29721212 -2.0199249
1.0504527 0.32312334 -2.0355055
1.0469373 0.32168993 -2.0374908
1.0339161 0.32898301 -2.0375617
1.0600994 0.31564772 -2.0363903
1.0523489 0.31878495 -2.0295749
1.0537958 0.31181419 -2.0292118
1.0315291 0.30814877 -2.0344419
1.0240308 0.30436981 -2.0305264
1.0465742 0.30266833 -2.0309289
1.0788931 0.33126193 -2.0416255
1.0850321 0.32716662 -2.0439126
1.075363 0.32786897 -2.04741
1.0413684 0.32742044 -2.0461717
1.0303299 0.32483819 -2.0444815
1.0567251 0.31245697 -2.0408711
1.0531332 0.31968781 -2.0428913
1.0289527 0.31439474 -2.0421474
1.0251586 0.3140538 -2.045732
1.0745741 0.3094987 -2.0460556
1.0473027 0.30365199 -2.0446196
1.0113746 0.30935186 -2.0405285
1.047765 0.33260629 -2.0593565
1.0305673 0.33007666 -2.0576596
1.057808 0.32013708 -2.0535002
1.0625737 0.31648031 -2.0540581
1.0278462 0.31108677 -2.0507059
1.0518683 0.3042706 -2.0558593
1.0798491 0.33874485 -2.0617468
1.0942004 0.3320182 -2.0692592
1.0717702 0.33271125 -2.0639324
1.0410973 0.32773492 -2.0674589
1.0323778 0.33108273 -2.0645223
1.0739881 0.32238731 -2.0631213
1.0627033 0.32365903 -2.0679994
1.0707097 0.31402767 -2.0625374
1.0655522 0.31696075 -2.0656531
1.0306711 0.31856602 -2.0583401
1.0248677 0.31464276 -2.0627384
1.0681273 0.30602989 -2.0644956
1.0814073 0.3396816 -2.0745525
1.0742764 0.34030715 -2.0760994
1.0555167 0.32462639 -2.0706105
1.0568295 0.3075043 -2.0697408
1.0495769 0.30875993 -2.0729694
1.0391676 0.31509027 -2.0749068
1.0891814 0.34280828 -2.0874679
1.0904738 0.33712429 -2.0860853
1.061712 0.33628434 -2.0814111
1.070431 0.32655299 -2.0801299
1.0532254 0.32911575 -2.0877206
1.0415001 0.33253986 -2.0815983
1.0714962 0.32121584 -2.0792849
1.0668453 0.31855658 -2.0790193
1.0444974 0.322117 -2.0802791
1.036227 0.31732726 -2.0857079
1.0645701 0.31019557 -2.0815043
1.093473 0.33724403 -2.0977545
1.0634543 0.34051365 -2.0978293
1.0437323 0.33523121 -2.0888236
1.0677975 0.32628369 -2.0959852
1.0532702 0.33160093 -2.0913093
1.0744605 0.32153276 -2.0907693
1.0367136 0.31811419 -2.0899646
1.0537921 0.31175566 -2.0867984
1.0472857 0.3132492 -2.0900798
1.1045699 0.34375939 -2.1089809
1.077105 0.34227824 -2.1056807
1.0526379 0.33512792 -2.1048424
1.0853953 0.32746467 -2.1020603
1.0796922 0.33052456 -2.1059897
1.0755285 0.32282326 -2.1040826
1.0584219 0.32572231 -2.1024787
1.0366164 0.32185674 -2.1025376
1.0610127 0.31436116 -2.0985131
1.050755 0.31600705 -2.1038558
1.035012 0.32091519 -2.1049058
1.0552793 0.33943984 -2.1134958
1.0529519 0.33592299 -2.1084261
1.0835155 0.32617277 -2.1162701
1.0449942 0.31773853 -2.1071897
1.0776615 0.34427059 -2.1203325
1.0526338 0.34024492 -2.1255434
1.0601642 0.32995161 -2.1188972
1.0716354 0.32738581 -2.1206865
1.0496049 0.32369816 -2.1167135
1.0794159 0.34852949 -2.1368656
1.067404 0.3408199 -2.1284635
1.0613676 0.33789086 -2.1301868
1.0954559 0.33158481 -2.1282082
1.0890988 0.33455637 -2.1322451
1.0619066 0.33418098 -2.1353149
1.0485288 0.32824498 -2.1339495
1.062055 0.32538784 -2.1326325
1.0553839 0.32190675 -2.1325634
1.0471411 0.32473198 -2.1290267
1.0923495 0.33593306 -2.1456542
1.0670184 0.34370989 -2.1385455
1.0806152 0.3450509 -2.1523948
1.0624499 0.32998273 -2.1497049
1.0468229 0.32905391 -2.1461439
1.0887057 0.33737046 -2.164505
