# .PCD v0.7 - Point Cloud Data file format
VERSION 0.7
FIELDS x y z
SIZE 4 4 4
TYPE F F F
COUNT 1 1 1
WIDTH 298
HEIGHT 1
VIEWPOINT 0 0 0 1 0 0 0
POINTS 298
DATA ascii
0.52602237 -0.25743085 0.30483139
0.53350848 -0.25637111 0.29421246
0.52029288 -0.25568515 0.29669765
0.49093601 -0.26438332 0.29601446
0.47781539 -0.26737165 0.29719314
0.50367582 -0.24609289 0.28551981
0.48792043 -0.24653758 0.29068828
0.52999711 -0.25385731 0.2900269
0.49950039 -0.24883771 0.28712821
0.50695854 -0.26462585 0.29030633
0.53112167 -0.24773245 0.28188396
0.47989166 -0.2449384 0.27836874
0.54095805 -0.25933206 0.27436537
0.48320639 -0.26329541 0.28312287
0.53740484 -0.24232589 0.26860714
0.53129375 -0.2473672 0.26798588
0.52617204 -0.24577224 0.26444066
0.50984901 -0.24215075 0.27161944
0.52082133 -0.25391877 0.26663601
0.508641 -0.25318721 0.27001834
0.54363751 -0.23973997 0.25370169
0.54206342 -0.23699187 0.25481981
0.54562217 -0.25538224 0.25966662
0.51016319 -0.25836676 0.26300237
0.58652568 -0.24212596 0.2474858
0.57202858 -0.24131836 0.2495836
0.55776536 -0.24054229 0.25170362
0.53012097 -0.24222198 0.24973258
0.52248985 -0.25461018 0.24537116
0.50897616 -0.2541306 0.2465488
0.57475322 -0.23803353 0.23571017
0.56522024 -0.23753498 0.23359525
0.55418766 -0.23664366 0.23835711
0.53347111 -0.23779625 0.23724212
0.52910244 -0.23848064 0.24210285
0.53618199 -0.25509238 0.24416724
0.55214113 -0.23105481 0.22501427
0.54779494 -0.23489031 0.22491826
0.53456593 -0.23434968 0.22784361
0.56025285 -0.25074986 0.22939622
0.54573172 -0.24958527 0.23215027
0.54243183 -0.24681355 0.23400784
0.5296486 -0.25227681 0.2295721
0.53175271 -0.22804213 0.21344179
0.56390768 -0.22969595 0.22182202
0.55961454 -0.24353276 0.21557042
0.54706514 -0.24288982 0.21940617
0.58140099 -0.22630726 0.20324844
0.57404906 -0.22958192 0.20649052
0.56857181 -0.22574612 0.20712329
0.56035656 -0.22984573 0.20879544
0.58035266 -0.23176505 0.20436329
0.53024912 -0.23074062 0.20996773
0.58532071 -0.24490133 0.2078765
0.56373584 -0.2476231 0.2139142
0.59439939 -0.22687349 0.19931486
0.5813154 -0.22452509 0.19509731
0.55879581 -0.22657238 0.19620648
0.54549259 -0.22608775 0.19932514
0.53417248 -0.22721331 0.19535476
0.5650816 -0.23642875 0.19880503
0.5538457 -0.23241623 0.20119993
0.57439625 -0.24415945 0.1994804
0.56684005 -0.24420236 0.19903862
0.56272662 -0.2452966 0.20051043
0.52585655 -0.24425769 0.20455055
0.59981209 -0.22806787 0.18659505
0.58592856 -0.22754902 0.1898104
0.57453299 -0.2272727 0.18896854
0.59004802 -0.24089797 0.19297847
0.5780853 -0.23414516 0.19221975
0.64450127 -0.22127616 0.17453451
0.61847317 -0.22172467 0.17554857
0.60037124 -0.22052591 0.17973197
0.57763726 -0.22385196 0.17409295
0.62806833 -0.22907363 0.17990009
0.61726481 -0.23424289 0.18349406
0.58211291 -0.23052418 0.17721842
0.57076335 -0.23360039 0.17578578
0.59526128 -0.23960319 0.1787997
0.56994432 -0.24078162 0.18416306
0.62026542 -0.22257721 0.16596889
0.61708754 -0.21938233 0.16531946
0.60542661 -0.22382262 0.17194122
0.60385412 -0.21886672 0.16951878
0.64021915 -0.23524505 0.16640581
0.62533319 -0.23489371 0.16821933
0.61422199 -0.23585728 0.16793138
0.61063695 -0.23453723 0.16998172
0.60221946 -0.23529795 0.16892537
0.59531307 -0.23277909 0.172121
0.58507937 -0.23436007 0.17324707
0.57304859 -0.23736088 0.16928747
0.60111368 -0.21782219 0.16235012
0.62513113 -0.22000773 0.15373579
0.59850281 -0.22770745 0.15736942
0.58074147 -0.22043121 0.15921739
0.61972308 -0.23309809 0.16290885
0.62225956 -0.2172104 0.15060611
0.60346943 -0.22204256 0.14857881
0.64675903 -0.23077565 0.15211543
0.62608242 -0.23411711 0.15462777
0.61809331 -0.2327197 0.1464676
0.64551657 -0.21228974 0.132911
0.64895296 -0.21636108 0.14156905
0.63037711 -0.2180573 0.14019176
0.62507838 -0.21556103 0.13581586
0.66439301 -0.22254422 0.14089406
0.62682325 -0.22370985 0.13768986
0.61369431 -0.22593552 0.1396639
0.65377849 -0.21227458 0.12636177
0.65656573 -0.22253117 0.12920055
0.64481556 -0.22157925 0.12564817
0.61856711 -0.22293776 0.12772128
0.64269781 -0.22861041 0.13114972
0.62222564 -0.22544102 0.12894064
0.66378677 -0.21323033 0.1137046
0.63849175 -0.21263714 0.114691
0.62768495 -0.20944721 0.11703254
0.6484049 -0.22429471 0.12175099
0.64194441 -0.22102779 0.11677176
0.63339049 -0.22361651 0.12476905
0.63000947 -0.22019885 0.12242178
0.61924821 -0.22121178 0.12211645
0.5982762 -0.21434373 0.12398404
0.63234502 -0.22580101 0.11709967
0.65653419 -0.20755014 0.1056055
0.65860391 -0.20818812 0.1111545
0.64209163 -0.20718355 0.1094694
0.6548394 -0.2201857 0.10726216
0.65130961 -0.21714109 0.11145779
0.64274037 -0.22238331 0.11055423
0.61447167 -0.2215596 0.10734566
0.60372114 -0.22090884 0.113326
0.66699052 -0.20554337 0.096738711
0.6729185 -0.21289793 0.094953954
0.65735042 -0.21295778 0.099726252
0.64303279 -0.21329993 0.10045965
0.64915913 -0.21910483 0.096377939
0.66319901 -0.20405906 0.086929753
0.64835906 -0.21395908 0.086032599
0.63470435 -0.20152868 0.075509757
0.67945832 -0.20842852 0.080663569
0.65722656 -0.20403542 0.07557869
0.65196633 -0.21352877 0.080563277
0.6376161 -0.21633171 0.081915811
0.67805618 -0.19792563 0.064593643
0.64710665 -0.19781293 0.070019931
0.64575791 -0.20204489 0.069169268
0.65156633 -0.21042472 0.07066302
0.66381311 -0.21433067 0.074272051
0.68463385 -0.20144616 0.063023433
0.67728603 -0.19938847 0.05469624
0.66832489 -0.20310947 0.056264848
0.666403 -0.20014259 0.06262248
0.65029228 -0.20267853 0.056284904
0.69120973 -0.21102376 0.059449792
0.67506433 -0.20990098 0.061122127
0.66964835 -0.21132471 0.059509944
0.65495908 -0.2087021 0.058077831
0.70949745 -0.19693284 0.044562429
0.71074122 -0.20633882 0.047708258
0.68050539 -0.20131466 0.050918605
0.64818001 -0.19851415 0.053995352
0.69999796 -0.20627262 0.054554887
0.66949177 -0.20907936 0.053853601
0.65673345 -0.20817526 0.053403657
0.64848858 -0.20723641 0.055768102
0.70927602 -0.19555396 0.03525487
0.68406314 -0.19262324 0.037297063
0.69150949 -0.20421055 0.043035056
0.68581176 -0.20647989 0.037841391
0.673464 -0.20615773 0.0438575
0.67702991 -0.20851071 0.043655917
0.70254546 -0.20016977 0.031178238
0.69399595 -0.20058596 0.027457856
0.68413484 -0.20357406 0.032645822
0.71079832 -0.19397739 0.01802632
0.69567704 -0.20078194 0.019620107
0.69202501 -0.20312537 0.023496745
0.67190588 -0.20110708 0.023045268
0.71507686 -0.18798049 0.007172355
0.70549244 -0.18681996 0.011929216
0.70139021 -0.18741164 0.013244428
0.69919294 -0.19845738 0.0097409002
0.71586543 -0.18829261 0.0036779428
0.71231467 -0.19301666 -0.00091704261
0.69896883 -0.19333677 -0.0036965469
0.69400108 -0.1937338 -0.0018709004
0.68724966 -0.19285399 0.0032697152
0.67642123 -0.18691097 0.00020408258
0.7155965 -0.19455329 0.0019572107
0.70787543 -0.20005026 0.0010830155
0.69951564 -0.19936001 0.001310885
0.71923041 -0.18442252 -0.010335002
0.72031134 -0.18950556 -0.0131218
0.71078253 -0.19379878 -0.010812527
0.70791775 -0.19378954 -0.010976223
0.69226438 -0.19186054 -0.0055820756
0.72352433 -0.18038578 -0.024291331
0.70803815 -0.18675613 -0.021207459
0.73911619 -0.18997504 -0.020164058
0.73042101 -0.195309 -0.017384958
0.71984869 -0.19122119 -0.016255114
0.69276589 -0.18981181 -0.016971592
0.74395531 -0.18540838 -0.031966068
0.73369265 -0.18482746 -0.029721439
0.72688943 -0.18699792 -0.03059938
0.72245491 -0.18103124 -0.027898982
0.69759142 -0.1857253 -0.032178864
0.73657238 -0.19199187 -0.02776612
0.71833193 -0.1932561 -0.027362403
0.70482916 -0.19469891 -0.026165772
0.72774804 -0.1765884 -0.040023174
0.74858958 -0.18221307 -0.041754562
0.74179065 -0.18439616 -0.036735062
0.72977883 -0.18663974 -0.035966575
0.71908695 -0.18237947 -0.039109752
0.70964617 -0.18285285 -0.036359929
0.75091022 -0.17985462 -0.04602484
0.74175584 -0.17710403 -0.046470065
0.72852314 -0.17863396 -0.051540762
0.76187688 -0.18279353 -0.048874747
0.75189614 -0.18268339 -0.046323001
0.74324387 -0.18666917 -0.045066211
0.7396915 -0.18731378 -0.050215945
0.73501813 -0.18371992 -0.047858916
0.73795938 -0.17488842 -0.063971758
0.77565593 -0.17745852 -0.063499019
0.76582694 -0.18215115 -0.062916048
0.76084191 -0.17783338 -0.060481679
0.74761397 -0.18103191 -0.061464254
0.74114829 -0.17744985 -0.061080545
0.7182914 -0.18285273 -0.05785482
0.76863402 -0.17446163 -0.073761664
0.74614489 -0.17265874 -0.071537144
0.76524037 -0.17908707 -0.064992778
0.74555331 -0.18242773 -0.065074153
0.78523421 -0.17365654 -0.076117396
0.76628387 -0.17344972 -0.078264199
0.76084292 -0.17505687 -0.080627479
0.75462079 -0.17326188 -0.079696894
0.74637944 -0.17303111 -0.075873494
0.7724604 -0.1776177 -0.07741113
0.75048077 -0.17825489 -0.080602884
0.73146665 -0.18354574 -0.077318802
0.78383607 -0.16838297 -0.091846593
0.76772159 -0.16713834 -0.091970138
0.76219004 -0.16836677 -0.085893482
0.79481268 -0.16985455 -0.088735774
0.78080255 -0.17248239 -0.08948794
0.77700299 -0.17035076 -0.087480985
0.76375049 -0.17211027 -0.089382581
0.79280633 -0.17007717 -0.10096493
0.78769499 -0.16667874 -0.09770266
0.78243071 -0.17078018 -0.10124706
0.76847929 -0.1724842 -0.099094145
0.75540829 -0.17408203 -0.0961316
0.73569041 -0.17974839 -0.093050644
0.79994547 -0.17068879 -0.10979535
0.78572756 -0.16855082 -0.10640129
0.78555423 -0.17220308 -0.10474947
0.79374087 -0.16212898 -0.11491966
0.80120647 -0.16535819 -0.11623538
0.7979964 -0.16696796 -0.11493065
0.77526271 -0.17010608 -0.11802215
0.81045204 -0.16143602 -0.12928925
0.80326909 -0.16017815 -0.1287372
0.79497749 -0.1590316 -0.12911265
0.81969768 -0.15751384 -0.14234315
0.79899466 -0.15948391 -0.13539146
0.78022528 -0.16590349 -0.13366145
0.81609982 -0.15750471 -0.15299472
0.80000293 -0.15749352 -0.14710991
0.80136484 -0.1637827 -0.14747593
0.78518778 -0.16170092 -0.14930075
0.81000823 -0.15792347 -0.15708481
0.7962448 -0.15488395 -0.15605
0.82199973 -0.15304369 -0.16839324
0.80515468 -0.1580511 -0.17106715
0.86141992 -0.15263878 -0.18241084
0.83429796 -0.15631567 -0.17978902
0.82706052 -0.15755197 -0.17970161
0.81514883 -0.15493748 -0.18116023
0.80801332 -0.1562324 -0.17977247
0.87221712 -0.15007907 -0.1918236
0.84337574 -0.15151009 -0.18788423
0.8232128 -0.14800683 -0.18775871
0.83759379 -0.15732297 -0.18593341
0.82192105 -0.15700743 -0.19135991
0.80530804 -0.15677983 -0.18607292
0.83163661 -0.15624739 -0.19263127
0.83824819 -0.14821839 -0.21039446
0.82735258 -0.149038 -0.20360225
0.82118529 -0.15551911 -0.2016169
0.82781887 -0.15098566 -0.21611199
0.83683652 -0.13941701 -0.22529466
0.82760298 -0.14062943 -0.22719993
