# .PCD v0.7 - Point Cloud Data file format
VERSION 0.7
FIELDS x y z
SIZE 4 4 4
TYPE F F F
COUNT 1 1 1
WIDTH 338
HEIGHT 1
VIEWPOINT 0 0 0 1 0 0 0
POINTS 338
DATA ascii
-0.44210836 -0.1304134 -1.2533449
-0.43540749 -0.1330052 -1.2610384
-0.4396854 -0.13221602 -1.2614731
-0.4425635 -0.15244663 -1.2576917
-0.44849041 -0.14946026 -1.2618039
-0.4378207 -0.16551283 -1.2568235
-0.43485057 -0.13588008 -1.2724092
-0.43954656 -0.13453677 -1.267877
-0.4471328 -0.13386601 -1.2697902
-0.43349811 -0.1439299 -1.2692448
-0.44044796 -0.14390339 -1.2680073
-0.44599086 -0.14362815 -1.2662052
-0.4291797 -0.15023555 -1.2671657
-0.43463621 -0.15073875 -1.2691587
-0.44184971 -0.15197687 -1.2672752
-0.43627089 -0.15986219 -1.265672
-0.44083405 -0.16187021 -1.267745
-0.44708386 -0.16116123 -1.2697823
-0.43595064 -0.16970204 -1.2622174
-0.44095916 -0.1752618 -1.265529
-0.44704643 -0.17084906 -1.2684122
-0.4399794 -0.18045144 -1.2671
-0.43994197 -0.19013925 -1.2657299
-0.43656167 -0.1464631 -1.2758877
-0.442159 -0.14277771 -1.2767876
-0.4489724 -0.14234847 -1.2776539
-0.42866126 -0.15625809 -1.2789917
-0.43646485 -0.15605614 -1.2768779
-0.44105336 -0.15548997 -1.2761261
-0.44861922 -0.15642798 -1.2743516
-0.45420629 -0.15907322 -1.2791319
-0.43471333 -0.16492997 -1.2750251
-0.44066897 -0.16633493 -1.2750294
-0.44893155 -0.16370496 -1.2739042
-0.4410145 -0.1743581 -1.2747291
-0.4469347 -0.17085457 -1.2743649
-0.42573395 -0.18080302 -1.2733305
-0.43282121 -0.18074197 -1.2732127
-0.44124711 -0.17975733 -1.2715892
-0.44585496 -0.18380076 -1.2734926
-0.42761064 -0.19072536 -1.2709502
-0.43536827 -0.18996222 -1.271477
-0.44157344 -0.19090281 -1.2709513
-0.44527003 -0.18962419 -1.2665069
-0.44003063 -0.20021145 -1.2703191
-0.43655625 -0.22617793 -1.2689303
-0.44677174 -0.11850119 -1.2864867
-0.43869519 -0.13393001 -1.2851859
-0.45249388 -0.13780697 -1.2846023
-0.43149254 -0.14395714 -1.2842013
-0.44041866 -0.14468749 -1.2882642
-0.44934747 -0.14400825 -1.2896559
-0.45179248 -0.14504547 -1.2862039
-0.4330022 -0.15629566 -1.2817377
-0.45348999 -0.1584224 -1.2849319
-0.43071747 -0.16805379 -1.2818595
-0.43970916 -0.16312726 -1.2827966
-0.44600552 -0.16364533 -1.279721
-0.43434715 -0.17386152 -1.2820896
-0.43873772 -0.17403123 -1.2803067
-0.44790408 -0.17431921 -1.2833484
-0.42937627 -0.18171649 -1.2774357
-0.4356941 -0.1810423 -1.2833186
-0.43888503 -0.18428819 -1.2803154
-0.43405443 -0.19293627 -1.2802429
-0.43947583 -0.19372119 -1.2789118
-0.43500111 -0.20244683 -1.2782724
-0.44015592 -0.20208876 -1.278495
-0.44561297 -0.20261125 -1.277836
-0.43320796 -0.21219182 -1.2735175
-0.43993628 -0.21161112 -1.2777219
-0.44173595 -0.21982667 -1.2777159
-0.43662024 -0.2314201 -1.2764874
-0.4382121 -0.22835529 -1.2709832
-0.44083837 -0.14981827 -1.2940723
-0.44667539 -0.14765292 -1.2936287
-0.42775509 -0.15502793 -1.294485
-0.43395612 -0.157056 -1.2919662
-0.44180918 -0.15381411 -1.2966356
-0.44883913 -0.15670799 -1.2968893
-0.45137393 -0.1570856 -1.2938526
-0.4341962 -0.16712341 -1.2899872
-0.44102865 -0.16450535 -1.2904513
-0.45291263 -0.16748804 -1.2907974
-0.43454027 -0.1755937 -1.289629
-0.43942848 -0.1753972 -1.2911412
-0.45435268 -0.17269279 -1.2885748
-0.42822593 -0.18604855 -1.2900702
-0.43432179 -0.18581115 -1.2896043
-0.43950588 -0.18590938 -1.2915471
-0.42830959 -0.19476195 -1.2878664
-0.43401331 -0.1943226 -1.288381
-0.44104734 -0.19482717 -1.2895712
-0.42802078 -0.19977511 -1.2838577
-0.4346917 -0.20418127 -1.2892431
-0.44091639 -0.19992493 -1.2864174
-0.42856124 -0.2091285 -1.2889637
-0.43400007 -0.21287376 -1.2871963
-0.44101655 -0.21280304 -1.2849628
-0.44791114 -0.21023205 -1.2838889
-0.42583987 -0.22146852 -1.2867571
-0.43377712 -0.22446337 -1.2870799
-0.44029865 -0.22209622 -1.2850654
-0.44501129 -0.22431147 -1.2847047
-0.43500999 -0.23374015 -1.2861974
-0.44167075 -0.23632146 -1.2852348
-0.43440738 -0.23995219 -1.2838613
-0.43847615 -0.24225548 -1.2803276
-0.43804142 -0.25310051 -1.2800156
-0.43276525 -0.28533974 -1.2803476
-0.42982039 -0.17860726 -1.3037512
-0.43159163 -0.18695316 -1.2996143
-0.44137502 -0.18716711 -1.2997239
-0.43565249 -0.19704716 -1.2964802
-0.43921235 -0.19407089 -1.3026708
-0.43242055 -0.20672122 -1.2939256
-0.43800777 -0.20877597 -1.2992382
-0.42864367 -0.21285996 -1.2962155
-0.43316585 -0.214854 -1.2940341
-0.42036629 -0.22002305 -1.2910244
-0.43345913 -0.22428472 -1.296073
-0.43802992 -0.22270289 -1.2920249
-0.45160672 -0.22225726 -1.2928058
-0.42930272 -0.2314305 -1.2938154
-0.43348959 -0.23400952 -1.2937057
-0.44168159 -0.23250149 -1.2911025
-0.44923496 -0.23421049 -1.2921023
-0.42938772 -0.24219874 -1.2897382
-0.43573186 -0.24377987 -1.2917356
-0.44263747 -0.24117988 -1.2917123
-0.44543633 -0.24424754 -1.2953608
-0.42866382 -0.25189176 -1.2930926
-0.43488157 -0.25156623 -1.2905176
-0.44080359 -0.25116825 -1.2908831
-0.44519839 -0.25524777 -1.2937093
-0.42346543 -0.2649501 -1.2924788
-0.42921069 -0.26466578 -1.2903166
-0.43558595 -0.25845894 -1.2909607
-0.43792844 -0.26512587 -1.2923595
-0.42342696 -0.27491605 -1.2910693
-0.4306584 -0.27500397 -1.2910097
-0.43749398 -0.26963657 -1.2897296
-0.43619812 -0.27689862 -1.2870624
-0.43971559 -0.19358294 -1.3053482
-0.4358725 -0.20695508 -1.3029947
-0.44031277 -0.20677722 -1.3028407
-0.43478 -0.21546467 -1.3022648
-0.44041678 -0.21748763 -1.3049282
-0.43572539 -0.22803065 -1.30445
-0.44056648 -0.22494096 -1.3058703
-0.42930323 -0.23536552 -1.2978011
-0.43328241 -0.23450136 -1.3016506
-0.42936581 -0.24537207 -1.296379
-0.43153268 -0.24290735 -1.2978801
-0.45115298 -0.24518436 -1.2960167
-0.43422103 -0.25226489 -1.3004682
-0.42717889 -0.26089421 -1.3012698
-0.43560275 -0.26413527 -1.2989272
-0.44330016 -0.26497895 -1.298756
-0.44701082 -0.26630056 -1.2976416
-0.42540857 -0.2692025 -1.3001593
-0.43498421 -0.27296367 -1.2971873
-0.43990359 -0.27201301 -1.2951224
-0.4343628 -0.28199947 -1.2993289
-0.44211611 -0.28481698 -1.2980028
-0.44484645 -0.28136379 -1.3003818
-0.43300718 -0.2896418 -1.2976568
-0.43886665 -0.28647727 -1.2966177
-0.44127259 -0.3025021 -1.2960074
-0.43738326 -0.31685227 -1.2935096
-0.43713725 -0.22817475 -1.3130785
-0.4408794 -0.2288169 -1.311352
-0.43453813 -0.2346686 -1.3076783
-0.4424648 -0.23830515 -1.3125917
-0.43457168 -0.24459514 -1.3080956
-0.43995801 -0.24569176 -1.3128465
-0.43039021 -0.25718209 -1.3070711
-0.43383348 -0.25520238 -1.3093208
-0.44053215 -0.25511411 -1.3086027
-0.44763678 -0.2573714 -1.3054579
-0.42847967 -0.26341379 -1.3090155
-0.43333879 -0.26368117 -1.3064193
-0.43841243 -0.26200709 -1.3126453
-0.42881948 -0.2736378 -1.3066018
-0.43593237 -0.27349392 -1.3066915
-0.44134668 -0.27579528 -1.3022697
-0.42892936 -0.28351092 -1.3057239
-0.43452737 -0.28318867 -1.3032271
-0.44105718 -0.28601179 -1.3005886
-0.44649804 -0.28492343 -1.3086414
-0.42617473 -0.28797433 -1.300861
-0.4338524 -0.29026407 -1.3027561
-0.43930599 -0.29294035 -1.3048099
-0.4463475 -0.2939558 -1.3054293
-0.42149004 -0.30585158 -1.3031102
-0.4259212 -0.29791898 -1.3000871
-0.43430811 -0.29851779 -1.3011138
-0.44087881 -0.29952314 -1.3024223
-0.4460693 -0.30416358 -1.3036237
-0.42642832 -0.30926609 -1.301192
-0.43536469 -0.31141791 -1.3017375
-0.44119048 -0.31069946 -1.3000964
-0.45062211 -0.31394869 -1.2995067
-0.43275616 -0.31810892 -1.2984551
-0.44069266 -0.31797194 -1.2969756
-0.42742258 -0.32864705 -1.3011396
-0.4345696 -0.32834706 -1.2986097
-0.44261569 -0.32944596 -1.3010088
-0.4341096 -0.33829132 -1.2984328
-0.44212621 -0.33908987 -1.2985485
-0.4443728 -0.24502602 -1.3167487
-0.43411523 -0.25815552 -1.3179358
-0.43739837 -0.25387022 -1.3187631
-0.44722539 -0.25810587 -1.3148476
-0.42952871 -0.26075757 -1.3139518
-0.4329755 -0.26796836 -1.3174686
-0.44030318 -0.26430792 -1.3166472
-0.4270303 -0.27372622 -1.3133469
-0.43454447 -0.27673784 -1.3176366
-0.44062376 -0.27621374 -1.3194456
-0.42838386 -0.28255695 -1.3156822
-0.43184778 -0.28306171 -1.3138705
-0.43917501 -0.2844629 -1.3107753
-0.44493344 -0.28445366 -1.3100516
-0.4297387 -0.29142675 -1.3180466
-0.43155682 -0.29514432 -1.3130033
-0.4393563 -0.29606912 -1.3145733
-0.44686663 -0.2959944 -1.314105
-0.42862666 -0.30389366 -1.3105657
-0.43326008 -0.30051181 -1.309039
-0.43956435 -0.30213881 -1.3088653
-0.44812047 -0.29939502 -1.3124286
-0.42777458 -0.31279412 -1.3112662
-0.43490642 -0.31275994 -1.3102498
-0.43974215 -0.31120962 -1.3084683
-0.42161539 -0.32094371 -1.3127921
-0.42574784 -0.32225874 -1.3094127
-0.43336204 -0.31919742 -1.3107055
-0.43903083 -0.31876445 -1.3095835
-0.44693923 -0.31667045 -1.3110268
-0.43341938 -0.33007935 -1.3098851
-0.4398568 -0.32741338 -1.3105218
-0.42267883 -0.33614716 -1.3037872
-0.42815289 -0.33712029 -1.3104557
-0.43459117 -0.34036717 -1.3071792
-0.4395014 -0.33742121 -1.3084167
-0.42956102 -0.34849668 -1.3062178
-0.44047299 -0.34909058 -1.3089633
-0.43746525 -0.35737407 -1.3020453
-0.42756063 -0.37206951 -1.3020501
-0.44110718 -0.2610814 -1.3226035
-0.44209379 -0.26937693 -1.3250701
-0.4339056 -0.28826258 -1.3201082
-0.43983632 -0.28514311 -1.3217196
-0.44495949 -0.28282231 -1.3232098
-0.43343958 -0.29221693 -1.321768
-0.44101676 -0.2938664 -1.3241606
-0.44600561 -0.29138333 -1.3256263
-0.43058506 -0.30064219 -1.3201511
-0.43331927 -0.30259249 -1.3209554
-0.43984559 -0.30271462 -1.3222008
-0.43278474 -0.31248143 -1.3196398
-0.44158658 -0.31339914 -1.3226625
-0.44778466 -0.31652188 -1.3148997
-0.43255284 -0.32334405 -1.3186859
-0.43911639 -0.32582453 -1.3167177
-0.4233411 -0.33157605 -1.3144646
-0.42747876 -0.32885903 -1.3196574
-0.43302664 -0.33013973 -1.3147285
-0.44108981 -0.32998624 -1.3164866
-0.44774222 -0.32847637 -1.316417
-0.42682421 -0.34267437 -1.3182636
-0.43443012 -0.34038091 -1.3152833
-0.43979523 -0.33817279 -1.3143331
-0.44516841 -0.33840117 -1.3147383
-0.427683 -0.35224873 -1.3167391
-0.43762517 -0.3489024 -1.313707
-0.44210389 -0.35246205 -1.3163933
-0.43247512 -0.35949659 -1.3110601
-0.43190932 -0.36908364 -1.3071942
-0.44370654 -0.37100238 -1.3095808
-0.44162706 -0.29938242 -1.3292359
-0.42514122 -0.30649626 -1.3258353
-0.43547088 -0.30420393 -1.3262621
-0.44006658 -0.30147198 -1.3275566
-0.44529182 -0.30235511 -1.3265496
-0.43296993 -0.31305385 -1.3293346
-0.44031921 -0.31308243 -1.3281727
-0.42841795 -0.32716036 -1.3286632
-0.43348691 -0.32249394 -1.3313987
-0.446531 -0.32477704 -1.3277069
-0.43152049 -0.33134291 -1.3261411
-0.4386113 -0.33462262 -1.3259543
-0.42837504 -0.34447539 -1.3207002
-0.43135306 -0.34183818 -1.3259726
-0.43811575 -0.34478518 -1.3252951
-0.44590542 -0.34530395 -1.3233875
-0.42798591 -0.35481679 -1.3242079
-0.43653372 -0.35008079 -1.3244418
-0.43931824 -0.35367268 -1.3240372
-0.4445771 -0.34864515 -1.3274536
-0.43071452 -0.35970253 -1.3256301
-0.43495977 -0.35961717 -1.3256086
-0.44241077 -0.36030811 -1.3230025
-0.42948598 -0.37015942 -1.3220164
-0.43682751 -0.36837775 -1.3247401
-0.43843019 -0.370188 -1.3207158
-0.42129633 -0.30181131 -1.3393942
-0.43654621 -0.31950393 -1.3334222
-0.43917966 -0.31883228 -1.333179
-0.43312886 -0.32811466 -1.3367026
-0.42984334 -0.33357555 -1.3332951
-0.43338311 -0.3340708 -1.3333575
-0.44114408 -0.33032581 -1.3335365
-0.43005893 -0.33986557 -1.3379595
-0.4356702 -0.34003907 -1.3369951
-0.44132075 -0.34449834 -1.3322704
-0.45095199 -0.3464447 -1.3312209
-0.43049902 -0.35753906 -1.3317864
-0.4334982 -0.3532941 -1.3341086
-0.4389455 -0.35273105 -1.3362937
-0.44418234 -0.35089868 -1.3364663
-0.42931959 -0.36223513 -1.3327773
-0.43257615 -0.3592819 -1.334227
-0.43885282 -0.36109778 -1.3296577
-0.44581622 -0.35817587 -1.3299291
-0.43305874 -0.37155873 -1.3316237
-0.43988222 -0.37008011 -1.3348134
-0.44757426 -0.37039989 -1.3338808
-0.43027452 -0.34615558 -1.3426239
-0.43582165 -0.34821039 -1.3414392
-0.42720345 -0.35819 -1.3438576
-0.43165401 -0.35536343 -1.3451186
-0.43849871 -0.35853922 -1.341916
-0.43042561 -0.36406383 -1.3380555
-0.43455431 -0.36423004 -1.3379122
-0.44063753 -0.36223185 -1.3379928
-0.43679824 -0.36455297 -1.3472383
