# .PCD v0.7 - Point Cloud Data file format
VERSION 0.7
FIELDS x y z
SIZE 4 4 4
TYPE F F F
COUNT 1 1 1
WIDTH 200
HEIGHT 1
VIEWPOINT 0 0 0 1 0 0 0
POINTS 200
DATA ascii
0.24166031 -0.028633043 -1.2528526
0.23415543 -0.031967878 -1.2526751
0.22744334 -0.028136358 -1.2516457
0.21163017 -0.021198064 -1.262319
0.26107699 -0.031359658 -1.2603393
0.25387576 -0.030289873 -1.2613585
0.2492767 -0.030751437 -1.2595414
0.24242713 -0.031520173 -1.2600864
0.23584282 -0.031114429 -1.2594303
0.22779278 -0.030049145 -1.2580595
0.223428 -0.02850683 -1.2601607
0.25630647 -0.026345 -1.2683631
0.2494038 -0.026057154 -1.2683296
0.2426167 -0.02571471 -1.2674537
0.23484832 -0.026117727 -1.2677
0.2284421 -0.026457667 -1.2677888
0.22232628 -0.024245963 -1.2684501
0.21684064 -0.023451373 -1.2690395
0.21017945 -0.022859052 -1.2667719
0.20185795 -0.021127731 -1.2716522
0.2621938 -0.031647995 -1.2710757
0.2560955 -0.031832516 -1.2683432
0.24912752 -0.032798827 -1.2682298
0.24282347 -0.032184541 -1.2670407
0.2358565 -0.032361001 -1.2673082
0.23000675 -0.032498553 -1.2688006
0.22222532 -0.03193216 -1.266169
0.24523175 -0.021446109 -1.2779328
0.22870517 -0.020041853 -1.274403
0.22169863 -0.018311545 -1.276106
0.2145056 -0.018163681 -1.2776488
0.20984077 -0.015511185 -1.2792985
0.20172806 -0.014666289 -1.2796867
0.19720845 -0.016284779 -1.2793756
0.26367816 -0.027505144 -1.2775195
0.25639188 -0.027116984 -1.2773341
0.248992 -0.02707839 -1.2778709
0.24287462 -0.027427226 -1.2748207
0.23574992 -0.027659521 -1.2769583
0.22780021 -0.028265595 -1.2751474
0.22153901 -0.027676597 -1.2766215
0.21610731 -0.024404302 -1.2775587
0.20994283 -0.027537197 -1.2763578
0.20255479 -0.025091454 -1.2779797
0.21375169 -0.020038754 -1.2860295
0.2089663 -0.018236473 -1.2879033
0.2033987 -0.017497987 -1.288478
0.19629316 -0.016756505 -1.2875707
0.2690345 -0.026335537 -1.2880511
0.26297012 -0.027360231 -1.2869716
0.2568177 -0.028392553 -1.2836601
0.21559952 -0.02715309 -1.2864877
0.20981663 -0.026760459 -1.2868406
0.2027829 -0.02676411 -1.2829815
0.20637748 -0.011701658 -1.2979406
0.20343941 -0.0093743801 -1.2978444
0.19384456 -0.010386556 -1.2982889
0.18889773 -0.0091319531 -1.2990507
0.27156758 -0.021901011 -1.2958999
0.21307804 -0.023740113 -1.2952219
0.20858395 -0.019243896 -1.2976743
0.20404188 -0.016800195 -1.2964296
0.19534388 -0.018838912 -1.296064
0.18914868 -0.018095464 -1.3011
0.21009387 -0.025898486 -1.2952014
0.20101786 -0.027627483 -1.2945065
0.20712277 -0.01236096 -1.3080492
0.20396812 -0.010810599 -1.3070248
0.19475268 -0.013329148 -1.3077934
0.19030245 -0.010784969 -1.3069957
0.18482998 -0.010272503 -1.3086885
0.28021026 -0.019741103 -1.3086851
0.27547574 -0.019923285 -1.3069245
0.27255127 -0.024176419 -1.3050603
0.21329944 -0.023733631 -1.3073095
0.20914552 -0.020954132 -1.3064611
0.2048731 -0.016901955 -1.3044943
0.19571537 -0.021148652 -1.3052741
0.19128975 -0.017590091 -1.305751
0.19185835 -0.025132686 -1.304882
0.20737389 -0.0052912533 -1.3194082
0.19592935 -0.0021049827 -1.3211153
0.18791255 -0.0018263757 -1.3171365
0.21343413 -0.016105652 -1.3195056
0.20827414 -0.0133131 -1.3171815
0.20490462 -0.010963798 -1.3159535
0.19490106 -0.011673987 -1.3169755
0.18963785 -0.012757391 -1.3165376
0.2765215 -0.019139782 -1.3156615
0.20992918 -0.020508856 -1.3155415
0.19648084 -0.023112267 -1.3131839
0.19015446 -0.021432057 -1.3155159
0.21335971 -0.0084198415 -1.3308578
0.20911622 -0.0048808903 -1.3279991
0.20402275 -0.0035804361 -1.3261971
0.19469769 -0.0046236068 -1.3273883
0.18895169 -0.0050493032 -1.3263142
0.18528695 -0.0047086328 -1.3289638
0.27470109 -0.01341711 -1.3253311
0.27244917 -0.013326511 -1.3290508
0.21458706 -0.015944883 -1.3282521
0.21029463 -0.013345197 -1.3253158
0.20159954 -0.016098067 -1.3275996
0.19598493 -0.013061136 -1.3250014
0.19078657 -0.011876017 -1.3254695
0.21154277 -0.0207766 -1.3227451
0.21987149 -1.9073486e-05 -1.3418607
0.26417226 -0.0060853213 -1.3400258
0.25637627 -0.0064569265 -1.3403648
0.2210699 -0.0070046782 -1.3403971
0.2162313 -0.0066826344 -1.3376738
0.21175519 -0.0043443888 -1.3346919
0.20308934 -0.0063270479 -1.3376489
0.19560412 -0.0055718124 -1.3360234
0.19020814 -0.0070398599 -1.335201
0.26959407 -0.014125109 -1.3362143
0.26499563 -0.014060885 -1.3392413
0.25714293 -0.013552621 -1.337731
0.24632838 -0.014913857 -1.3399119
0.22202617 -0.015857935 -1.3375603
0.21675411 -0.014624268 -1.3345312
0.2110159 -0.013331264 -1.3324105
0.20306788 -0.013602659 -1.3352857
0.19637656 -0.014955983 -1.334778
0.19220665 -0.011307731 -1.3313732
0.20896497 0.0015128106 -1.3490043
0.20328006 0.0026522279 -1.3471471
0.19033636 0.0033961236 -1.3460499
0.26914641 -0.0063397288 -1.3465049
0.26383448 -0.0076675564 -1.3461373
0.25780642 -0.0076536238 -1.3480051
0.25035447 -0.0073637664 -1.3470988
0.2435894 -0.0084568709 -1.3481722
0.23701172 -0.0074066222 -1.3483125
0.22958001 -0.0072843581 -1.3484281
0.22356193 -0.0074114949 -1.3454762
0.21838333 -0.0052054375 -1.3435373
0.20966604 -0.0067634583 -1.3469601
0.20342548 -0.0069164634 -1.3464663
0.19647457 -0.0064887851 -1.3454511
0.19256917 -0.0070135444 -1.3437169
0.26313505 -0.014245078 -1.3451519
0.22998774 -0.015497029 -1.3436612
0.22388932 -0.015204996 -1.3429644
0.20861751 -0.015248954 -1.3444988
0.19699565 -0.01506485 -1.3454663
0.24428299 0.00044620037 -1.3573149
0.23713991 0.00083501637 -1.3566941
0.23056787 0.00025829673 -1.3557183
0.22335693 -0.00045473874 -1.3577075
0.21700531 0.00092661381 -1.3573509
0.21139504 -0.0013220906 -1.3579148
0.20306945 -0.00012791157 -1.3570974
0.19568831 0.00047929585 -1.3553643
0.18767767 0.0049025863 -1.3534577
0.26253808 -0.0041849613 -1.3541424
0.25617197 -0.0085891187 -1.3552996
0.25002664 -0.0082205087 -1.3553069
0.24286266 -0.0069723725 -1.3559109
0.2369622 -0.0068494678 -1.3543768
0.23042032 -0.0076998472 -1.3563139
0.22280602 -0.009090066 -1.3576676
0.21659771 -0.0084189177 -1.355756
0.2099608 -0.0090347826 -1.3546023
0.20358911 -0.0092585832 -1.3537219
0.19733091 -0.0072865933 -1.3527673
0.19613346 0.0069047064 -1.365239
0.25690448 -0.0039030015 -1.3668183
0.24988712 -0.0019861609 -1.3671079
0.2436361 -0.001489222 -1.3650746
0.23684517 -0.0010917336 -1.3649639
0.2303687 -0.0026682615 -1.3666644
0.2231254 -0.0016834885 -1.3670242
0.21658698 -0.00025305152 -1.3657466
0.20943226 0.00085021555 -1.3654226
0.20458043 0.00066049397 -1.3631479
0.19797477 -0.0014121085 -1.3642641
0.25384688 -0.0069293231 -1.36348
0.25020623 -0.0095708221 -1.3649353
0.23678009 -0.0096582919 -1.36446
0.2296733 -0.0081953853 -1.3645079
0.22365423 -0.0070875138 -1.3637567
0.21737501 -0.0093876719 -1.364779
0.21036994 -0.0084417611 -1.3622032
0.22313502 0.0068027675 -1.3765455
0.21737796 0.0066279173 -1.3742436
0.21226725 0.0077028424 -1.3757614
0.25140005 0.00014042854 -1.3754042
0.24495931 -0.0022459775 -1.3733491
0.23800693 -0.001156643 -1.3735086
0.23198135 -0.0023507178 -1.3750389
0.22347371 -0.004642874 -1.3752943
0.21644466 -0.000242576 -1.3731384
0.23777606 -0.0073378682 -1.3740054
0.22959843 -0.0066164434 -1.3736005
0.22211994 -0.0092598051 -1.3717601
0.21853247 -0.0090301335 -1.3723992
0.23440577 0.0066646188 -1.3828083
0.22379111 0.005216524 -1.3849878
0.22796056 -0.0026715547 -1.38098
