# .PCD v0.7 - Point Cloud Data file format
VERSION 0.7
FIELDS x y z
SIZE 4 4 4
TYPE F F F
COUNT 1 1 1
WIDTH 1354
HEIGHT 1
VIEWPOINT 0 0 0 1 0 0 0
POINTS 1354
DATA ascii
0.51369029 -0.17738038 0.36272952
0.52853346 -0.19549811 0.36524308
0.51690191 -0.19490074 0.36857009
0.4757708 -0.19973963 0.36653143
0.51758844 -0.17387573 0.34821036
0.48438296 -0.18263838 0.35840979
0.48025519 -0.19594201 0.35239911
0.48333067 -0.21349075 0.35776341
0.48886734 -0.17884074 0.34427747
0.49427551 -0.19886561 0.34413758
0.50496155 -0.20424101 0.35196471
0.52148658 -0.17037109 0.33369121
0.4933517 -0.17504312 0.33014515
0.52474862 -0.18784618 0.3393442
0.50885969 -0.20073639 0.33744556
0.47393295 -0.19405428 0.3332822
0.52538472 -0.16686644 0.31917202
0.51384741 -0.15803343 0.31901753
0.52867198 -0.18431887 0.32473123
0.50517964 -0.17524517 0.32719162
0.48922396 -0.18834677 0.32413441
0.5127579 -0.19723172 0.32292637
0.4806118 -0.20544803 0.33225602
0.46990728 -0.20743679 0.32606933
0.50969291 -0.17142299 0.31296799
0.49927804 -0.1770065 0.312116
0.49005938 -0.1729444 0.31324744
0.50272167 -0.19491193 0.31709448
0.49314973 -0.19059604 0.3180632
0.52427936 -0.19783595 0.31931406
0.48509616 -0.20165041 0.3181237
0.52928287 -0.16336182 0.30465287
0.53259528 -0.18079159 0.31011829
0.50553846 -0.18481258 0.30691844
0.49924037 -0.18670666 0.30434877
0.49370834 -0.18454914 0.31000209
0.50811267 -0.19083568 0.30302417
0.50245911 -0.20459668 0.30921423
0.52670074 -0.15532982 0.28847227
0.51386607 -0.15532149 0.29091075
0.49610975 -0.16908067 0.29962358
0.5174067 -0.17308277 0.29574823
0.50463343 -0.17295718 0.29813865
0.51005185 -0.18099043 0.29269481
0.52055413 -0.19022244 0.29388806
0.50859076 -0.20068109 0.29540744
0.48958054 -0.19785278 0.30399138
0.52555978 -0.15602186 0.27949688
0.5290134 -0.16572548 0.28241336
0.52279764 -0.16900654 0.28167793
0.51547396 -0.16545641 0.28418076
0.50680482 -0.16365026 0.28774813
0.50216019 -0.16521698 0.28599977
0.52881664 -0.17328748 0.2847513
0.52637184 -0.18694979 0.28640911
0.51880211 -0.18320328 0.28891042
0.51350361 -0.18675947 0.2889539
0.50533092 -0.18281727 0.29063436
0.49406493 -0.19405514 0.28985903
0.53593045 -0.20169887 0.29195395
0.53209168 -0.1512536 0.27440199
0.523233 -0.15995651 0.27029711
0.51128924 -0.15985262 0.27361578
0.53572762 -0.16907883 0.27908477
0.52577484 -0.17833871 0.27513888
0.51456517 -0.17716825 0.2784712
0.52445227 -0.18671781 0.27936891
0.49854928 -0.19025752 0.27572668
0.52943319 -0.15253955 0.2650702
0.5411545 -0.16497549 0.26492092
0.53524256 -0.16093791 0.26777673
0.53271484 -0.16978285 0.27023214
0.52835047 -0.18321316 0.26484975
0.5804705 -0.18692008 0.26769274
0.51041079 -0.19055784 0.27242166
0.50736916 -0.19239938 0.26965907
0.57349837 -0.1523377 0.25678256
0.5398829 -0.15621893 0.25263065
0.53330648 -0.14905722 0.25064349
0.568968 -0.16567516 0.25203806
0.54828864 -0.16668248 0.25166646
0.54127669 -0.15789431 0.25479981
0.53661299 -0.16627821 0.25571299
0.53115869 -0.17354268 0.26085794
0.53722554 -0.17874315 0.25808144
0.52428561 -0.178607 0.26081336
0.52697712 -0.18701942 0.254769
0.51492411 -0.18673566 0.25819802
0.579413 -0.14061214 0.24420662
0.57656324 -0.14896038 0.24209578
0.55593717 -0.14300121 0.24343278
0.54287368 -0.14310114 0.24626142
0.55439448 -0.15297289 0.24581091
0.54614198 -0.15166099 0.24378462
0.58006912 -0.16613033 0.24745065
0.53992468 -0.17304818 0.24570383
0.53570145 -0.16969565 0.24654172
0.52360284 -0.1711491 0.24949111
0.58357471 -0.18349934 0.25281718
0.53224862 -0.17970853 0.2503306
0.57943314 -0.19254079 0.24675952
0.56864446 -0.19022301 0.24790031
0.5545764 -0.18979186 0.2499685
0.5464322 -0.19276857 0.2485003
0.53329641 -0.19251078 0.25124195
0.5269857 -0.18893434 0.25398707
0.55949187 -0.13769941 0.23188245
0.57527769 -0.15435937 0.23679715
0.55200821 -0.15676884 0.23659329
0.53897065 -0.15677786 0.23946708
0.58315367 -0.16273138 0.23266982
0.55221194 -0.16315518 0.23705353
0.54332864 -0.16754095 0.23368326
0.55585116 -0.17477724 0.24112664
0.53614676 -0.17620389 0.23581144
0.53231865 -0.18409556 0.24031654
0.58818984 -0.13868754 0.22344401
0.57072288 -0.1392467 0.22146432
0.55478776 -0.13879499 0.22113651
0.58056051 -0.14798671 0.22510549
0.56052792 -0.14611083 0.22785774
0.55353999 -0.15006314 0.2271862
0.54896832 -0.14852485 0.22399823
0.59232116 -0.15681253 0.22793366
0.55884612 -0.15735772 0.22590379
0.55678511 -0.15614672 0.22243503
0.57472485 -0.17075512 0.22393543
0.56131452 -0.17064627 0.22686741
0.55484623 -0.16691203 0.23008348
0.5402441 -0.16584861 0.23222552
0.57859427 -0.17615426 0.22789493
0.54781938 -0.17667228 0.23163636
0.53606266 -0.17932536 0.2261366
0.5920949 -0.1822609 0.22946562
0.57490236 -0.18622679 0.23380917
0.59369022 -0.13452858 0.20908813
0.58269286 -0.1422057 0.21272226
0.56562096 -0.13868906 0.21417494
0.59785903 -0.15262522 0.21347989
0.58655417 -0.14864595 0.21286318
0.56882435 -0.15302449 0.21608476
0.58307523 -0.15396681 0.21298268
0.55712056 -0.16212822 0.21420214
0.58831167 -0.170862 0.22095414
0.57735759 -0.1641376 0.21539253
0.56331766 -0.16388145 0.21765441
0.55503845 -0.17150506 0.21711525
0.5733912 -0.18006058 0.21504417
0.5607816 -0.17981099 0.21878716
0.55174273 -0.17314501 0.21702342
0.54833913 -0.17956558 0.22248335
0.59805894 -0.12870513 0.20222117
0.57639217 -0.14284042 0.20890678
0.56590199 -0.14469089 0.2059209
0.55351102 -0.14467783 0.20968203
0.57816249 -0.15554316 0.20797776
0.57197106 -0.15644549 0.20345438
0.56962103 -0.16225851 0.21045126
0.56005859 -0.15610063 0.20782763
0.5938496 -0.16667467 0.20650038
0.57924002 -0.16821635 0.20413068
0.56310767 -0.1675414 0.20388725
0.58741826 -0.17823434 0.20562693
0.57322228 -0.17788488 0.20798305
0.57029396 -0.17956443 0.20801546
0.54957706 -0.1802008 0.20875047
0.58430225 -0.18491146 0.21397465
0.60217994 -0.12589458 0.18904811
0.59919065 -0.1303696 0.19473225
0.58686149 -0.13131937 0.19500831
0.59392357 -0.14245239 0.19481172
0.58005625 -0.14081663 0.19570585
0.60252231 -0.15251487 0.19933894
0.58122736 -0.15216583 0.19329099
0.58380944 -0.15848324 0.20021458
0.57422364 -0.15836067 0.19594604
0.58476317 -0.16935632 0.19833326
0.57363212 -0.1688806 0.20323327
0.55566597 -0.16961771 0.20241044
0.58984017 -0.18072414 0.19952089
0.57802451 -0.17613684 0.20044251
0.61583531 -0.12582347 0.18578623
0.60904771 -0.12854913 0.18182221
0.59493065 -0.12735572 0.18178031
0.58911723 -0.12536767 0.1827157
0.57250893 -0.12786166 0.17923845
0.63914376 -0.13707136 0.18306328
0.6001389 -0.13848338 0.18081658
0.58882254 -0.13545103 0.18334872
0.57775027 -0.13519914 0.18832962
0.62284088 -0.14417188 0.18128856
0.61722392 -0.14002413 0.18058258
0.60827321 -0.13937774 0.18805026
0.60476476 -0.13977507 0.18517806
0.59520835 -0.14432393 0.18780002
0.58306313 -0.14080819 0.18761012
0.64315808 -0.15432429 0.18809274
0.62371594 -0.1504356 0.18419315
0.61163062 -0.14865094 0.18647888
0.60389119 -0.15464352 0.18407488
0.59240705 -0.15253447 0.18832731
0.58890444 -0.15471199 0.18581477
0.60868698 -0.15752149 0.19002278
0.59938747 -0.16248737 0.19204661
0.58692259 -0.15846765 0.19205119
0.62765384 -0.16768436 0.18925062
0.60487461 -0.17515382 0.19116704
0.59367615 -0.17423812 0.1915358
0.58112675 -0.17135261 0.18969223
0.55500382 -0.17609747 0.19458665
0.62494105 -0.12072492 0.1716433
0.63605255 -0.12409532 0.1684857
0.61942041 -0.12374807 0.16854045
0.61584389 -0.12552239 0.16901501
0.61157137 -0.12991594 0.17000701
0.5965423 -0.12227069 0.16934237
0.61451942 -0.13856266 0.17827412
0.5876658 -0.13691035 0.17310491
0.58428997 -0.13573994 0.17949064
0.62400311 -0.1424695 0.17298968
0.60807604 -0.1413763 0.17629923
0.61575931 -0.15610908 0.17464131
0.60492533 -0.15830004 0.17759286
0.59155589 -0.15454391 0.17744952
0.63004506 -0.16419862 0.17427011
0.59909594 -0.16639557 0.1784393
0.58784765 -0.16595735 0.18355243
0.58140832 -0.16326635 0.17808518
0.623236 -0.17684545 0.17851572
0.6155563 -0.17119753 0.17733967
0.60919112 -0.17667952 0.18178672
0.59993398 -0.17024189 0.1774447
0.59537804 -0.17653681 0.18506713
0.551458 -0.17700008 0.18182409
0.63119894 -0.11672869 0.1575522
0.61724627 -0.11879617 0.16089797
0.60977185 -0.1206286 0.16334368
0.60313541 -0.13231368 0.16354051
0.63544041 -0.13463892 0.1615638
0.62745297 -0.13836539 0.16373202
0.62101448 -0.13548476 0.16488214
0.61335838 -0.13681284 0.1648877
0.59258687 -0.13613108 0.1624568
0.6369856 -0.14714925 0.16368619
0.60678881 -0.1494659 0.16836922
0.59618926 -0.15062015 0.16284788
0.63691735 -0.15742362 0.16401389
0.62014019 -0.15682241 0.16407344
0.61747164 -0.15468144 0.16923238
0.61035568 -0.15240416 0.17081384
0.60362262 -0.15623948 0.16415995
0.60168552 -0.16750993 0.16611484
0.5958057 -0.16734442 0.17412925
0.58729106 -0.16828935 0.1712392
0.61467499 -0.17739025 0.17545593
0.62955803 -0.11763915 0.14819059
0.6248852 -0.12168692 0.1562496
0.6156919 -0.11789273 0.15166463
0.62456447 -0.1265278 0.14963375
0.63399267 -0.1357398 0.1521828
0.63218969 -0.13844824 0.15956947
0.5830549 -0.1370998 0.15987416
0.56712425 -0.13665485 0.15994853
0.67581683 -0.14910066 0.15751247
0.63124776 -0.14857648 0.15405175
0.62216705 -0.15070501 0.15443464
0.61667794 -0.14934368 0.15837143
0.60989308 -0.14604515 0.15349363
0.63853014 -0.15411091 0.15628411
0.63243622 -0.16071288 0.1592896
0.62437981 -0.15410164 0.15970832
0.63545388 -0.16680101 0.1579778
0.6207341 -0.16736302 0.16269471
0.61537236 -0.1675359 0.16315471
0.60220021 -0.1629748 0.16356374
0.65878248 -0.11361151 0.1386472
0.63474578 -0.11552411 0.14151652
0.65788913 -0.1171324 0.14112863
0.64360547 -0.11737796 0.14465727
0.64353979 -0.13298185 0.14287424
0.63536423 -0.12656757 0.14390625
0.63118476 -0.13279854 0.14593063
0.61676776 -0.12898372 0.14047131
0.60621989 -0.12891471 0.14875968
0.64929366 -0.13971087 0.14578478
0.63937676 -0.14366351 0.14870569
0.64889061 -0.15081003 0.14583895
0.64516371 -0.15337291 0.1504954
0.63544184 -0.15075882 0.15017022
0.62076986 -0.14665841 0.1450188
0.57927436 -0.15114668 0.15114804
0.66226417 -0.15396099 0.15035802
0.63482738 -0.15722716 0.14430912
0.62395561 -0.16211358 0.14947268
0.60530442 -0.15955406 0.14868815
0.65331131 -0.16913286 0.15011616
0.63446516 -0.16835487 0.14920799
0.62034297 -0.16824743 0.15268096
0.61627728 -0.17117532 0.15515721
0.59978747 -0.17048904 0.15530792
0.58350778 -0.16979775 0.1554147
0.66061199 -0.11203155 0.12822506
0.64020246 -0.11489209 0.1374266
0.62535095 -0.11277842 0.13157731
0.64956963 -0.1240398 0.13324378
0.63329321 -0.12657399 0.13600077
0.60930437 -0.12551574 0.13397884
0.65452087 -0.13014071 0.13245584
0.64856255 -0.13040572 0.13272904
0.64137465 -0.12942716 0.13156664
0.62960112 -0.1303024 0.13591574
0.6375491 -0.14455254 0.13986285
0.66036576 -0.14760062 0.13348825
0.64516199 -0.14854717 0.13836151
0.63336235 -0.14692923 0.14005677
0.64179885 -0.16274916 0.14369056
0.63031602 -0.15776683 0.13557456
0.61626053 -0.16053474 0.13945766
0.60943604 -0.16053665 0.13768573
0.65834427 -0.16852583 0.14131014
0.64127249 -0.16783091 0.14151387
0.63027799 -0.17079078 0.13991252
0.62446374 -0.16715406 0.141737
0.66434771 -0.10948272 0.12155966
0.66233182 -0.11841468 0.12458806
0.64858621 -0.11238886 0.12237836
0.63734818 -0.11197425 0.12701739
0.66118395 -0.12010011 0.12386931
0.65546411 -0.1281637 0.12886168
0.64870846 -0.12312838 0.12314126
0.63774014 -0.12310401 0.12902108
0.66713846 -0.13737291 0.12905499
0.65480983 -0.13110976 0.12145029
0.66165662 -0.14527151 0.12345844
0.65365022 -0.14677936 0.13083935
0.64975929 -0.14562033 0.12697637
0.64385051 -0.1405286 0.12567396
0.61610156 -0.13920365 0.1237425
0.60474491 -0.13893864 0.12920398
0.63721853 -0.1537414 0.12932859
0.65810353 -0.16507454 0.13501367
0.64814389 -0.15869731 0.12940328
0.64252692 -0.16085587 0.13409729
0.62882316 -0.16089781 0.13445866
0.62254053 -0.1606586 0.13334318
0.67777073 -0.10472009 0.11562527
0.6571911 -0.10754008 0.11484754
0.66739529 -0.117395 0.113748
0.66492957 -0.12484969 0.1176433
0.65687221 -0.12392877 0.11447369
0.64350814 -0.12552989 0.11643276
0.65998381 -0.13451044 0.11313926
0.64781672 -0.13693555 0.11949462
0.64415914 -0.13669203 0.11874468
0.65840977 -0.14274867 0.11583973
0.65170807 -0.14343572 0.12117752
0.62761617 -0.13947718 0.1182233
0.65448886 -0.15464547 0.11511599
0.65137863 -0.15322527 0.11964588
0.63287747 -0.15725271 0.1193576
0.60018551 -0.15236148 0.1244291
0.6628958 -0.16101621 0.1199112
0.64569438 -0.15986429 0.11990026
0.67895502 -0.10692456 0.1058749
0.66493845 -0.11154364 0.10182182
0.66016388 -0.10556618 0.10301825
0.65136832 -0.1083357 0.10520666
0.67901367 -0.11412358 0.10568601
0.66811031 -0.1147384 0.10456198
0.66064578 -0.11854313 0.10480821
0.65720695 -0.11535324 0.10343795
0.64580894 -0.11858154 0.10781853
0.67219681 -0.13000491 0.10652152
0.66393906 -0.13009508 0.10691315
0.64863276 -0.12257614 0.10578652
0.67215097 -0.13208532 0.1067839
0.66151559 -0.13939114 0.10790971
0.65015185 -0.13650465 0.11148505
0.64401078 -0.13642265 0.10680941
0.63928956 -0.13975821 0.11264235
0.68990034 -0.14912307 0.10496791
0.67638403 -0.14851466 0.10961112
0.6310752 -0.14659511 0.1053987
0.60326999 -0.14896253 0.10964827
0.67764306 -0.15156616 0.11137039
0.66623151 -0.15911353 0.11303802
0.64569098 -0.15762174 0.11425416
0.63464123 -0.15344286 0.10777435
0.65776539 -0.15972951 0.11447691
0.63506037 -0.16381928 0.1099515
0.65428895 -0.10296279 0.093033381
0.67787153 -0.10766828 0.092400223
0.67103469 -0.11012679 0.089897372
0.66694707 -0.11451919 0.090619311
0.65487552 -0.10545835 0.092240132
0.65260047 -0.10590419 0.090970233
0.67538869 -0.12160347 0.096458547
0.66451377 -0.11899215 0.091663897
0.65716136 -0.11952028 0.095342726
0.65306318 -0.11610451 0.09512347
0.6398589 -0.12022033 0.095179148
0.67788684 -0.12736821 0.094926603
0.65645313 -0.13248071 0.097296163
0.68493372 -0.14155541 0.098939843
0.67110437 -0.13570645 0.09569259
0.66107261 -0.13671611 0.096972369
0.64489305 -0.13721165 0.098270714
0.65878361 -0.14892076 0.10240922
0.64200091 -0.14676991 0.099367596
0.61461717 -0.14929181 0.10406145
0.66768801 -0.15695789 0.10480873
0.65848756 -0.15392436 0.096817017
0.65054089 -0.15478556 0.1021489
0.6464439 -0.1538202 0.10209567
0.64603359 -0.16408505 0.10386057
0.69717151 -0.099196725 0.080154799
0.69315243 -0.10522032 0.08077614
0.68236887 -0.10533342 0.080894224
0.67974019 -0.099412613 0.081085168
0.67217219 -0.1057533 0.080879115
0.64992642 -0.1008006 0.081134431
0.68191046 -0.10754853 0.080416329
0.66857344 -0.10612333 0.087037645
0.67671382 -0.12323343 0.083566606
0.66492128 -0.11673216 0.082666971
0.65411919 -0.11838022 0.085250631
0.65136421 -0.1208172 0.088807665
0.64138955 -0.11829796 0.090574622
0.68136948 -0.13184434 0.083066456
0.68001676 -0.13219917 0.083884507
0.66275448 -0.12845674 0.083107255
0.65115076 -0.13091037 0.087383054
0.68068719 -0.14053474 0.085985579
0.66987568 -0.13548489 0.086441353
0.66630256 -0.13682811 0.086010873
0.65416068 -0.135116 0.088535957
0.69698346 -0.15257569 0.090123445
0.67248023 -0.15289956 0.089706242
0.66512716 -0.14684504 0.08957272
0.65732372 -0.15044092 0.089854375
0.65082878 -0.14557244 0.091832146
0.64017439 -0.14629401 0.093518645
0.64844006 -0.16057692 0.088784054
0.64138889 -0.15389314 0.089912213
0.70358497 -0.10464977 0.074270472
0.69278604 -0.10497028 0.070935279
0.68212789 -0.10011589 0.06929484
0.67572737 -0.1007551 0.070350491
0.67156726 -0.098958462 0.076330081
0.65761447 -0.10019612 0.074739128
0.64250702 -0.1021685 0.072355941
0.68342716 -0.11675785 0.071130127
0.67557865 -0.11375866 0.077645592
0.67324847 -0.11049523 0.07643041
0.66334587 -0.11230572 0.075264618
0.65588206 -0.11267114 0.078199759
0.65337181 -0.11567777 0.072303012
0.68915075 -0.12044467 0.077763803
0.66853327 -0.11886521 0.076916479
0.65133262 -0.12623477 0.073803179
0.64688212 -0.12009217 0.076717637
0.68093067 -0.13241848 0.074182145
0.66250598 -0.13255011 0.07428164
0.64957994 -0.13234881 0.079652518
0.6455788 -0.13282767 0.082504123
0.69528502 -0.1416454 0.083343148
0.6847744 -0.14023547 0.074788868
0.67180914 -0.14169449 0.080785252
0.64439213 -0.14328417 0.084387079
0.6947518 -0.14779295 0.075466141
0.66825616 -0.15096134 0.077625841
0.66206545 -0.14891091 0.078508645
0.6395604 -0.14585342 0.079655081
0.67489576 -0.15795548 0.081295885
0.65999401 -0.15815118 0.083696336
0.67740142 -0.096717522 0.059224796
0.71416873 -0.10407884 0.06769979
0.70366174 -0.102392 0.061454244
0.67954975 -0.10647129 0.06224151
0.6681174 -0.10810061 0.06501849
0.6530872 -0.10486158 0.063350327
0.68396246 -0.10961219 0.063864365
0.67559266 -0.11324488 0.070310086
0.67099732 -0.1129675 0.066994697
0.6569252 -0.11226443 0.06865865
0.69902831 -0.11804254 0.070060581
0.67926759 -0.12169324 0.070345461
0.66905576 -0.12443279 0.068918355
0.66241014 -0.12625962 0.067480549
0.64811039 -0.12570295 0.068898655
0.69167852 -0.12936981 0.06945581
0.68528605 -0.13120213 0.069166847
0.67146492 -0.13087097 0.069981545
0.65917534 -0.12854941 0.071642995
0.64717126 -0.1324843 0.072131008
0.69493681 -0.13810015 0.064807363
0.67956799 -0.14514716 0.068225525
0.6601004 -0.14515907 0.071348265
0.70625204 -0.15363064 0.066257738
0.69347972 -0.15125087 0.067446768
0.68134463 -0.15354821 0.067204304
0.67778313 -0.14799035 0.073381774
0.67373782 -0.15106027 0.075153701
0.65793604 -0.14661278 0.06864582
0.64504057 -0.14631739 0.074054413
0.63702899 -0.15417366 0.074473992
0.6508466 -0.15706885 0.073707536
0.69022012 -0.095365673 0.053637952
0.685471 -0.096028976 0.055794276
0.67843497 -0.094583601 0.056243848
0.67253423 -0.096455462 0.05449421
0.66345674 -0.095859632 0.055687733
0.64953494 -0.097346477 0.056202836
0.69569725 -0.10547728 0.055030636
0.68463403 -0.10940938 0.057544678
0.68072814 -0.1060633 0.054139033
0.67288464 -0.10871068 0.052220345
0.66540623 -0.10441577 0.054269589
0.65242302 -0.10986941 0.057362847
0.64155501 -0.11023261 0.051805366
0.70695984 -0.11278445 0.051516529
0.69630444 -0.11507671 0.055691335
0.69014317 -0.11911498 0.060864415
0.68009955 -0.11404601 0.058859766
0.66581321 -0.11475234 0.058394633
0.65651637 -0.11221249 0.0572339
0.65270865 -0.1186017 0.05285554
0.68448555 -0.12818228 0.061366022
0.67659473 -0.12240136 0.054218266
0.66272658 -0.12472523 0.059661761
0.70410073 -0.13432817 0.056469835
0.70049822 -0.13049351 0.06098976
0.69201612 -0.1353664 0.061128329
0.67986906 -0.13843808 0.057966899
0.66658765 -0.12888046 0.059078857
0.65818477 -0.12969397 0.062476918
0.63820308 -0.13620441 0.06074319
0.68991506 -0.14482811 0.061640799
0.68416524 -0.1434458 0.05928221
0.67694509 -0.14752592 0.059784122
0.66486323 -0.13837035 0.061406307
0.65668023 -0.14254294 0.062042948
0.64180571 -0.14534102 0.063950375
0.67736453 -0.14709742 0.064765789
0.65325302 -0.15356077 0.058631014
0.72181338 -0.086612344 0.040980138
0.68770307 -0.091750585 0.039647065
0.72127098 -0.1026864 0.043842141
0.70485771 -0.099479571 0.043687295
0.70118827 -0.098134786 0.045988955
0.68642437 -0.10103984 0.041594774
0.67630661 -0.095057152 0.040955849
0.67139363 -0.096563369 0.041182198
0.66712636 -0.10053567 0.040783338
0.65934497 -0.098450221 0.044979304
0.70213193 -0.10554689 0.041807089
0.7004714 -0.1082325 0.042142995
0.69220281 -0.10916957 0.04736615
0.68665051 -0.10560905 0.047134403
0.67878252 -0.10916626 0.049850084
0.67207634 -0.10871936 0.044008262
0.66255885 -0.10632676 0.046661951
0.66034555 -0.10733323 0.044616114
0.65048683 -0.10930069 0.047073599
0.70101887 -0.11653672 0.051383372
0.69012475 -0.12010995 0.045564681
0.67905843 -0.11934245 0.044720095
0.66997111 -0.11933554 0.045750283
0.66622072 -0.11700533 0.044113271
0.65993851 -0.11997744 0.0451512
0.65409368 -0.11894073 0.049067914
0.7053237 -0.12640703 0.045782488
0.69604921 -0.12760592 0.050984975
0.69238526 -0.12416433 0.049437366
0.67962563 -0.12700462 0.050049618
0.66465235 -0.1256388 0.049082026
0.66480774 -0.13855065 0.048719373
0.66023815 -0.1364021 0.047979251
0.6405791 -0.13274086 0.045858018
0.69685096 -0.14615734 0.053226385
0.69149262 -0.14099869 0.04677508
0.68647277 -0.14323351 0.051905736
0.68840563 -0.15208088 0.0534954
0.69918263 -0.091559961 0.033041321
0.68884122 -0.088390239 0.033109091
0.67956346 -0.089654751 0.034755457
0.67487597 -0.089831226 0.030444488
0.73770386 -0.10213686 0.033935077
0.70998847 -0.09858162 0.037666351
0.70487273 -0.098516181 0.035097867
0.70090991 -0.1037192 0.031399719
0.68873304 -0.10206694 0.039776284
0.68846655 -0.095053375 0.034803137
0.67288935 -0.096461758 0.035051927
0.65990984 -0.10352534 0.032913111
0.71530491 -0.11131064 0.032402948
0.70218354 -0.1103837 0.040329155
0.70177662 -0.11125939 0.038193077
0.69064534 -0.10376196 0.038891472
0.68305027 -0.10477773 0.034952022
0.67162776 -0.10883154 0.03605593
0.65896916 -0.11209422 0.034557946
0.70825559 -0.12082671 0.035601996
0.69817537 -0.1178326 0.035859097
0.69013524 -0.12014478 0.03543222
0.68470532 -0.1178667 0.039008327
0.67743927 -0.12088732 0.037042961
0.66722316 -0.11924344 0.037327498
0.65994412 -0.12066971 0.036856286
0.69762683 -0.12377648 0.036119264
0.68947518 -0.12595519 0.037757672
0.67659706 -0.12854154 0.034713026
0.66446364 -0.13044168 0.038536891
0.70252901 -0.13952538 0.039003573
0.69558108 -0.13936955 0.039045691
0.68829215 -0.13850705 0.042312182
0.68558598 -0.13429324 0.040999774
0.67145658 -0.13649762 0.041460928
0.6649574 -0.13979509 0.040695056
0.64719355 -0.13855532 0.037751526
0.70181119 -0.14376041 0.036415048
0.69244224 -0.14429043 0.038143884
0.68485755 -0.14740439 0.040722664
0.68015236 -0.14399159 0.044414546
0.71782625 -0.092734262 0.028769109
0.71054614 -0.093285151 0.028495599
0.70616823 -0.094731219 0.027262013
0.69942337 -0.089998499 0.021685511
0.68662548 -0.087196805 0.02060752
0.67746824 -0.090244964 0.023062963
0.70384324 -0.10229874 0.024328364
0.69240606 -0.097609423 0.025696116
0.67922491 -0.10339563 0.026037607
0.70312572 -0.11224832 0.022669213
0.69604915 -0.10900783 0.023605525
0.69454455 -0.10538814 0.028558981
0.6850841 -0.1101019 0.029437231
0.67101777 -0.11020736 0.03076084
0.73503077 -0.11679949 0.023910869
0.7081728 -0.12332705 0.029306218
0.68990636 -0.11921632 0.024076642
0.68432391 -0.11695667 0.030686006
0.6784867 -0.11922812 0.030740365
0.67223185 -0.12150873 0.031969607
0.66672492 -0.12007731 0.027995512
0.66043735 -0.12063055 0.033414915
0.7170161 -0.1319011 0.025268015
0.71064091 -0.12566291 0.02665107
0.70491391 -0.12655188 0.03294516
0.69900423 -0.12512757 0.029772842
0.69064486 -0.12848788 0.030140758
0.6876114 -0.12553632 0.033344783
0.66537517 -0.13100918 0.0336271
0.70468926 -0.13550563 0.026185643
0.69300473 -0.13668464 0.028744817
0.68422121 -0.13862088 0.03129255
0.67516756 -0.13622649 0.029915802
0.67293525 -0.13455833 0.035395805
0.68199229 -0.14842041 0.03611549
0.71446699 -0.085898958 0.018361375
0.6789304 -0.086186126 0.015343423
0.72170866 -0.094532326 0.018156514
0.71322012 -0.094337478 0.01466516
0.70399749 -0.091515951 0.013201014
0.69891691 -0.092496954 0.016692016
0.6929664 -0.095698796 0.014559267
0.68827546 -0.09345413 0.015216085
0.67831343 -0.093453564 0.015003001
0.71005577 -0.10011585 0.01193804
0.69786155 -0.099624231 0.01505396
0.69489515 -0.10330746 0.017501973
0.68665206 -0.099444225 0.016481375
0.67348665 -0.10028191 0.020343438
0.66626477 -0.098035678 0.016654618
0.71947056 -0.1075654 0.016887087
0.69542724 -0.1078303 0.01795426
0.69302553 -0.1123242 0.017600689
0.68021578 -0.1135844 0.0154545
0.71650672 -0.11572179 0.021079253
0.70369226 -0.11561488 0.019926446
0.70116764 -0.1187991 0.018974703
0.6922881 -0.12013771 0.017934289
0.67900991 -0.11814239 0.01673902
0.65970677 -0.1166383 0.022739843
0.70715261 -0.13366933 0.024003398
0.69789696 -0.12928954 0.02080285
0.68892151 -0.12529624 0.021555334
0.68091893 -0.13010171 0.02207559
0.72199601 -0.13508373 0.024826054
0.70509052 -0.13781874 0.023358691
0.70069134 -0.14032646 0.024929544
0.68835205 -0.14038152 0.020394379
0.70380312 -0.14728679 0.022809606
0.68585068 -0.14786889 0.024880305
0.74215221 -0.089386798 0.0011246018
0.71988928 -0.085252218 0.0055590402
0.70405823 -0.084452495 0.0024959592
0.70099109 -0.086193047 0.0069128545
0.72830039 -0.089467913 0.007123109
0.71611071 -0.090246581 0.005880991
0.70268363 -0.093568824 0.0064766882
0.69707447 -0.089699864 0.0027313177
0.73855227 -0.099514909 0.0011689641
0.71347159 -0.10169566 0.0039837803
0.70860505 -0.10171125 0.0064711315
0.70078462 -0.10405516 0.0063835201
0.68576449 -0.10372724 0.0087658726
0.67777991 -0.1038084 0.0054040533
0.66582417 -0.10571649 0.010288728
0.7178117 -0.11773737 0.0047619906
0.70940828 -0.10976832 0.0067764614
0.70693123 -0.11340328 0.0077080522
0.70060158 -0.10825574 0.0060149375
0.69035167 -0.11004175 0.0047536045
0.68483001 -0.11225122 0.009372008
0.67781156 -0.10992949 0.0041590943
0.71410459 -0.12246694 0.011000475
0.70261449 -0.11821001 0.0076894285
0.69591659 -0.11998218 0.0080956891
0.68919033 -0.12657376 0.0087486655
0.73235768 -0.13146211 0.013886658
0.72675741 -0.12827726 0.013264787
0.71292508 -0.13132469 0.010161736
0.7051748 -0.13295117 0.01010943
0.69681418 -0.13312599 0.012820495
0.68937469 -0.12915032 0.012672633
0.67133188 -0.12861274 0.010159627
0.72500825 -0.13605495 0.011109412
0.71939838 -0.13913143 0.01218472
0.69889957 -0.13717474 0.007200364
0.68656713 -0.13692288 0.013675397
0.74788374 -0.080985293 -0.0076309945
0.73249739 -0.085458808 -0.0031681545
0.71339196 -0.085283458 -0.0065464675
0.70720482 -0.087981597 -0.0021685632
0.69587153 -0.090370424 -0.0041435887
0.6842792 -0.083648942 -0.0032477181
0.71909243 -0.092722706 -0.0024592935
0.71398181 -0.0930738 -0.0016794321
0.68420154 -0.091493718 -0.001768837
0.6801672 -0.092538185 -0.003441521
0.7310816 -0.10553363 -0.0023424467
0.72363645 -0.10382019 0.0013712301
0.7134434 -0.10474887 -0.0026472909
0.69487977 -0.10365921 -0.0051372633
0.66900027 -0.10834594 -0.0025631054
0.73407966 -0.1139297 -0.0053437883
0.71938622 -0.11616003 -0.0021099886
0.71568644 -0.11559893 -0.0049713403
0.68514907 -0.1097125 0.00013933424
0.72290593 -0.12777779 0.00046554348
0.72068024 -0.12220327 -0.0030242209
0.70690072 -0.11956657 -0.0032733232
0.69451541 -0.119431 0.003270884
0.67340845 -0.1251059 0.00062516378
0.72386861 -0.13651361 -0.00062724529
0.72037756 -0.13329661 -0.00098690251
0.7118659 -0.13389094 0.0010648547
0.69842094 -0.13188976 -0.00027099485
0.67760098 -0.12792736 0.0056488421
0.72343898 -0.14282945 0.0034792505
0.71019804 -0.14365429 0.0029132445
0.70246565 -0.1412944 -0.0013813907
0.70189106 -0.14152153 0.0016648453
0.71768242 -0.081486456 -0.019405451
0.71316469 -0.081944793 -0.017470181
0.74634677 -0.08561559 -0.014498918
0.74015486 -0.086045444 -0.014949051
0.72556424 -0.087253287 -0.014921614
0.72124314 -0.086097755 -0.013517995
0.71041214 -0.08444725 -0.017538141
0.70266616 -0.085525341 -0.018667638
0.7278021 -0.10007496 -0.014144628
0.71105886 -0.098134227 -0.0089016827
0.73132104 -0.10399041 -0.0097944969
0.72770816 -0.10424081 -0.012246165
0.71495068 -0.10451192 -0.011665743
0.70928055 -0.1043396 -0.0090464531
0.72602415 -0.11665443 -0.010692782
0.71951151 -0.11972759 -0.0098485909
0.70235968 -0.1122882 -0.0084778825
0.73630971 -0.12216692 -0.0069426987
0.73201531 -0.12511498 -0.011613345
0.71493667 -0.12569168 -0.0060963044
0.6973179 -0.12258146 -0.0045749051
0.73318028 -0.13920559 -0.0085239746
0.71959257 -0.14211932 -0.0058016321
0.76338452 -0.080296941 -0.028373599
0.75164205 -0.079357415 -0.026533071
0.74680042 -0.082150638 -0.028313547
0.73272759 -0.082006738 -0.026915748
0.73389286 -0.091659084 -0.023785971
0.73771054 -0.099910162 -0.024181947
0.73475099 -0.10052481 -0.023809569
0.72065288 -0.10279071 -0.02433994
0.71351266 -0.094557196 -0.024274498
0.70061541 -0.10009412 -0.017327135
0.75010091 -0.10571093 -0.018185528
0.73893857 -0.10981488 -0.020656494
0.73070943 -0.10892286 -0.02342118
0.74523062 -0.12004887 -0.02328591
0.73884344 -0.11780202 -0.022339378
0.73228782 -0.11988866 -0.016518097
0.72448462 -0.11780029 -0.020677384
0.72042906 -0.11544862 -0.019875627
0.68795198 -0.11797185 -0.014637721
0.67213076 -0.11849208 -0.01946843
0.72286403 -0.12967202 -0.016564101
0.72003806 -0.1271047 -0.017345209
0.71090621 -0.12140815 -0.016709663
0.70835012 -0.12524365 -0.019810872
0.7390514 -0.13504189 -0.022495814
0.72807747 -0.1352368 -0.01621085
0.71470684 -0.13387255 -0.01488033
0.70737249 -0.13221303 -0.021033607
0.76211584 -0.078781813 -0.036563266
0.74710673 -0.081609651 -0.034865022
0.73301059 -0.08422365 -0.031453636
0.72816056 -0.080468237 -0.031164154
0.7215721 -0.07780692 -0.033656057
0.71259761 -0.081329286 -0.032077514
0.76009041 -0.09474206 -0.038087118
0.74827009 -0.091285281 -0.029456453
0.71007156 -0.091236554 -0.033999421
0.69083464 -0.088763207 -0.034384482
0.6714018 -0.088758409 -0.032533526
0.75339556 -0.10208026 -0.033973992
0.74293745 -0.096503548 -0.037229788
0.7336548 -0.098648541 -0.029027656
0.71762502 -0.099409349 -0.028682072
0.7098459 -0.096430257 -0.029487113
0.69917762 -0.099884227 -0.027878687
0.74379754 -0.10570007 -0.035969205
0.74210161 -0.11186437 -0.034844294
0.74103463 -0.12048827 -0.025774864
0.73494363 -0.11442886 -0.033279404
0.7264868 -0.12269744 -0.031436794
0.69718254 -0.114308 -0.026797699
0.74898887 -0.1240976 -0.032862045
0.7333619 -0.12660043 -0.029521763
0.72535044 -0.12604742 -0.032141302
0.67193031 -0.13142961 -0.029505597
0.74036044 -0.13438679 -0.028386299
0.73633844 -0.13368049 -0.029689418
0.72844797 -0.13859278 -0.021810861
0.72171754 -0.13398595 -0.025558818
0.70681304 -0.13575086 -0.023834843
0.76854247 -0.075942546 -0.043541085
0.75545448 -0.074454218 -0.044937201
0.74798554 -0.069170579 -0.047732607
0.73399055 -0.075066768 -0.043433845
0.75520396 -0.078687094 -0.043344792
0.73605293 -0.079898544 -0.046725679
0.7743789 -0.094743967 -0.040425532
0.76023167 -0.092785433 -0.043544181
0.75312901 -0.087170467 -0.04476916
0.7372424 -0.093416825 -0.041243304
0.73613364 -0.092584506 -0.045176346
0.72346652 -0.093024649 -0.040361844
0.71907634 -0.092766404 -0.041647092
0.71596652 -0.090980165 -0.039647311
0.76656175 -0.10211542 -0.040917464
0.74424148 -0.096480876 -0.039864816
0.73924881 -0.10131814 -0.040756863
0.73089498 -0.095871136 -0.038049974
0.72630632 -0.098515987 -0.039095398
0.68633461 -0.10198956 -0.038542058
0.7565617 -0.1095879 -0.044931155
0.74544293 -0.1101427 -0.037450094
0.74284178 -0.11222596 -0.038082838
0.72568369 -0.10982389 -0.037249982
0.72062641 -0.10839763 -0.035919983
0.70641297 -0.11064414 -0.038957674
0.75023091 -0.11618602 -0.038114607
0.7476027 -0.11650489 -0.040166587
0.74076843 -0.12388201 -0.04176892
0.77113175 -0.1316383 -0.039895158
0.75234193 -0.13045141 -0.042257205
0.74848765 -0.13129637 -0.034926817
0.73416322 -0.13082667 -0.033684377
0.72920805 -0.12817535 -0.039416291
0.70858556 -0.12650119 -0.039214917
0.69374955 -0.12852187 -0.036268257
0.68360031 -0.13030633 -0.031880349
0.75343716 -0.1346435 -0.035291452
0.73717612 -0.13510026 -0.034095891
0.76826864 -0.067455575 -0.054581881
0.78468835 -0.075236395 -0.057862055
0.76551932 -0.07537131 -0.05577838
0.76274037 -0.07284838 -0.05840937
0.74097019 -0.071224809 -0.056496482
0.71380955 -0.070237584 -0.058594756
0.75146681 -0.079980716 -0.052557886
0.71164918 -0.087407127 -0.048865136
0.76632911 -0.091498718 -0.057227157
0.76289552 -0.091805093 -0.055933837
0.7522741 -0.092889331 -0.052287821
0.74829012 -0.091125578 -0.052515037
0.74040765 -0.091459453 -0.051451571
0.73299533 -0.089479811 -0.05210337
0.7565642 -0.097711504 -0.048996709
0.74865645 -0.10158525 -0.051281918
0.69663799 -0.10139456 -0.045772195
0.77086949 -0.10927466 -0.050107174
0.75533521 -0.10966404 -0.04909426
0.74663794 -0.11124635 -0.045538932
0.73909676 -0.10967714 -0.047072887
0.73146975 -0.10693678 -0.050928228
0.69210994 -0.11470351 -0.049955733
0.7618714 -0.11643824 -0.046144217
0.73469418 -0.12174508 -0.046513092
0.72783691 -0.12242282 -0.047718503
0.76241988 -0.13004246 -0.044776507
0.75675452 -0.13098793 -0.051188193
0.74562472 -0.13024737 -0.045369428
0.74252927 -0.13113664 -0.048484493
0.77472627 -0.065859638 -0.066438377
0.76795709 -0.066276416 -0.068666138
0.75281096 -0.0650841 -0.062939882
0.77301639 -0.074086599 -0.067958876
0.75893086 -0.074301943 -0.061369482
0.78112203 -0.08991532 -0.0672784
0.77442563 -0.086648345 -0.065491006
0.76014954 -0.086927317 -0.06343548
0.75423443 -0.088753812 -0.067161277
0.70917147 -0.084065765 -0.063077092
0.76229751 -0.093376473 -0.063960329
0.75005609 -0.095701106 -0.065695934
0.73463696 -0.096325479 -0.062283356
0.7698791 -0.09845984 -0.056814205
0.76011932 -0.10568236 -0.062589385
0.75684804 -0.10767776 -0.056318186
0.74761373 -0.10742208 -0.060301118
0.7350539 -0.10469435 -0.05872399
0.76641715 -0.1124275 -0.061627679
0.7441839 -0.11600006 -0.057794664
0.73938465 -0.11388294 -0.059619963
0.70253593 -0.11419269 -0.057284925
0.76736003 -0.12380534 -0.059788823
0.75353575 -0.12490179 -0.058661733
0.74872494 -0.12293175 -0.060032755
0.74111468 -0.12118343 -0.056073219
0.73534733 -0.12332336 -0.056166038
0.75790447 -0.13097343 -0.053512763
0.78809929 -0.063721538 -0.072371371
0.78330141 -0.065250926 -0.076911509
0.77597296 -0.065846846 -0.075873673
0.76751989 -0.06945654 -0.074114576
0.76188087 -0.066136263 -0.080135845
0.73743516 -0.069574177 -0.07325992
0.76815009 -0.076850295 -0.076238997
0.76284689 -0.078940839 -0.075394586
0.755777 -0.077638902 -0.072752684
0.76873922 -0.085413098 -0.075335853
0.76274061 -0.087705158 -0.069627777
0.74227089 -0.086965866 -0.069729477
0.78160512 -0.094450377 -0.072596528
0.7731964 -0.094804257 -0.072710946
0.76572984 -0.095084131 -0.069110766
0.75351536 -0.09747044 -0.066594623
0.80197388 -0.10332713 -0.073575594
0.77321523 -0.10301968 -0.074781813
0.77094209 -0.10107209 -0.075101398
0.75847447 -0.10276566 -0.073138535
0.75544751 -0.10281395 -0.072986446
0.74749303 -0.10574946 -0.070956811
0.7783612 -0.11302453 -0.069091707
0.74904287 -0.11188524 -0.073107377
0.76199996 -0.12387584 -0.068835445
0.75140101 -0.12484582 -0.066823363
0.7406472 -0.12142875 -0.063121326
0.78418893 -0.063814908 -0.081748784
0.77424669 -0.059646457 -0.085560806
0.78408796 -0.067219011 -0.082874812
0.7755748 -0.067832753 -0.086096376
0.7606563 -0.068092667 -0.084635898
0.78030777 -0.079996571 -0.084838554
0.77143836 -0.081700511 -0.080853552
0.78308356 -0.088558048 -0.082321718
0.76736474 -0.087767661 -0.081906617
0.76326865 -0.083589129 -0.081731744
0.76716304 -0.097500056 -0.084368564
0.75853103 -0.096470878 -0.080932826
0.78931499 -0.107249 -0.081666589
0.77732295 -0.10841928 -0.080725223
0.76848239 -0.10162188 -0.079386823
0.76251811 -0.10607301 -0.078402676
0.79004467 -0.119875 -0.08146815
0.7733227 -0.11818135 -0.079158649
0.76442409 -0.11855713 -0.076974891
0.74484187 -0.11765753 -0.078744844
0.73465651 -0.11263517 -0.079805404
0.79875803 -0.12604381 -0.081665903
0.78370571 -0.12385142 -0.073878512
0.7656911 -0.12499735 -0.073907293
0.75776672 -0.11996306 -0.072568849
0.8043251 -0.056823373 -0.097106434
0.77703726 -0.056296404 -0.09950725
0.79372704 -0.061827891 -0.094044954
0.78841454 -0.059633017 -0.093591079
0.77000839 -0.06214397 -0.09345942
0.76425922 -0.060872823 -0.099875242
0.79414517 -0.070797801 -0.093086846
0.7758258 -0.070905805 -0.095430955
0.7682336 -0.066458598 -0.096261486
0.75940776 -0.071566492 -0.098042749
0.75301349 -0.067074373 -0.090992056
0.79933864 -0.082187474 -0.092998497
0.79615659 -0.075041354 -0.091506392
0.78683293 -0.084713623 -0.096316621
0.78106111 -0.079973876 -0.09188816
0.7750591 -0.079536296 -0.090575002
0.7677058 -0.074826024 -0.090707295
0.7765137 -0.091148689 -0.088607684
0.78666407 -0.10073031 -0.089554809
0.77491689 -0.097512871 -0.093875639
0.76839513 -0.09811987 -0.089731358
0.76190436 -0.1007872 -0.089522392
0.74950516 -0.099652737 -0.088110983
0.78170156 -0.1093436 -0.085098758
0.77781749 -0.10319171 -0.086347304
0.7638799 -0.10358649 -0.08614964
0.75390172 -0.10777043 -0.088420086
0.80136919 -0.11383858 -0.092546552
0.7928822 -0.1199586 -0.086834714
0.78510469 -0.12200239 -0.088995785
0.76745844 -0.11549584 -0.084711798
0.75882971 -0.11774279 -0.085454717
0.74484843 -0.11511598 -0.086488694
0.77304083 -0.12238817 -0.088853918
0.80410904 -0.05332439 -0.10703535
0.79512131 -0.056647625 -0.10805425
0.78703541 -0.054047361 -0.10721041
0.82112145 -0.059780695 -0.10930225
0.8007434 -0.06237305 -0.10771889
0.79441696 -0.064952463 -0.10653751
0.78261101 -0.061547659 -0.10191793
0.77813584 -0.05815167 -0.10678299
0.80954123 -0.071191981 -0.10363805
0.79171008 -0.07461521 -0.10225534
0.78304124 -0.075899757 -0.10328765
0.77365214 -0.07015007 -0.10691796
0.77111101 -0.075300403 -0.099069476
0.80844694 -0.078323543 -0.10585856
0.80133504 -0.084576346 -0.10322545
0.78949594 -0.080115937 -0.098810218
0.79183573 -0.086024344 -0.10042621
0.77916956 -0.088733919 -0.10111868
0.7742911 -0.094350338 -0.098011479
0.77097666 -0.092972033 -0.099779271
0.76323324 -0.089240819 -0.097220041
0.81482786 -0.097384296 -0.10326038
0.79545128 -0.099859126 -0.0996297
0.79566866 -0.11256877 -0.097081833
0.78504199 -0.10566264 -0.10110579
0.78363425 -0.10560677 -0.097893074
0.77682519 -0.11177788 -0.097051315
0.76738483 -0.10895468 -0.09750361
0.75977099 -0.1131456 -0.0953229
0.80205858 -0.1160658 -0.099790916
0.79657143 -0.11570713 -0.096164532
0.77305549 -0.1178458 -0.092220142
0.75972903 -0.11813155 -0.09337534
0.7571103 -0.11508051 -0.094155498
0.80726624 -0.053280972 -0.1156101
0.79593462 -0.053538524 -0.11545604
0.78668851 -0.057215758 -0.11727692
0.78189617 -0.05218159 -0.11481995
0.79922897 -0.07244847 -0.11020879
0.79254353 -0.071824357 -0.11624423
0.78735465 -0.070203863 -0.11226566
0.77604765 -0.075428613 -0.11050665
0.80443108 -0.086070396 -0.10950398
0.7951358 -0.079846695 -0.11430932
0.78542566 -0.083146863 -0.11275049
0.76809222 -0.085125998 -0.11253274
0.75937837 -0.079423279 -0.10864601
0.75685751 -0.085215539 -0.10776071
0.8180505 -0.090547055 -0.1122622
0.79904228 -0.089918226 -0.11211997
0.79309446 -0.087958999 -0.11081825
0.78636032 -0.090358444 -0.10802356
0.78054434 -0.091145135 -0.1112133
0.77200603 -0.095596001 -0.11108645
0.76889795 -0.092236251 -0.10717469
0.79040271 -0.09948042 -0.10930598
0.76193398 -0.10328016 -0.10517896
0.80510485 -0.10882326 -0.10951284
0.79505438 -0.10785136 -0.10931264
0.77571511 -0.10971133 -0.10835546
0.76795751 -0.10912436 -0.10874312
0.79570031 -0.11745653 -0.1068593
0.79092008 -0.11760528 -0.10417376
0.78010428 -0.12019908 -0.1062768
0.76953286 -0.11504247 -0.10193085
0.76405692 -0.1220388 -0.10110075
0.81508499 -0.049573377 -0.1296955
0.80631238 -0.049336813 -0.12464669
0.80294371 -0.050430909 -0.12472187
0.83022976 -0.055916768 -0.1221623
0.80410576 -0.054001838 -0.12225506
0.79771316 -0.057665348 -0.12443694
0.81047016 -0.06816037 -0.12089291
0.80196345 -0.068404965 -0.12488215
0.79330271 -0.066829413 -0.12536751
0.79089153 -0.064102754 -0.12548919
0.77803427 -0.065958261 -0.12360439
0.81755513 -0.074459612 -0.1187186
0.80233192 -0.069681689 -0.11861876
0.79170632 -0.077331513 -0.12587231
0.78243721 -0.071348354 -0.12489409
0.75627828 -0.07017073 -0.12275467
0.80721998 -0.082030728 -0.12447805
0.79923117 -0.085415505 -0.1227619
0.79687768 -0.085543744 -0.12253721
0.78064406 -0.084586218 -0.12447871
0.78863978 -0.095019527 -0.11980904
0.81454104 -0.10507774 -0.12194384
0.80185032 -0.10564633 -0.11708861
0.79324478 -0.10750999 -0.12074935
0.78835785 -0.10253628 -0.11670606
0.77614403 -0.10510309 -0.12216333
0.81123489 -0.11217298 -0.11274713
0.79174381 -0.11409104 -0.11505389
0.8237763 -0.043508854 -0.13925834
0.81602442 -0.045555469 -0.13688011
0.80971432 -0.047482628 -0.13416368
0.80218345 -0.047558125 -0.13649231
0.80980378 -0.057992078 -0.13726324
0.80138606 -0.061614837 -0.134638
0.79409641 -0.05514589 -0.13160853
0.78991133 -0.058897156 -0.13088624
0.82666343 -0.070595689 -0.13157864
0.82211763 -0.063987248 -0.13435802
0.81469733 -0.06211713 -0.12921879
0.8072595 -0.065508828 -0.13414747
0.80180424 -0.065833509 -0.13358131
0.79850173 -0.070953682 -0.12967128
0.78535956 -0.072844103 -0.12970452
0.7597248 -0.078476653 -0.12906766
0.81398892 -0.089138538 -0.12813497
0.80555773 -0.083216824 -0.13167857
0.7966603 -0.083764337 -0.1279489
0.7881934 -0.086728923 -0.12666731
0.7781859 -0.085480951 -0.13251127
0.81227118 -0.097680986 -0.12977642
0.79493862 -0.099338226 -0.1321978
0.78901583 -0.091461211 -0.13390894
0.81782311 -0.11609713 -0.12730491
0.79904097 -0.11404736 -0.13035367
0.79602718 -0.11024011 -0.13100767
0.78677487 -0.10914394 -0.12886363
0.78344464 -0.11651812 -0.12228383
0.78379756 -0.117709 -0.1229039
0.83868062 -0.043090198 -0.14649042
0.82358819 -0.050681353 -0.14137101
0.81606674 -0.045316659 -0.14256257
0.80099308 -0.047615014 -0.14640276
0.82681262 -0.055756554 -0.14289801
0.81898069 -0.058266193 -0.14517255
0.80922657 -0.061120994 -0.14603558
0.80891353 -0.06644658 -0.14275886
0.8049373 -0.066195831 -0.14147252
0.79096389 -0.071701333 -0.1387784
0.8151564 -0.079646021 -0.14350607
0.80077249 -0.077817351 -0.14285035
0.79851818 -0.074078627 -0.14220935
0.78518236 -0.073449217 -0.1367182
0.82309729 -0.085274614 -0.140995
0.81517625 -0.086071402 -0.13958873
0.80348241 -0.090541571 -0.13788673
0.79577667 -0.086007655 -0.13802877
0.82291502 -0.095157705 -0.13905531
0.80842209 -0.098609373 -0.13833344
0.80423439 -0.095829092 -0.14108054
0.79172266 -0.09830077 -0.13311988
0.82397729 -0.10133222 -0.13437486
0.81042266 -0.10381747 -0.13755131
0.80152869 -0.10448588 -0.13590278
0.78433049 -0.10108183 -0.13558355
0.81073397 -0.11029664 -0.138181
0.78775507 -0.11318666 -0.13836177
0.83153045 -0.039796356 -0.15994646
0.82165003 -0.042544954 -0.1586003
0.8171922 -0.041335844 -0.15721685
0.80859172 -0.042719744 -0.15602238
0.8269518 -0.04697489 -0.15748905
0.80394328 -0.055040281 -0.1557578
0.83385092 -0.057952628 -0.15244675
0.83253026 -0.065101802 -0.15444453
0.82339031 -0.059697032 -0.15492411
0.81584591 -0.058226969 -0.15506327
0.80827862 -0.061866038 -0.15479198
0.79803729 -0.057538815 -0.15680088
0.82260227 -0.070509955 -0.15022722
0.8093304 -0.072775975 -0.15350477
0.80469453 -0.068455204 -0.1542531
0.83220559 -0.081410691 -0.15385506
0.82475507 -0.076075211 -0.15533356
0.81850606 -0.07810697 -0.14856079
0.80199718 -0.079105064 -0.15035503
0.77782971 -0.081890211 -0.15232307
0.81953096 -0.09995354 -0.15041134
0.80783808 -0.09755782 -0.14818585
0.82032853 -0.10900081 -0.14891145
0.80836618 -0.1044139 -0.14970765
0.78320199 -0.10507384 -0.14201593
0.80385411 -0.11333161 -0.14498509
0.86556077 -0.041461021 -0.16743489
0.84696925 -0.041698068 -0.16496663
0.84092414 -0.046629511 -0.16543221
0.82284796 -0.04345968 -0.16623868
0.805857 -0.04497499 -0.16043927
0.81436473 -0.052569695 -0.16484292
0.80865186 -0.054634843 -0.16503276
0.84997565 -0.062490515 -0.16265208
0.84297031 -0.060165539 -0.16306025
0.82841772 -0.066112831 -0.16540518
0.81686503 -0.058737669 -0.16160832
0.81137085 -0.062735662 -0.15864892
0.80203366 -0.057772871 -0.15852588
0.78337747 -0.062680468 -0.1595992
0.82291508 -0.075481981 -0.1629604
0.81746697 -0.074518599 -0.16102435
0.81083262 -0.074034795 -0.1563502
0.80189168 -0.079364412 -0.16114394
0.82450205 -0.090717807 -0.15960376
0.81839198 -0.085263364 -0.15755641
0.77803534 -0.087089501 -0.1568882
0.81338459 -0.094406798 -0.15397273
0.81188649 -0.093985185 -0.15314835
0.80574012 -0.10004103 -0.16030578
0.78969604 -0.10063567 -0.15620634
0.8304382 -0.10929744 -0.15733892
0.80157769 -0.11122696 -0.15201861
0.81917238 -0.11311347 -0.15165561
0.84361702 -0.049243707 -0.17848666
0.8283329 -0.040265828 -0.17092822
0.81148082 -0.0401132 -0.17603217
0.8001641 -0.041919302 -0.17140856
0.86404836 -0.055599399 -0.17281684
0.84336424 -0.051663186 -0.17123324
0.82828432 -0.05403129 -0.16951865
0.82340002 -0.052951351 -0.17358895
0.81817096 -0.052151978 -0.17193605
0.84991032 -0.067702234 -0.17626636
0.83479559 -0.058776971 -0.16881432
0.81780541 -0.058626652 -0.17313775
0.8115105 -0.065070376 -0.17146833
0.79363 -0.065854497 -0.16818188
0.826765 -0.070827916 -0.17327335
0.8220228 -0.070278831 -0.16761783
0.81700802 -0.076249316 -0.16790272
0.80973023 -0.071326323 -0.17098159
0.79609311 -0.070891462 -0.16680336
0.78258312 -0.075836673 -0.16945064
0.8413139 -0.07754676 -0.16671512
0.8359136 -0.085742064 -0.16967189
0.82420731 -0.08086624 -0.17273438
0.81656218 -0.081602722 -0.16646747
0.80964816 -0.081239916 -0.16965209
0.79908431 -0.084071778 -0.16555803
0.82702386 -0.089130506 -0.16467023
0.8214851 -0.090414375 -0.16497584
0.81857497 -0.091688856 -0.16724312
0.8082366 -0.088274449 -0.16608524
0.85724854 -0.10330605 -0.16749768
0.82863921 -0.096089616 -0.16327141
0.81677169 -0.10127836 -0.16760069
0.81268591 -0.09509518 -0.16452534
0.80459386 -0.10253824 -0.16291521
0.83934027 -0.10837186 -0.16891851
0.82756507 -0.10929987 -0.16254681
0.82417047 -0.10888083 -0.1674068
0.81427324 -0.10701611 -0.163775
0.83730793 -0.03645847 -0.18360002
0.82984209 -0.0488001 -0.18756683
0.82481778 -0.048666023 -0.1798306
0.77097625 -0.043378979 -0.18131597
0.84383684 -0.054941483 -0.18157972
0.83781326 -0.050486438 -0.18126017
0.79937506 -0.054987479 -0.18119408
0.84081405 -0.065312237 -0.18095121
0.8358019 -0.066677898 -0.18250644
0.83095819 -0.067000508 -0.17759787
0.82364601 -0.06595967 -0.18133457
0.81750244 -0.062331207 -0.1829505
0.85042208 -0.073682837 -0.17957515
0.84395236 -0.068933591 -0.17898858
0.83918679 -0.070614085 -0.18292966
0.82202071 -0.073888592 -0.18055302
0.84953624 -0.080140665 -0.17488633
0.84039557 -0.080337964 -0.17873175
0.83108389 -0.086843573 -0.17680335
0.82330698 -0.085145876 -0.18281329
0.80254066 -0.083752871 -0.1812706
0.83774757 -0.092225693 -0.17613146
0.82704914 -0.089122787 -0.17839271
0.82295042 -0.09323433 -0.18061294
0.81916624 -0.090956911 -0.17911735
0.81228 -0.095571615 -0.17459616
0.78819674 -0.087307066 -0.17322673
0.82440913 -0.10347345 -0.17447591
0.77259475 -0.039450467 -0.19656631
0.84562922 -0.045157924 -0.19209825
0.82400626 -0.058017209 -0.18966018
0.78147686 -0.05280422 -0.18864709
0.85242993 -0.06409356 -0.19045806
0.8037439 -0.06915991 -0.19006105
0.79858595 -0.06805566 -0.19097959
0.83592343 -0.079312541 -0.19011576
0.81485528 -0.079231873 -0.19045779
0.84685594 -0.08836177 -0.18899149
0.84068251 -0.083272763 -0.18863083
0.83529544 -0.085072085 -0.19191118
0.82836235 -0.08124017 -0.1873329
0.80360091 -0.081475072 -0.18457918
0.84519279 -0.094309658 -0.18313146
0.81881982 -0.091102183 -0.18888655
0.83454496 -0.0999308 -0.1851768
0.82849127 -0.10291546 -0.18480177
0.82315791 -0.1035808 -0.18737423
0.82733822 -0.037394777 -0.20798939
0.81406343 -0.042419557 -0.20062239
0.83907259 -0.045136243 -0.19972681
0.83253622 -0.062637351 -0.20485039
0.82211286 -0.057364695 -0.19765666
0.78069293 -0.065786086 -0.19836798
0.84875846 -0.076473378 -0.199818
0.84427118 -0.076739684 -0.19785127
0.83842516 -0.077723026 -0.19795676
0.832605 -0.081455186 -0.19506229
0.83571368 -0.092610337 -0.20038715
0.83224642 -0.094623029 -0.19416706
0.82521909 -0.095098257 -0.19123834
0.8137452 -0.09256126 -0.20038298
0.80249077 -0.094804451 -0.19450434
0.84328961 -0.10304069 -0.19840786
0.8356396 -0.059350125 -0.20919737
0.81441903 -0.060403571 -0.21214716
0.803177 -0.062197737 -0.2075541
0.84848803 -0.07420589 -0.20858058
0.84084994 -0.075411454 -0.21214607
0.81894612 -0.072827771 -0.20834704
0.80911374 -0.079317726 -0.20538871
0.84231347 -0.090184912 -0.20792308
0.82954204 -0.09616483 -0.20515722
0.81343389 -0.091788813 -0.20327207
0.82912374 -0.034143556 -0.22398138
0.82407117 -0.053356543 -0.21621352
0.83803189 -0.085819975 -0.22104916
0.82707649 -0.087586686 -0.2193739
0.82404846 -0.088884845 -0.21150394
0.81116152 -0.032552268 -0.22978957
