# .PCD v0.7 - Point Cloud Data file format
VERSION 0.7
FIELDS x y z
SIZE 4 4 4
TYPE F F F
COUNT 1 1 1
WIDTH 1346
HEIGHT 1
VIEWPOINT 0 0 0 1 0 0 0
POINTS 1346
DATA ascii
0.73500687 5.370006e-05 0.18786004
0.73505431 -0.014096115 0.19622856
0.72812039 -0.0083567351 0.19278085
0.71756709 -0.028692167 0.19642696
0.74514931 0.0061135031 0.18425424
0.75032848 0.0011510961 0.18451478
0.74044997 -0.0078972485 0.17971273
0.71207821 -0.053968482 0.18726963
0.69819587 -0.069119141 0.19104083
0.74761933 0.0097141527 0.16877991
0.73103935 0.0013162456 0.17097682
0.72150403 -0.011178089 0.16916452
0.71458471 -0.019638803 0.17132643
0.71276796 -0.020814801 0.17363444
0.72942263 -0.030997382 0.17294696
0.74236494 -0.044492625 0.17736422
0.70750886 -0.037020709 0.18211678
0.7035777 -0.039579958 0.18131758
0.72307169 -0.051404148 0.18208608
0.69883662 -0.053537484 0.17635253
0.74647343 0.0087237563 0.15793282
0.74291998 -0.004296599 0.16423839
0.72277957 -0.0015672874 0.16665828
0.71947432 -0.0045962054 0.16050856
0.73658931 -0.010156324 0.16567074
0.71179944 -0.014788942 0.1690421
0.7025162 -0.026521483 0.16546069
0.73264092 -0.030464405 0.16432978
0.70994657 -0.03346698 0.1668441
0.7067849 -0.036045607 0.165948
0.73786211 -0.049884886 0.16891678
0.71453196 -0.050391458 0.17189682
0.7315861 -0.063923165 0.16724761
0.7171846 -0.06447424 0.1715471
0.71267015 -0.062461525 0.17392087
0.70302135 -0.065032661 0.17583357
0.7618767 0.0098828925 0.15437445
0.75008935 0.013314801 0.15330561
0.75036025 -0.0001703836 0.15682356
0.74539 -0.00069594942 0.14876409
0.72691691 0.002152428 0.1512481
0.73202556 -0.0039682984 0.15500975
0.7165916 -0.010730619 0.15393962
0.71587795 -0.0173194 0.15579863
0.73132032 -0.02291164 0.15615599
0.74882519 -0.039054058 0.15422729
0.71698582 -0.046814427 0.156524
0.71326035 -0.040064659 0.15481423
0.70297712 -0.043222733 0.15619542
0.69842303 -0.040864207 0.15833549
0.72611284 -0.051772639 0.15741977
0.70339483 -0.049026847 0.16295666
0.72165245 -0.063940257 0.16154665
0.70011342 -0.062305089 0.15921766
0.70647812 -0.067285277 0.16596097
0.68956298 -0.070937261 0.16095954
0.7602815 0.038226902 0.13604528
0.74848014 0.037861999 0.13807392
0.73667884 0.037497096 0.14010257
0.75255924 0.01691545 0.13783127
0.74464107 0.010468218 0.14170335
0.73298842 0.011252515 0.1420296
0.72779155 0.0099518104 0.13830948
0.73525423 -0.00041045249 0.13953798
0.73289037 -0.0025686976 0.13944668
0.74406731 -0.010666311 0.14065674
0.73595363 -0.011473333 0.14048141
0.73082298 -0.0098265801 0.14961547
0.7246328 -0.0090144295 0.14534031
0.74069059 -0.014706703 0.14422254
0.72877657 -0.015399698 0.15017463
0.72725308 -0.01801862 0.15001169
0.71496809 -0.013984865 0.14786217
0.70879096 -0.012719106 0.15051013
0.74096751 -0.029074112 0.14523998
0.7241081 -0.029318547 0.14566292
0.71017498 -0.023597142 0.14911073
0.69821811 -0.025757492 0.15187681
0.6909014 -0.027388005 0.14977375
0.74356139 -0.038428884 0.14761317
0.72828758 -0.039246425 0.15121934
0.72248054 -0.032068945 0.14501359
0.70999229 -0.032511253 0.15057844
0.74445105 -0.045311093 0.15172043
0.7366308 -0.048096441 0.14631549
0.71711409 -0.042544149 0.15188693
0.70888287 -0.04433085 0.14952017
0.75109804 -0.059183873 0.14733528
0.71447933 -0.049677115 0.1554873
0.70913869 -0.054507937 0.1476391
0.71166855 -0.062874019 0.15237334
0.76041102 0.050585117 0.12477855
0.75982803 0.024997976 0.12623525
0.74802667 0.024633072 0.12826389
0.73622537 0.024268171 0.13029253
0.724424 0.023903269 0.13232121
0.75793993 0.017393811 0.12800559
0.75131768 0.014950903 0.12736863
0.7447834 0.0066241687 0.13071743
0.75003791 -0.0047705881 0.12983452
0.74680382 0.00075864419 0.1326928
0.73155928 3.7968159e-05 0.13120183
0.71603072 -0.0015430767 0.13316713
0.74985856 -0.010851035 0.13540825
0.73564851 -0.0057400987 0.13440821
0.72532994 -0.010363251 0.13692278
0.71195567 -0.0068717208 0.13429779
0.73116678 -0.015492817 0.13379322
0.73599124 -0.028717453 0.13968104
0.71229506 -0.028647499 0.13783796
0.70324153 -0.026971783 0.14223677
0.69498312 -0.023718357 0.13457096
0.74018711 -0.033497833 0.1393874
0.73209357 -0.035998859 0.14309368
0.72417426 -0.038327917 0.13804354
0.72102147 -0.037066109 0.14119181
0.73627126 -0.043525975 0.13944818
0.72245991 -0.04392311 0.14449351
0.71682996 -0.043252353 0.14132673
0.72551954 -0.055018038 0.14245766
0.71779603 -0.058275379 0.13874163
0.72412252 -0.060339607 0.14607234
0.70306593 -0.065949365 0.1434069
0.69873941 -0.067044437 0.14800334
0.68616396 -0.066388458 0.14621353
0.75949234 0.053084508 0.11881603
0.76647162 0.042079821 0.11956619
0.74754548 0.037322767 0.12126548
0.73457468 0.023528706 0.11900391
0.75754017 0.015648168 0.11770432
0.75502932 0.020516099 0.12235695
0.74574435 0.014960569 0.11970549
0.73985815 0.018059716 0.12257187
0.73143244 0.015366649 0.12303606
0.72250485 0.018963609 0.12194593
0.74757326 0.011404146 0.11845386
0.73577183 0.011039244 0.12048251
0.72397053 0.010674343 0.12251116
0.71216923 0.010309439 0.12453981
0.75998205 0.003723368 0.12718792
0.75378907 0.0028487612 0.12077989
0.73848289 0.0031473991 0.12406623
0.75450659 -0.0070176162 0.12963554
0.73163515 -0.010858105 0.1224039
0.71748155 -0.007055942 0.12364515
0.70594984 -0.0075044315 0.12477202
0.74390495 -0.016031319 0.12851779
0.73256105 -0.021546688 0.12728338
0.72230762 -0.023489175 0.12776078
0.71697265 -0.020889193 0.1324138
0.70990312 -0.020105097 0.12646785
0.76227802 -0.029311879 0.12496368
0.75082874 -0.030277563 0.12552524
0.74137437 -0.025438583 0.13055758
0.72418296 -0.026768489 0.1282202
0.77954084 -0.034544744 0.1279908
0.74933547 -0.034062982 0.13254298
0.73623383 -0.037714999 0.13212173
0.72839886 -0.034803163 0.12702048
0.74714869 -0.044420231 0.13521118
0.73898709 -0.04790815 0.12865734
0.73115033 -0.046633601 0.1322712
0.73157501 -0.057977837 0.1336564
0.71293545 -0.060169589 0.13501745
0.71510983 -0.062280517 0.13240165
0.76557112 0.056034043 0.10473263
0.77261466 0.045859952 0.10339549
0.74706787 0.037553664 0.11219177
0.72860885 0.036364608 0.10907932
0.77978736 0.02212337 0.11064869
0.76484722 0.02533412 0.11143189
0.75749928 0.024116751 0.10688263
0.7458691 0.023001406 0.10972363
0.75791532 0.019371739 0.11323509
0.75937456 0.011769049 0.11642522
0.75037676 0.0062644668 0.11486153
0.72853762 0.0027202023 0.11387067
0.76494575 -0.0033689234 0.11861435
0.74563062 -0.0075054057 0.11327391
0.73791313 -0.00021091104 0.11433686
0.733675 0.0011951793 0.11167679
0.72269815 -0.0010234993 0.11318956
0.7164042 0.00082005374 0.11769453
0.71200532 0.0015479326 0.11617243
0.76286757 -0.014304277 0.11206952
0.75628018 -0.011281274 0.11629219
0.74963826 -0.011696288 0.11355419
0.74428958 -0.012435418 0.11873218
0.73603225 -0.015969165 0.11273302
0.73323119 -0.010912707 0.11988978
0.72735995 -0.015271291 0.11288945
0.75181359 -0.02178989 0.11953638
0.73545539 -0.022080382 0.11921367
0.72878975 -0.022267697 0.11543521
0.72480392 -0.016625613 0.12022919
0.71514523 -0.017220691 0.11787989
0.79096335 -0.033493292 0.1215515
0.75022721 -0.029681254 0.1232371
0.74513656 -0.026903013 0.1176081
0.74109286 -0.033600185 0.11680901
0.73329008 -0.03355892 0.11761419
0.75766659 -0.040744036 0.12410691
0.74046594 -0.039754763 0.12382468
0.73370194 -0.040665653 0.11924733
0.78622758 -0.04741269 0.11717608
0.77483582 -0.048373479 0.12364388
0.74515504 -0.048711613 0.12526584
0.71722496 -0.053579208 0.12126665
0.71090984 -0.052610476 0.12567505
0.70172483 -0.047715016 0.12268031
0.68965113 -0.048877165 0.12513722
0.72554904 -0.058631822 0.12138043
0.71662819 -0.057935275 0.12081831
0.69876206 -0.059023865 0.12126389
0.76426458 0.048278786 0.09592399
0.75256848 0.04306557 0.10066878
0.7702859 0.03064655 0.10035055
0.77242804 0.022831889 0.099979833
0.76392847 0.021830022 0.10027389
0.75755227 0.024697987 0.1015951
0.746692 0.023909673 0.10177042
0.72776926 0.022460204 0.098667629
0.7529574 0.012110309 0.10101341
0.74530423 0.011802938 0.10228836
0.75783551 0.0048951162 0.10552546
0.75455678 0.0073947683 0.10277271
0.74538505 0.0021578204 0.10683463
0.74171156 0.0067052469 0.10859446
0.73351032 0.007066505 0.10586774
0.72149324 0.0027672667 0.10818399
0.77538502 0.0002797693 0.10759316
0.76360488 -0.0085553564 0.10697077
0.75871426 -0.00150452 0.10590186
0.74615198 -0.0026007984 0.10813387
0.73626661 -0.0048926901 0.10551199
0.75230265 -0.0095086358 0.1075251
0.74031073 -0.014398536 0.10588863
0.72815913 -0.011019927 0.10337588
0.76356852 -0.017836666 0.10914928
0.75916356 -0.021357687 0.10724726
0.74548739 -0.02624134 0.10632849
0.74110103 -0.021605307 0.10984413
0.74466056 -0.035983548 0.10820114
0.73884058 -0.028855225 0.10600115
0.73209316 -0.026882464 0.1108593
0.72696495 -0.029547481 0.1080159
0.7142936 -0.031325728 0.10731796
0.77416736 -0.040742088 0.10793885
0.7654807 -0.039384302 0.11395773
0.75092918 -0.044345714 0.11019566
0.74651396 -0.041839391 0.11303207
0.73987824 -0.043632131 0.11603595
0.75169557 -0.049050067 0.11150649
0.72406691 -0.052689672 0.11262964
0.75495327 -0.055627674 0.1139316
0.72883725 -0.056348711 0.1137977
0.71424037 -0.057809018 0.11461607
0.70154381 -0.061000187 0.11457421
0.69885403 -0.05828476 0.11763899
0.68692774 -0.061664656 0.11839542
0.67168844 -0.061902322 0.11076662
0.77050352 0.062482849 0.083372995
0.7584846 0.061689656 0.085560583
0.80177641 0.050328054 0.083367974
0.77864039 0.049612675 0.087345064
0.75261557 0.042938247 0.093578123
0.77216721 0.032806322 0.093715459
0.76206952 0.028233321 0.088471666
0.75128049 0.031925928 0.091674693
0.78196937 0.026066566 0.094182685
0.78128141 0.015748385 0.088819601
0.77604818 0.012622338 0.088862419
0.76555973 0.012271747 0.092656352
0.75668436 0.012331022 0.095557094
0.74996978 0.010345392 0.094869912
0.74631608 0.010265684 0.091349058
0.76318198 0.0069140485 0.091379456
0.75975579 0.0034590401 0.099209093
0.74709916 0.0032002255 0.096104264
0.73426753 0.0083788307 0.095146172
0.77780336 -0.010059983 0.092921376
0.77048123 -0.00515074 0.09378837
0.76114994 -0.0047422852 0.095365979
0.75256175 -0.0070557287 0.09816578
0.74611533 -0.003100099 0.094795085
0.73250055 -0.0069846166 0.095375784
0.71397299 -0.0087208496 0.0957212
0.77269202 -0.014492502 0.097493976
0.7535516 -0.017760474 0.09836942
0.74629164 -0.013578746 0.098288096
0.7408576 -0.011882683 0.097525731
0.73324537 -0.015296229 0.10068462
0.78279883 -0.026636582 0.097291574
0.77539957 -0.019831851 0.096494652
0.76334465 -0.024127916 0.099510327
0.76088363 -0.025331186 0.10240263
0.74642593 -0.026880788 0.10407291
0.73872292 -0.027426923 0.097337089
0.77287167 -0.035028912 0.097341873
0.76352888 -0.030411348 0.099160902
0.7586472 -0.035502523 0.10278744
0.74978644 -0.038233303 0.097350523
0.74827659 -0.034963746 0.097895585
0.73834872 -0.033417616 0.10280277
0.78786719 -0.043432683 0.10172582
0.76644874 -0.043549296 0.10623955
0.74662381 -0.038766872 0.10175993
0.72691905 -0.043657079 0.098857611
0.70293802 -0.044098426 0.10194753
0.76547122 -0.051951475 0.10282732
0.73996431 -0.050435413 0.10240936
0.73217654 -0.048476934 0.10311173
0.72612751 -0.050784938 0.10770992
0.74167681 -0.056080222 0.10796621
0.68821257 -0.058325492 0.10060006
0.67098528 -0.06221566 0.10611501
0.79413158 0.067272097 0.07432647
0.78259581 0.063323334 0.080045462
0.76892543 0.05409161 0.075123258
0.78850973 0.048559394 0.082266115
0.7698065 0.04760915 0.074592069
0.75785071 0.04570106 0.079476744
0.77491719 0.036637124 0.079328321
0.7973153 0.031625889 0.081299409
0.78501946 0.030105142 0.081096046
0.78190571 0.029013492 0.084833071
0.77447897 0.029881537 0.084597826
0.76007479 0.019392626 0.086037189
0.77713865 0.0077448152 0.082225762
0.76602793 0.011085493 0.082176358
0.75836474 0.012152539 0.087551951
0.7765525 0.001196322 0.082987651
0.77489877 0.0075970469 0.089391671
0.76632261 0.00053376425 0.086390808
0.76244253 0.00046260748 0.088537693
0.81060958 -0.010405507 0.088331394
0.78913271 -0.0088537699 0.086288884
0.73389167 -0.0052651586 0.084724814
0.76187092 -0.019555576 0.089027524
0.75377065 -0.019097507 0.086061724
0.74340129 -0.017915506 0.09325809
0.79424268 -0.025533279 0.090650998
0.76999903 -0.029264776 0.087394819
0.76758629 -0.021931451 0.086472966
0.75087416 -0.025424041 0.089265116
0.74576396 -0.025107721 0.089452572
0.73641592 -0.026198225 0.091057837
0.7344116 -0.028647531 0.091052428
0.72778064 -0.024760053 0.092881091
0.77226412 -0.039152168 0.091061577
0.7628485 -0.037836749 0.091359094
0.75814331 -0.036119938 0.09356074
0.73685324 -0.037001565 0.091860369
0.70807868 -0.037781287 0.089898981
0.77376813 -0.043817416 0.092264436
0.75703883 -0.043839186 0.096922368
0.73856503 -0.042021655 0.095903285
0.71042168 -0.046908427 0.096788704
0.70313513 -0.042300478 0.09003403
0.68466413 -0.044193324 0.09047322
0.76810956 -0.049683005 0.091469042
0.75341922 -0.051468931 0.095876276
0.74494922 -0.05247413 0.092284665
0.73585206 -0.052341551 0.096608073
0.70744878 -0.056251019 0.097466134
0.6974979 -0.056113321 0.094782829
0.69024324 -0.055872824 0.094563708
0.678868 -0.056832261 0.095121637
0.81846315 0.0690476 0.065391436
0.80601382 0.069132917 0.070581757
0.80757254 0.054026131 0.067557208
0.79376084 0.0538164 0.064048924
0.78458822 0.053315442 0.071508221
0.78065997 0.056430478 0.068993904
0.7817623 0.049517237 0.069707394
0.801332 0.037360638 0.073751867
0.780873 0.034733921 0.068151124
0.78741235 0.031085167 0.069298491
0.77508217 0.028227305 0.069350027
0.75701708 0.031894967 0.069138668
0.74506128 0.029986881 0.074023351
0.79711354 0.018601207 0.071194634
0.78550512 0.019545745 0.073087752
0.78104955 0.016266372 0.074499443
0.7727856 0.018277736 0.073590346
0.76618332 0.023320155 0.07010141
0.76193309 0.020284267 0.075079031
0.78244388 0.0070434213 0.074548088
0.77120346 0.00665132 0.075004309
0.76085085 0.012035344 0.075448267
0.75101161 0.012399142 0.078417018
0.74816883 0.013820946 0.077650949
0.79090244 0.0019272454 0.077403255
0.77653444 0.0005477909 0.079066575
0.76271069 0.00049322937 0.075884603
0.74339628 -0.00022937637 0.072652869
0.73813111 -0.0034269402 0.072924785
0.77462697 -0.0053932481 0.079428896
0.76386505 -0.0079663778 0.080937877
0.76014221 -0.0068409434 0.077383637
0.75294757 -0.010844305 0.082603693
0.7458117 -0.0055872537 0.081623085
0.75774622 -0.013989259 0.082745895
0.74295598 -0.016393827 0.081292808
0.80584252 -0.024416817 0.083927073
0.79973835 -0.026039228 0.079689763
0.7915588 -0.03069061 0.075843796
0.77989733 -0.025675202 0.08017695
0.76988524 -0.026089143 0.084222376
0.76544803 -0.024545316 0.081285581
0.80107546 -0.038428135 0.079522751
0.78950685 -0.039452679 0.08627557
0.75644535 -0.036663011 0.077584758
0.74464965 -0.03735061 0.079585947
0.7386921 -0.035825267 0.081097029
0.70926243 -0.039413396 0.085589491
0.79808426 -0.041640554 0.085791916
0.78565568 -0.042900078 0.081631072
0.76799077 -0.048086748 0.080353707
0.75862324 -0.048558038 0.079248905
0.75473094 -0.042221922 0.087473184
0.73197412 -0.040513765 0.084589928
0.7103554 -0.042606264 0.0852997
0.70682955 -0.041179739 0.081680156
0.69855398 -0.042971164 0.087328352
0.69470251 -0.043115161 0.0866348
0.72861606 -0.053368598 0.089331798
0.72778934 -0.051732432 0.081028268
0.71035975 -0.052266371 0.083424285
0.68530285 -0.058006726 0.089604385
0.81105721 0.074238017 0.052459393
0.79940599 0.070498638 0.055755202
0.78753394 0.068603903 0.060605705
0.8056432 0.055677217 0.06030421
0.76348734 0.053483076 0.057128288
0.75168687 0.051635083 0.060847189
0.77950251 0.04253263 0.05864545
0.79545444 0.036771014 0.060869038
0.78556091 0.036898509 0.062388178
0.78150791 0.038499888 0.057516083
0.77265441 0.040077746 0.063930698
0.75774324 0.03477826 0.065005504
0.80088753 0.02439322 0.064135768
0.79888999 0.017696684 0.06389045
0.78866011 0.021345805 0.06153553
0.77787954 0.021619875 0.062856272
0.77411544 0.015307456 0.065503426
0.79691184 0.0055765258 0.061089851
0.79515576 0.0057512317 0.061561104
0.78424186 0.012773752 0.063562259
0.76947361 0.011688669 0.068583682
0.76076746 0.0062870076 0.064656556
0.78140569 0.00068325363 0.063993558
0.77418131 0.0023173634 0.067584537
0.76683801 0.0013087941 0.068663344
0.75625283 0.00041343365 0.066589028
0.75083393 0.00039300323 0.065268524
0.74894905 0.0039314097 0.070829742
0.78793728 -0.0088186301 0.069451287
0.7796123 -0.010092679 0.067968726
0.77264816 -0.0078525245 0.068794616
0.76056039 -0.0084663341 0.066899754
0.79533988 -0.022857189 0.071272872
0.78760505 -0.022140227 0.067594714
0.77422738 -0.01869889 0.068657994
0.76758283 -0.014600906 0.072290145
0.75844401 -0.016608387 0.071571305
0.7386238 -0.014279697 0.067654788
0.81542403 -0.033225022 0.067578845
0.7823332 -0.02734137 0.072699159
0.77110302 -0.028288573 0.073249973
0.76292109 -0.030724108 0.075774267
0.75987279 -0.029235777 0.073800795
0.7524972 -0.023984719 0.07285931
0.74178177 -0.030492207 0.070795029
0.72006673 -0.03226795 0.07174468
0.79901189 -0.040987477 0.072357796
0.7958405 -0.038584761 0.073022373
0.77980626 -0.036059737 0.074215181
0.7757355 -0.038319573 0.069691628
0.76719218 -0.035090744 0.075577103
0.76094419 -0.039061181 0.074727155
0.73679966 -0.036427289 0.069382653
0.73108375 -0.037308905 0.071770847
0.7179181 -0.03872842 0.072942823
0.70904273 -0.036326852 0.07147631
0.78086162 -0.045274109 0.069216058
0.77372164 -0.045904666 0.073298104
0.76730597 -0.044037044 0.077295654
0.74603248 -0.045443058 0.077746674
0.71680021 -0.049335826 0.072732829
0.69719297 -0.053178787 0.077560797
0.68770945 -0.054498643 0.07452786
0.84645849 0.079781994 0.0413027
0.83465803 0.077934004 0.045021594
0.82285762 0.076086015 0.048740499
0.81586307 0.063447081 0.050605875
0.78515315 0.06215376 0.048491821
0.81329584 0.057674401 0.051959157
0.79857826 0.056789145 0.04548946
0.78670621 0.054894406 0.050339963
0.81965649 0.041762412 0.046284068
0.81715477 0.044082332 0.046281967
0.80666804 0.041434027 0.049334906
0.80229533 0.040444177 0.048883244
0.79123682 0.044871494 0.052516103
0.80162936 0.03402815 0.052944101
0.79403728 0.037626181 0.052150164
0.76213408 0.037395436 0.049775224
0.80543029 0.026245365 0.050021484
0.78370506 0.027550735 0.052402165
0.81440085 0.014992449 0.05329759
0.8082239 0.018609658 0.049407564
0.80074239 0.01684415 0.05299101
0.79234087 0.021429652 0.056676261
0.78685993 0.016075552 0.058425821
0.78054446 0.017131068 0.057733133
0.77481401 0.015408032 0.059518408
0.75737262 0.02132256 0.05472796
0.80013794 0.011082372 0.054946259
0.78885722 0.010227442 0.055978846
0.77762645 0.0080574099 0.054838881
0.79813087 0.0035460196 0.060186092
0.79341716 -0.0034959288 0.055338442
0.78482735 -0.0032962058 0.061262153
0.76927817 0.001066626 0.060437582
0.79039377 -0.0089028636 0.055688269
0.77820593 -0.012233497 0.057192124
0.75960171 -0.0077102501 0.05423408
0.74778336 -0.010065849 0.060407266
0.80006355 -0.02018678 0.057006925
0.78866577 -0.022660123 0.058927603
0.75873244 -0.019768259 0.056997079
0.79343915 -0.02613825 0.058596496
0.78484738 -0.030524379 0.059110597
0.77920794 -0.026575342 0.059709933
0.76741397 -0.028454896 0.060664184
0.75533777 -0.033438068 0.06186156
0.74518859 -0.030666288 0.060084984
0.80643684 -0.036393933 0.061425649
0.80195481 -0.037204377 0.061006147
0.79307497 -0.040373132 0.061396159
0.78282261 -0.039493248 0.062840596
0.76474178 -0.034680482 0.060740788
0.75335932 -0.035123169 0.061853077
0.74197692 -0.035565861 0.062965378
0.7305944 -0.036008552 0.064077668
0.72860193 -0.037850056 0.067145064
0.72109133 -0.034439996 0.067679204
0.71529722 -0.039800964 0.066243351
0.73243248 -0.048475038 0.064581633
0.72667134 -0.04422928 0.065594673
0.71677846 -0.048270702 0.066990919
0.70410854 -0.050088748 0.061449081
0.69661838 -0.051857691 0.064852059
0.85876667 0.079972327 0.031502709
0.81596768 0.077581108 0.031772688
0.82071954 0.061997995 0.037553523
0.81056976 0.059779458 0.041445818
0.79680467 0.064476095 0.042405818
0.81285715 0.044875957 0.042468358
0.80096751 0.043072678 0.044447638
0.78587836 0.04118491 0.040074222
0.76311922 0.040120102 0.046921566
0.8020407 0.03807281 0.04037369
0.77400625 0.039290175 0.044924721
0.80490178 0.028765816 0.039749134
0.80079311 0.023358563 0.040783547
0.7932896 0.024257176 0.044525087
0.78471613 0.022814952 0.042538289
0.77974111 0.026839484 0.047767773
0.74943417 0.021791207 0.044359982
0.81437641 0.017615959 0.046646405
0.78913474 0.016917419 0.04814218
0.7832635 0.014668381 0.042849146
0.76545322 0.012398058 0.044077881
0.79998761 0.0071193585 0.045253694
0.78610826 0.0032627643 0.047725163
0.77896452 0.0080553666 0.049493354
0.7725507 0.0046727145 0.044756033
0.76730561 0.006190863 0.043577842
0.75700182 0.0078668604 0.044450421
0.75534987 0.0042827763 0.048462521
0.80983305 0.00027020369 0.046645924
0.79988563 -0.0011630254 0.047083594
0.79518914 0.00032540783 0.050322752
0.78853542 -0.0012214817 0.050361745
0.77686238 -0.0022569895 0.048880655
0.77142 -0.0053546531 0.04806089
0.76529437 -0.0026146797 0.050869197
0.8034339 -0.012596148 0.049671531
0.79414177 -0.010643394 0.05182939
0.78632349 -0.011676678 0.052309286
0.77887911 -0.013279957 0.051357478
0.77305174 -0.010397698 0.048384778
0.76308733 -0.0093840016 0.048412271
0.76137346 -0.013488 0.052674167
0.75112265 -0.011257719 0.052182939
0.80531234 -0.018327992 0.048990015
0.80209053 -0.021308497 0.054613627
0.79366738 -0.01868806 0.050991777
0.78939676 -0.021001745 0.045923889
0.77749306 -0.023374362 0.052141674
0.82095045 -0.02864185 0.051552162
0.8043763 -0.030415557 0.048418209
0.79891378 -0.031900667 0.0520561
0.77782452 -0.026446922 0.053414043
0.73499513 -0.033542022 0.051320583
0.78721386 -0.036037751 0.057069685
0.78247863 -0.041892953 0.057769261
0.76717657 -0.04082682 0.051943615
0.74404871 -0.040838528 0.05449082
0.73335803 -0.039440569 0.05186832
0.72181523 -0.042771563 0.051908683
0.69988161 -0.042264104 0.053510252
0.68872279 -0.043205284 0.054057565
0.73866087 -0.046413124 0.055503946
0.72694409 -0.047096118 0.057491735
0.72071552 -0.048083987 0.057257839
0.66707176 -0.045936942 0.057073735
0.86294448 0.086599626 0.019878509
0.87063885 0.081867054 0.026652206
0.83175898 0.071443081 0.024147797
0.82010752 0.06912075 0.030233804
0.82031751 0.048958674 0.027735457
0.80730683 0.052998841 0.026044525
0.79565549 0.050676506 0.032130532
0.82482624 0.046187609 0.030247249
0.81476778 0.039148852 0.033510126
0.80884606 0.044892229 0.032093145
0.79775053 0.043079644 0.035223722
0.8124184 0.032077514 0.032977559
0.80919915 0.037683368 0.034240682
0.80096948 0.029846642 0.034910832
0.81771672 0.0212969 0.030639365
0.80842459 0.028053297 0.035749648
0.79890043 0.021335755 0.033676632
0.77317852 0.025580678 0.03465898
0.76202869 0.025221532 0.038112167
0.81936347 0.019195024 0.037658274
0.80627012 0.01503399 0.038459823
0.79329169 0.012298115 0.033772618
0.78922373 0.012588402 0.035792116
0.77897698 0.013162709 0.037454776
0.80690491 0.0034250864 0.038615949
0.79401958 0.0030084704 0.040240049
0.78519946 0.003881681 0.039994888
0.78138798 0.005201654 0.035616152
0.80137169 -0.002103419 0.038177814
0.78091985 -0.0032145344 0.042308781
0.82000554 -0.018211126 0.036098804
0.81136376 -0.013635587 0.040871039
0.80526042 -0.014339425 0.04036935
0.79944783 -0.013315741 0.041915208
0.78849691 -0.013475263 0.040628277
0.80161947 -0.024073482 0.041850053
0.78787094 -0.026212705 0.041556299
0.77265382 -0.026207728 0.040668357
0.75843596 -0.021707512 0.043811604
0.75074941 -0.02480671 0.041834138
0.81099468 -0.032586806 0.043698803
0.80722678 -0.029155044 0.041335519
0.79862362 -0.033090964 0.044232056
0.7934283 -0.030627692 0.042683549
0.76993001 -0.032461822 0.045315281
0.76053393 -0.027392408 0.04226248
0.77631885 -0.03747274 0.041643903
0.75465417 -0.040148109 0.049072739
0.74481273 -0.044310275 0.049663626
0.70977837 -0.043833032 0.045674901
0.69279629 -0.047079206 0.043123249
0.68796778 -0.048035916 0.049647622
0.66915864 -0.050492112 0.051641032
0.88638455 0.09027043 0.012491368
0.87466455 0.088435031 0.016184937
0.82062232 0.082683548 0.012964167
0.84341049 0.073765412 0.018061791
0.85085875 0.071492262 0.013434883
0.83580714 0.065170422 0.0194616
0.82741863 0.067821443 0.020822024
0.82453644 0.064821921 0.021399029
0.81514561 0.063967071 0.021578424
0.81384355 0.049175974 0.018742898
0.81730467 0.042847011 0.017616745
0.79450613 0.036876924 0.021855244
0.82462835 0.033420403 0.020342223
0.812895 0.032094594 0.021296605
0.80995286 0.034149092 0.021839248
0.80274242 0.030682422 0.025782555
0.7900793 0.030094897 0.027372682
0.78285474 0.03455459 0.027941253
0.81197971 0.019279078 0.023486763
0.80953598 0.025223522 0.026017776
0.81828326 0.014227803 0.023857135
0.80766535 0.014942359 0.028701376
0.77235073 0.01187118 0.024393236
0.76238304 0.013394148 0.026508132
0.81495774 0.004695103 0.027948201
0.80628794 0.0026682019 0.028876796
0.80105263 0.0034657503 0.027098931
0.79564852 0.0069625517 0.02489044
0.81377411 -0.0015123007 0.032331925
0.80080122 -0.0096132588 0.028849989
0.78730243 -0.0034241532 0.027828775
0.78064674 -0.0054216627 0.029994547
0.77519196 -0.0055803871 0.033334076
0.7685135 -0.0037280247 0.030428173
0.81163019 -0.013358212 0.032367177
0.80440879 -0.019137822 0.027982473
0.82217032 -0.024417907 0.027600456
0.81346285 -0.026604563 0.028323103
0.80602676 -0.026409278 0.032865942
0.79956341 -0.025993319 0.031133423
0.79552573 -0.021563666 0.030349717
0.7725544 -0.020418666 0.031512383
0.73966944 -0.020075377 0.035639662
0.80807161 -0.031961042 0.032279778
0.80042434 -0.032045074 0.031563006
0.78822261 -0.035100129 0.035426117
0.77280927 -0.035759225 0.035557017
0.76214486 -0.032848615 0.037250798
0.7528373 -0.028907198 0.033625539
0.72677761 -0.036312096 0.031420548
0.72001326 -0.036373701 0.031255592
0.70834327 -0.037496991 0.033630345
0.70006484 -0.044901785 0.040706966
0.874915 0.086988829 0.0076890532
0.83233064 0.084552139 0.0081806034
0.83227396 0.072854213 0.0033355262
0.81160694 0.058694363 0.0060361065
1.0671937 0.047871415 0.0031719133
0.84604186 0.05211968 0.0094852708
0.82998568 0.048386823 0.01303342
0.82410336 0.05218786 0.012030127
0.81432372 0.050353028 0.011384159
0.80615765 0.039199252 0.015769238
0.80224794 0.037219964 0.0095145125
0.81322885 0.027428009 0.012407063
0.80966306 0.034527346 0.011465747
0.78992271 0.032975897 0.010823349
0.77813327 0.031094357 0.015640074
0.81424564 0.018141042 0.013716439
0.808016 0.021761905 0.01465516
0.79778433 0.018938124 0.015351433
0.7817055 0.020755008 0.017665967
0.8078742 0.011852469 0.01477688
0.79970866 0.015512822 0.019258762
0.79420978 0.014772615 0.017690681
0.78422284 0.013765917 0.019542741
0.78245705 0.012265967 0.022255417
0.81905913 0.0032061394 0.016371427
0.81348765 -0.00052954489 0.017942918
0.79227823 -6.3958578e-06 0.022938758
0.8259117 -0.0032096212 0.016529243
0.81819731 -0.0080859149 0.018258341
0.81484044 -0.0070011676 0.018238114
0.80788952 -0.006331298 0.023427956
0.80293822 -0.0045487881 0.020426759
0.82524371 -0.013326548 0.019920006
0.82025939 -0.020353764 0.022177063
0.80190372 -0.015573129 0.024669506
0.77759421 -0.019513242 0.018017016
0.75626051 -0.019044539 0.02389534
0.82913119 -0.028131004 0.01858256
0.81986523 -0.02717031 0.021338088
0.81164807 -0.025803529 0.022722589
0.73597014 -0.02540005 0.022092085
0.74650484 -0.030064601 0.025005084
0.7213524 -0.039855216 0.0221492
0.90248114 0.096974149 -0.0086072739
0.89084059 0.095151171 -0.0049387161
1.0385793 0.073786668 -0.0018477403
0.86230356 0.071493253 0.0023115166
0.8555553 0.076500177 -0.0040015914
0.84745795 0.079315633 -0.001890773
1.0588591 0.065572627 -0.00072867237
1.0589323 0.058375724 -0.0043918453
0.82962978 0.05576776 -0.0028733388
0.82172352 0.059424799 -0.0015358906
1.0488019 0.044813339 -0.0059335064
0.84329003 0.045101244 0.003364522
0.8199265 0.045572825 0.0038972907
0.80866122 0.044916153 0.0058084875
0.79705483 0.051959224 0.0066556521
0.84180111 0.037259694 0.0021031164
0.82560277 0.035887931 0.0068034343
0.8137967 0.036829498 0.0028672609
0.84229219 0.033798385 0.0076755453
0.82979584 0.030335426 0.0046662055
0.80785137 0.026605276 0.0053973701
0.83746243 0.01893595 0.001719214
0.82256663 0.018078733 0.0079033636
0.81764185 0.023125932 0.0082850009
0.82091016 0.0082297921 0.011301691
0.8064093 0.010714494 0.008127477
0.79734683 0.00824589 0.0073427688
0.8113668 0.0019839925 0.0073229866
0.79017812 -0.0011338333 0.010687986
0.78339511 5.6419754e-05 0.0092769945
0.771523 -0.0018383157 0.014127496
0.81409478 -0.0043853931 0.0061657242
0.80000526 -0.0051752301 0.012163273
0.78660709 -0.010719905 0.011122283
0.82564521 -0.015944803 0.0067621209
0.8186745 -0.019935139 0.0086453073
0.80845714 -0.016499177 0.0098945331
0.799523 -0.018359598 0.01209803
0.79368448 -0.015936973 0.013756663
0.78002512 -0.015322909 0.016405925
0.8209908 -0.02412153 0.012196458
0.81477863 -0.026628204 0.014837563
0.80454361 -0.026282378 0.0086963773
0.80290377 -0.022312377 0.015126381
0.79307806 -0.026130658 0.013542068
0.73165196 -0.029933067 0.011184134
0.75024647 -0.031634357 0.019161861
0.71050674 -0.03873099 0.01784851
0.70105195 -0.039348431 0.018465571
0.89087206 0.093895078 -0.0157372
0.8791638 0.092026487 -0.010953641
0.85902786 0.081621721 -0.0079341959
0.86691749 0.077480376 -0.01198215
0.84322256 0.072900422 -0.0067270286
0.83548158 0.071793869 -0.0084096063
0.82434791 0.07431338 -0.015747221
0.81272042 0.072457664 -0.010996626
1.0373881 0.059482042 -0.012499087
0.83474684 0.063306525 -0.0060507394
0.8683725 0.05808996 -0.010662161
0.85189921 0.056548581 -0.0058023464
0.83191079 0.05967214 -0.0067330208
0.81898963 0.055642948 -0.0072839791
0.82272178 0.044232257 -0.0094303787
0.8180005 0.042867891 -0.010257483
0.81046575 0.044991326 -0.0041672848
0.83425117 0.031802755 -0.0092596384
0.81966519 0.0330831 -0.0056815846
0.8083998 0.032426417 -0.0037703859
0.79475677 0.038385466 -0.0078409258
0.834508 0.027268225 -0.0086451089
0.82953656 0.025187125 -0.0052563511
0.82066655 0.02550281 -0.0048179608
0.81480837 0.02916258 -0.0044185687
0.78618473 0.026676131 -0.0022838283
0.83756036 0.022399701 -0.005279039
0.81224149 0.014578863 -0.0055442853
0.79930991 0.014832545 -0.0046764594
0.79749203 0.01683273 -0.00046529807
0.78910071 0.019361855 0.00062908418
0.83263266 0.0040735155 -0.0042371182
0.80750376 0.01039888 0.0007956177
0.80385906 0.011600088 -0.0047813319
0.81486279 -9.1139227e-05 0.00091147143
0.80563992 -0.0020729089 -0.001385102
0.8028248 -0.00032351608 0.0036232304
0.79526716 0.0019511566 0.0044264961
0.82251966 -0.0059647784 0.002542532
0.80861628 -0.009405789 -0.00057131331
0.78256738 -0.013653077 -0.00098874699
0.82177949 -0.017338395 -0.00096554868
0.80624413 -0.018631436 -0.00088066142
0.80178821 -0.02713385 0.0057997601
0.79471415 -0.027855841 0.0037913444
0.78871638 -0.031411249 0.0027942639
0.7796545 -0.028778611 0.0061283857
0.73767781 -0.030390762 0.0033257836
0.72019005 -0.027624952 0.001813489
1.0006315 0.095390745 -0.027539752
0.91835535 0.10359006 -0.029432934
0.90679294 0.10177937 -0.025789073
0.86292279 0.087085389 -0.027595917
0.90211809 0.083792068 -0.018675825
0.87834752 0.078506179 -0.021077713
0.87174535 0.08325392 -0.024858255
1.0287921 0.07050205 -0.024318881
0.84084475 0.075217031 -0.023044877
0.85411453 0.061248709 -0.021634663
0.84240627 0.059380118 -0.016851103
0.83587581 0.062024314 -0.020793518
0.80886644 0.059856102 -0.018584315
0.79831016 0.05896575 -0.018066559
0.83360565 0.049603488 -0.016254131
0.82865614 0.058024816 -0.014287767
1.0361967 0.045177419 -0.023150431
0.84676009 0.045269366 -0.012965732
0.84039837 0.043560438 -0.014107659
0.83592886 0.040537938 -0.018089965
0.83037353 0.044852111 -0.014492071
0.81990701 0.044667084 -0.013133011
0.81817335 0.04212264 -0.017408051
0.8278234 0.032769945 -0.013767978
0.81401175 0.031466454 -0.010595949
0.80932456 0.031288296 -0.014370674
0.81125683 0.024244616 -0.010881579
0.79798597 0.028836047 -0.012103708
0.82951164 0.014792086 -0.01550385
0.82175249 0.017863637 -0.015395849
0.81430382 0.014426054 -0.013152332
0.80928814 0.017917937 -0.011889562
0.80318487 0.013955471 -0.009359492
0.78504354 0.012973101 -0.012487222
0.81754076 0.0088917762 -0.010311636
0.80006814 0.0076293596 -0.014381907
0.77347356 0.01066702 -0.0064437967
0.84706777 -0.0026642256 -0.014059834
0.83945704 -0.0016039319 -0.014473734
0.83555156 -0.0037727281 -0.011716348
0.82811356 -0.0019546768 -0.012523791
0.8216123 -0.0036057937 -0.009598772
0.81452215 -0.0004140684 -0.011716709
0.80884856 -0.0059398357 -0.0087809069
0.79105836 -0.0045218267 -0.0089706117
0.82938337 -0.011192008 -0.0093194526
0.81297541 -0.011435963 -0.0039250692
0.80854386 -0.011925845 -0.0094655622
0.7957437 -0.009773084 -0.0054506245
0.84491557 -0.018057164 -0.010873535
0.82789701 -0.020721249 -0.0064833029
0.82044226 -0.020327432 -0.0051726606
0.81500077 -0.019640753 -0.0058226842
0.80891854 -0.019940017 -0.011484863
0.79934466 -0.015572652 -0.0064259414
0.8081798 -0.026193311 -0.009839287
0.80234903 -0.028872428 -0.0042431224
0.74947828 -0.028542768 -0.00039311685
0.74172103 -0.034032855 -0.0027006189
0.98249304 0.10682885 -0.034974337
0.92991763 0.10540078 -0.033076797
1.0032195 0.095352523 -0.034581546
0.89492434 0.098874778 -0.034196503
1.0004045 0.088999659 -0.036969032
0.87441212 0.089375407 -0.033597264
1.0345292 0.082623914 -0.038613163
0.90176404 0.082243353 -0.030644836
0.88330764 0.08506462 -0.028502114
0.87138468 0.070160583 -0.034859024
0.85982233 0.068349883 -0.031215157
0.8388108 0.068897709 -0.025725577
1.0279528 0.056597639 -0.034730576
0.87590176 0.063768424 -0.028631227
0.86582279 0.063117288 -0.026418224
0.84825999 0.066539176 -0.027571298
0.84041989 0.062822051 -0.032236479
0.83365095 0.062223699 -0.029489782
0.82353729 0.060886238 -0.02580153
1.0482746 0.047584739 -0.029459178
0.80932641 0.048433602 -0.027851155
0.85351586 0.046117481 -0.028472122
0.85091978 0.041555088 -0.024459211
0.84067243 0.046226125 -0.026636835
0.83160335 0.040196985 -0.02131729
0.79877025 0.04754325 -0.027333399
1.056532 0.029555086 -0.025851937
1.0347348 0.033061247 -0.030871732
0.84025192 0.033419654 -0.024216268
0.8324644 0.035900459 -0.026457524
0.83046317 0.036923539 -0.026155943
0.82021922 0.032539688 -0.021807831
0.80204755 0.033148229 -0.020979838
0.83113331 0.02578059 -0.02400418
0.8187595 0.022180416 -0.020415504
0.80564868 0.02673375 -0.02274856
0.79394042 0.02486516 -0.017965
0.84078091 0.013604891 -0.01742452
0.83407491 0.014634162 -0.018014012
0.82265353 0.015406677 -0.022040065
0.80818331 0.017585265 -0.024574067
0.83694643 0.0079518678 -0.020304497
0.82511538 0.0023582673 -0.022562953
0.81866616 0.0061636101 -0.022193074
0.81282169 0.0051237028 -0.017852576
0.80581784 0.0032453015 -0.018507238
0.85080051 -0.001253187 -0.016423678
0.82907879 -0.0073202797 -0.020043347
0.81436133 0.00012283499 -0.021142626
0.84281427 -0.010123965 -0.016577741
0.83638018 -0.016448176 -0.02113696
0.8299849 -0.014946672 -0.018247457
0.82276863 -0.013193085 -0.021251949
0.81297189 -0.0083722863 -0.015184184
0.81097817 -0.014390422 -0.013790869
0.83385432 -0.017529752 -0.014610501
0.83069897 -0.02424732 -0.018148959
0.8008045 -0.019865442 -0.014590915
0.79361171 -0.025467837 -0.016104989
0.72597969 -0.022774333 -0.013823487
0.93401301 0.11011914 -0.04998751
0.92980719 0.10444191 -0.048448294
0.91817951 0.10258619 -0.043697696
0.97157633 0.099311061 -0.04888428
0.89739084 0.09395545 -0.045599952
0.88590151 0.091665432 -0.03959861
0.88248605 0.083591931 -0.03950021
0.87327886 0.075767785 -0.043729611
0.89450932 0.073781982 -0.042146746
0.88017225 0.067011997 -0.04145918
0.86178952 0.073477753 -0.037728265
0.85329813 0.047728404 -0.031758733
0.83710694 0.053385165 -0.035694793
0.82248217 0.048081893 -0.036356386
0.813384 0.055757456 -0.036481395
1.05024 0.035585187 -0.042083796
0.85523367 0.045433439 -0.040526591
0.81899053 0.040288437 -0.033270314
0.86989933 0.035081293 -0.038470343
0.85564876 0.034154668 -0.031342506
0.84927511 0.031257488 -0.035854276
0.84532648 0.034716818 -0.038072415
0.83302331 0.029928776 -0.030881707
0.80978644 0.037011102 -0.037117995
0.79923016 0.03612075 -0.03660024
0.84915626 0.021635663 -0.033884209
0.83464581 0.021283088 -0.031550601
0.82863212 0.02346056 -0.032902639
0.8217833 0.020768063 -0.033352129
0.80437541 0.02146304 -0.034032702
1.0432377 0.0072030867 -0.037985921
0.84575003 0.018153533 -0.032827862
0.83935738 0.015210922 -0.030337472
0.83660203 0.0186096 -0.029539812
0.81918073 0.018302919 -0.033270109
0.85410416 0.0023598731 -0.030425228
0.82740968 0.0032029783 -0.031168986
0.817128 0.004875496 -0.027651845
0.84715903 -0.0062178737 -0.032760046
0.83621824 -0.0073044645 -0.023446189
0.82629031 -0.0095004477 -0.031661026
0.81487167 -0.0084023159 -0.028760757
0.81103569 -0.004103139 -0.0293929
0.85838646 -0.014322935 -0.026308348
0.84687006 -0.015431437 -0.023964863
0.83466136 -0.014702066 -0.028633483
0.82427275 -0.015072828 -0.024759933
0.81458855 -0.011194768 -0.028287459
0.8248381 -0.02218027 -0.027425503
0.82165813 -0.023195591 -0.026476912
0.95698285 0.11371631 -0.057226472
0.9530623 0.10815333 -0.057949487
0.89895755 0.10377171 -0.052338779
0.97580618 0.099550247 -0.057653002
0.95158732 0.10007037 -0.056281589
0.92216969 0.095314816 -0.056301881
0.91068476 0.093516231 -0.0526824
0.9948805 0.085193783 -0.05809284
0.990722 0.084632263 -0.051682755
0.90574121 0.087303348 -0.049001407
0.89919978 0.091717646 -0.049062919
0.8758716 0.075114727 -0.051757812
0.84166908 0.077988021 -0.047440916
1.0341611 0.069260933 -0.048819877
0.89330286 0.072020508 -0.054305114
0.88167524 0.070164792 -0.049554516
0.83859044 0.066364892 -0.04448076
0.85100508 0.056347966 -0.044969931
0.84105849 0.056713227 -0.050833222
0.83031416 0.058609866 -0.049174696
1.0421773 0.052526414 -0.045422528
0.85937327 0.05054637 -0.043759741
0.85760933 0.053026244 -0.050107628
0.8520236 0.047334172 -0.042875789
0.83289981 0.047213718 -0.045211844
1.0299245 0.037209898 -0.051955365
1.0264554 0.038624071 -0.046508633
0.87026238 0.040227294 -0.048742056
0.85978299 0.041524298 -0.046461686
0.84417629 0.040207908 -0.040538248
0.83449686 0.039594352 -0.04304333
0.82322955 0.036498386 -0.043396223
0.80278069 0.040007938 -0.046285234
0.85850626 0.029300828 -0.039574385
0.8504039 0.030571003 -0.046482921
0.83917964 0.029317603 -0.041974001
0.82032412 0.030994602 -0.044318877
0.81028819 0.03217626 -0.041159544
1.0351053 0.025080442 -0.04160919
1.0338142 0.016568162 -0.044453125
1.024794 0.016195292 -0.044503141
0.83568907 0.023081688 -0.043696076
0.82948959 0.02314226 -0.041896332
0.8077687 0.025071381 -0.043526128
0.84558374 0.0076365666 -0.044108987
0.84314734 0.014113858 -0.039804153
0.8337549 0.0088361092 -0.043043993
0.82633561 0.011301037 -0.041072212
0.82441968 0.012205477 -0.039513301
0.81279582 0.0099659534 -0.040786017
0.84563529 0.0046749869 -0.041829217
0.83085394 0.005266618 -0.036474459
0.81967813 0.0070676347 -0.038184721
0.86326957 -0.0095595699 -0.041760858
0.84877378 -0.0054191593 -0.041108742
0.84447944 -0.010285472 -0.038689245
0.83378243 -0.0049449666 -0.036544222
0.82794291 -0.0071015111 -0.038546596
0.82259113 -0.0066032466 -0.039099243
0.81790167 -0.0053369631 -0.03797248
0.84900725 -0.012821401 -0.035836138
0.83562601 -0.011744306 -0.034171637
0.82486349 -0.011354417 -0.037503917
0.80459017 -0.020941265 -0.037670501
0.93810058 0.11475687 -0.066591494
0.93360287 0.10930093 -0.066493496
0.95662463 0.10071058 -0.067160323
0.90102667 0.099283278 -0.064809673
0.97201383 0.09345489 -0.059346206
0.90970081 0.092279099 -0.067042843
1.0065211 0.087016769 -0.061761394
0.97544557 0.08645691 -0.067653775
0.97042704 0.085511476 -0.059159562
0.87708056 0.081220821 -0.062952206
0.99116564 0.078576177 -0.060866751
0.88607228 0.071473025 -0.056857694
0.87551332 0.062108994 -0.061691664
0.85313469 0.063158385 -0.061094742
0.84006858 0.069337055 -0.058887076
1.0219926 0.054049972 -0.055307694
0.86923701 0.054881956 -0.054858223
0.86454207 0.05761696 -0.056553438
0.85254335 0.058511823 -0.054452702
0.83839893 0.054005105 -0.054069698
0.86089057 0.050107278 -0.055124503
0.83431995 0.053616401 -0.053849705
0.99149233 0.040458784 -0.061025303
0.85513252 0.035686381 -0.051141895
0.84611219 0.041760318 -0.049698446
0.84517103 0.037743401 -0.055411339
0.83340448 0.03661669 -0.049725659
0.86879176 0.032895792 -0.050433278
0.85518241 0.026696751 -0.053160921
0.84121943 0.027172668 -0.054426964
0.83551329 0.026761649 -0.055026181
1.0176715 0.021893386 -0.058488198
0.85502791 0.022867227 -0.051026072
0.84765506 0.024554916 -0.051459916
0.83960831 0.025485666 -0.047189906
0.80947751 0.018749129 -0.051213853
0.85585284 0.014746105 -0.049524825
0.84557414 0.015708571 -0.052439254
0.84192538 0.0097836358 -0.051791757
0.83654571 0.014869628 -0.051851459
0.83053613 0.0087358095 -0.047496997
0.81848872 0.013759948 -0.053894542
1.0135993 0.0028660577 -0.051469386
0.8569212 0.0066467472 -0.044916771
0.85150373 -0.0023117806 -0.04894235
0.83535355 0.00044779014 -0.050930198
0.83045822 0.0069438168 -0.047007214
0.85589796 -0.0085120862 -0.046760317
0.83982295 -0.00587558 -0.049350034
0.83651483 -0.0090320855 -0.043589924
0.82886207 -0.0057515409 -0.047772508
0.84701508 -0.016748941 -0.047840673
0.84115022 -0.015562458 -0.04781948
0.82766759 -0.017816609 -0.044295266
0.93774462 0.10183703 -0.076459736
0.92633557 0.10005032 -0.07286416
0.93279761 0.095965244 -0.076479323
0.92124927 0.094122179 -0.071761087
0.89175224 0.08177036 -0.071945682
1.0061579 0.073834687 -0.071829945
0.99451727 0.072011709 -0.068161383
0.88699836 0.063907579 -0.065311149
0.86695659 0.06134012 -0.068764046
0.86454487 0.065432638 -0.067054763
0.83432734 0.064167991 -0.068329223
0.82374114 0.063168146 -0.06496679
0.8128264 0.062531903 -0.063115068
0.98377067 0.059085302 -0.064263485
0.89152998 0.060079698 -0.068098076
0.87244368 0.054471359 -0.06443429
0.83964902 0.057096113 -0.06796445
0.87478596 0.050406635 -0.063310161
0.87286997 0.044028383 -0.065077811
0.86367011 0.047304675 -0.068006039
0.85218507 0.045506082 -0.064386562
0.84070015 0.043707497 -0.060767077
0.8291887 0.045095943 -0.059237279
0.81833309 0.04731302 -0.060166895
1.0098239 0.038838997 -0.06179551
0.86242294 0.041619562 -0.063804582
0.844886 0.041638777 -0.064872637
0.83820748 0.041645329 -0.06365864
1.0295537 0.023754202 -0.062232904
1.0055877 0.030546494 -0.064453766
0.99765545 0.023628034 -0.068283327
0.85662681 0.028628662 -0.061640438
0.84717792 0.027259156 -0.057573598
0.84432673 0.025151476 -0.063094929
0.81343555 0.028765216 -0.056590661
0.80557394 0.028766338 -0.058025263
0.86613834 0.018341061 -0.060383722
0.85089183 0.020826392 -0.05852405
0.83273268 0.022460554 -0.06071505
1.0133932 0.012962743 -0.061046191
0.85559905 0.010113465 -0.058485236
0.84980214 0.01013832 -0.058960207
0.84282434 0.010356676 -0.055923
0.83632654 0.012585017 -0.059155475
0.80968654 0.0097440481 -0.058459915
0.85519296 0.0014356184 -0.057639375
0.84938282 -0.002018847 -0.057237104
0.8359527 -0.0017099525 -0.061057501
0.86915714 -0.0088370228 -0.061621048
0.86107486 -0.0059614116 -0.055194773
0.85477328 -0.0094498014 -0.054311238
0.85009432 -0.0079826713 -0.057007812
0.83349603 -0.010486947 -0.056395818
0.82809335 -0.0056827539 -0.054819524
0.81490797 -0.011958567 -0.057904333
0.82121772 -0.015607917 -0.050670549
0.81053293 -0.016509112 -0.050146487
0.94434607 0.097808309 -0.081197567
0.90455252 0.10456111 -0.083856449
0.9630686 0.08315479 -0.082808703
0.88097894 0.082658082 -0.082126118
0.84011555 0.087795787 -0.075971156
0.90888184 0.077622488 -0.077615894
0.99415416 0.058829635 -0.078229934
0.98952174 0.051348094 -0.081255279
0.88664001 0.050901853 -0.075245
0.88265377 0.058039945 -0.075213537
0.876288 0.057195619 -0.076176122
0.87108809 0.059404165 -0.074334979
0.83320957 0.050747193 -0.078322455
0.82348794 0.051067047 -0.074247606
0.87593812 0.045851022 -0.071393333
0.86109161 0.044899765 -0.078127354
0.8541013 0.048613064 -0.071816862
0.85000634 0.043088429 -0.074912362
0.80345196 0.046731297 -0.071089797
0.99003708 0.040429283 -0.071436763
0.86980975 0.040023383 -0.074311748
0.84398323 0.037333377 -0.071865499
0.81807828 0.035136357 -0.069505669
0.98873746 0.025347205 -0.071356438
0.86085612 0.030523958 -0.072027609
0.85674924 0.025255285 -0.073811665
0.84932745 0.02861465 -0.067219675
0.81409276 0.024191802 -0.06924022
0.85837954 0.015976522 -0.071218222
0.84835255 0.01687637 -0.068040498
0.84513199 0.015586829 -0.071969531
0.98548687 0.0084170662 -0.074771143
0.86348504 0.0037863376 -0.070334159
0.84958661 0.013498591 -0.066824742
0.83192199 0.0090334173 -0.070769355
0.82029438 0.0071777077 -0.066018753
0.85561395 -0.0012752693 -0.064124867
0.84938538 -0.0021054386 -0.066904888
0.84061068 -0.0029025483 -0.063111126
0.83143371 -0.0020026336 -0.06388399
0.8184517 0.0020301621 -0.063211791
0.86953866 -0.011245457 -0.068532854
0.83832449 -0.0082213916 -0.06747146
0.82661617 -0.010089979 -0.062687896
0.91588414 0.1068197 -0.089775406
0.93413186 0.092592113 -0.092752315
0.9187113 0.09013328 -0.095524311
0.90737754 0.088358372 -0.091952488
0.90343481 0.091140315 -0.093849689
0.89604378 0.086583458 -0.088380665
0.89210314 0.088881731 -0.087930739
0.8453185 0.091000013 -0.089678004
0.97244465 0.077276483 -0.088775218
0.9673931 0.076497696 -0.090647519
0.9820894 0.06828288 -0.084377915
0.96225792 0.069727637 -0.092863008
0.87965381 0.073202334 -0.092005029
0.86832225 0.070943743 -0.086086079
0.83970106 0.075705439 -0.084936857
0.83109087 0.076404616 -0.084013045
0.97725207 0.060252439 -0.086725727
0.87726706 0.064520627 -0.090126984
0.96956474 0.052893981 -0.089718416
0.85906398 0.052815638 -0.087456167
0.84454125 0.053005774 -0.084241405
0.98724961 0.042938709 -0.082728118
0.88007599 0.044974755 -0.086298764
0.87263995 0.046742842 -0.082845598
0.88628173 0.037896112 -0.085178852
0.87051654 0.033038761 -0.086207911
0.86213648 0.03443864 -0.083466269
0.85806727 0.035145048 -0.078452185
0.82323468 0.038965955 -0.083528422
0.86717588 0.025575409 -0.084189206
0.85420179 0.023465274 -0.084574014
0.84771532 0.029725 -0.080644414
0.81782353 0.022959698 -0.078844443
0.98439354 0.018557437 -0.083447248
0.85537851 0.01442334 -0.077940941
0.85217619 0.017273512 -0.083048016
0.84172064 0.015091774 -0.083100736
1.0036711 0.0093817702 -0.082840323
0.98598254 0.010235635 -0.08168757
0.87109035 0.0036623012 -0.080573566
0.86019313 0.0055004051 -0.081306957
0.85208625 0.0073312894 -0.080267541
0.84354961 0.010889131 -0.075519949
0.87438905 -0.00066775735 -0.072868094
0.85636264 -0.00060515944 -0.075856522
0.84645653 0.0010724803 -0.077575132
0.83489424 -0.00073822355 -0.073931277
0.85050851 -0.0098636178 -0.071689308
0.84020305 -0.0077396994 -0.074873388
0.94137877 0.093683094 -0.10266798
0.93004507 0.091908187 -0.099096149
0.89385802 0.085245952 -0.10297754
0.95257121 0.078190342 -0.095871381
0.90702397 0.075523861 -0.10175556
0.882465 0.08342769 -0.098322809
0.84490657 0.078983225 -0.098589167
0.83592737 0.080352604 -0.098283783
0.89569014 0.073748961 -0.098183729
0.89002228 0.07124985 -0.096620828
0.8843565 0.071974054 -0.094611898
0.89360052 0.065427288 -0.095090419
0.88336676 0.063189037 -0.095782034
0.83928663 0.063615084 -0.093902573
0.83090305 0.064277411 -0.093421556
0.91036105 0.056600194 -0.093430169
0.87643105 0.052926391 -0.095732264
0.87270474 0.048973061 -0.097004756
0.86461931 0.050426178 -0.089748651
0.85587287 0.055264369 -0.09016037
0.83683819 0.049052183 -0.090708725
0.86786634 0.039437428 -0.094359264
0.86334538 0.042206064 -0.094685063
0.8562848 0.047517285 -0.091593564
0.84342355 0.039584976 -0.094234645
0.98609215 0.029040858 -0.093076579
0.97014648 0.028819526 -0.091029912
0.88416421 0.034118604 -0.094204277
0.87623805 0.030328922 -0.093877643
0.86203623 0.031817958 -0.089407161
0.85449606 0.038093396 -0.094107822
0.8497299 0.032951888 -0.087996349
0.84286165 0.033627141 -0.087935738
0.83209193 0.037326388 -0.088315703
0.97604561 0.027796453 -0.090461425
0.96429873 0.020356927 -0.092010349
0.88592339 0.024890378 -0.095112711
0.86940205 0.024375241 -0.091490336
0.86176568 0.020813838 -0.089618124
0.82298142 0.026864864 -0.092809245
0.86555547 0.018248051 -0.091002248
0.85579652 0.015872337 -0.090522327
