# .PCD v0.7 - Point Cloud Data file format
VERSION 0.7
FIELDS x y z
SIZE 4 4 4
TYPE F F F
COUNT 1 1 1
WIDTH 276
HEIGHT 1
VIEWPOINT 0 0 0 1 0 0 0
POINTS 276
DATA ascii
-0.88270503 0.96750355 -3.0878274
-0.88958609 0.88732886 -3.0796263
-0.88555634 0.86884564 -3.075278
-0.88903463 0.92596424 -3.0927279
-0.88840377 0.91121435 -3.0911145
-0.90275604 0.89313591 -3.0916469
-0.8659277 0.98722243 -3.1091847
-0.8771171 0.97101855 -3.1063051
-0.89125127 0.95358324 -3.1069508
-0.91010326 0.95445681 -3.1077001
-0.90562737 0.93585885 -3.1076152
-0.88416296 0.89180195 -3.0925117
-0.89804047 0.87288189 -3.0986853
-0.89420348 0.85398686 -3.0944645
-0.90597034 0.93433356 -3.1112282
-0.8819201 0.92957705 -3.1111951
-0.88276958 0.91475856 -3.1097455
-0.90163767 0.91518664 -3.1132629
-0.91858357 0.91309857 -3.1132271
-0.89787507 0.91128039 -3.1126342
-0.87852877 0.89534611 -3.1111426
-0.87152916 0.97453356 -3.124783
-0.90956753 0.97663808 -3.1258059
-0.86732316 0.95528084 -3.1261687
-0.88561696 0.95712733 -3.125582
-0.90523493 0.95749128 -3.1278403
-0.89994591 0.93943262 -3.1264019
-0.88137609 0.93771493 -3.1269791
-0.88382989 0.91427696 -3.114598
-0.89730513 0.8960399 -3.1152973
-0.89341611 0.89101362 -3.1134658
-0.91408581 0.89265519 -3.1140659
-0.89288545 0.87701422 -3.1145871
-0.90958798 0.87221169 -3.1149046
-0.88852215 0.85756063 -3.1132514
-0.90090233 0.93834466 -3.1298749
-0.87038475 0.91309714 -3.130487
-0.87796915 0.91827893 -3.1307347
-0.89069873 0.91492462 -3.1312613
-0.87289435 0.89889032 -3.1297736
-0.87093776 0.8573041 -3.1206522
-0.90664655 0.85819972 -3.1180751
-0.89437205 0.79939854 -3.1168163
-0.86594117 0.97804862 -3.1432607
-0.86908638 0.97777009 -3.1465435
-0.89223707 0.90005112 -3.133944
-0.88623983 0.89465785 -3.132093
-0.88790447 0.8809042 -3.1359789
-0.87020844 0.88027364 -3.1371291
-0.88178098 0.8743912 -3.1329246
-0.88711709 0.88070881 -3.1306288
-0.90234917 0.87588757 -3.1336946
-0.88284081 0.86113429 -3.1320379
-0.89354098 0.80028367 -3.1242294
-0.87807369 0.94122481 -3.1495697
-0.89583427 0.94235575 -3.1485217
-0.86327022 0.91671002 -3.1489542
-0.87377632 0.92223394 -3.151588
-0.86726016 0.90243435 -3.1484044
-0.85884964 0.89661741 -3.1497788
-0.86591101 0.86128271 -3.139147
-0.89785141 0.85544419 -3.1345334
-0.86161369 0.84229183 -3.141165
-0.87856448 0.84155971 -3.1334467
-0.89726746 0.84248149 -3.13292
-0.88885593 0.81455731 -3.1362109
-0.89295512 0.82274199 -3.1343405
-0.91752762 0.9861654 -3.1621699
-0.87434846 0.96421552 -3.1628437
-0.87734425 0.96419406 -3.1660466
-0.89509887 0.96551359 -3.165134
-0.91315913 0.96685988 -3.1642218
-0.88858336 0.94657999 -3.1639752
-0.86947894 0.90324301 -3.1536059
-0.87906367 0.8983019 -3.1507204
-0.887169 0.90406221 -3.1525908
-0.88143575 0.88428253 -3.1494155
-0.87460476 0.87803531 -3.151552
-0.8906126 0.85912013 -3.1533229
-0.92494798 0.84832942 -3.1489801
-0.85731637 0.82330096 -3.143183
-0.87490654 0.82346404 -3.1420825
-0.88843101 0.80432808 -3.1430309
-0.91241765 0.9902097 -3.1809714
-0.87295508 0.98717189 -3.1800773
-0.87304693 0.94520319 -3.1680648
-0.86586678 0.9253909 -3.1656382
-0.86874956 0.92621243 -3.1700828
-0.88430703 0.92700553 -3.1653843
-0.85615563 0.92032284 -3.1674218
-0.76115626 0.90434366 -3.1679597
-0.86162597 0.90597856 -3.1670356
-0.83196008 0.8985579 -3.1672161
-0.85173506 0.90023023 -3.168246
-0.75707275 0.88411105 -3.1686943
-0.85658687 0.84627044 -3.1596599
-0.89205796 0.84698331 -3.1577289
-0.91024953 0.84735262 -3.1567554
-0.88611484 0.83867657 -3.1541619
-0.86860687 0.82555896 -3.1536424
-0.88722599 0.82634592 -3.1532855
-0.92042321 0.82960755 -3.150955
-0.88161707 0.81823325 -3.1550007
-0.86433059 0.8059845 -3.1550512
-0.88291353 0.80660641 -3.1547067
-0.90180725 0.80723727 -3.1543484
-0.87661481 0.98716342 -3.1825235
-0.87051588 0.9679662 -3.183008
-0.88290191 0.95015377 -3.1827619
-0.83367199 0.9419843 -3.1838918
-0.85346162 0.94402844 -3.1850646
-0.8644734 0.94834727 -3.1828718
-0.86445224 0.90722156 -3.1721005
-0.73110843 0.89402264 -3.1798141
-0.85876995 0.88739848 -3.1712759
-0.87676138 0.88839144 -3.1707373
-0.84731448 0.8801375 -3.1690705
-0.8674286 0.88167942 -3.1701794
-0.87147808 0.86828184 -3.1696112
-0.8901214 0.86942887 -3.1693888
-0.88337392 0.86279601 -3.1721129
-0.885809 0.84968925 -3.1708097
-0.74334615 0.83432209 -3.1655648
-0.86550593 0.80832851 -3.1627638
-0.8491773 0.98859358 -3.1986945
-0.86732084 0.9907161 -3.1987083
-0.87158805 0.99114192 -3.2010183
-0.8292889 0.9220621 -3.1847091
-0.84904104 0.92393577 -3.185889
-0.86023253 0.92893505 -3.184269
-0.85599166 0.90952265 -3.1856663
-0.74924088 0.89558816 -3.1809018
-0.76768386 0.89718425 -3.1820245
-0.74885106 0.88780743 -3.1862633
-0.85175079 0.89011037 -3.1870635
-0.72690392 0.87491226 -3.180598
-0.74500191 0.87632096 -3.1816926
-0.76340985 0.87775737 -3.1828215
-0.82052273 0.88221782 -3.1863441
-0.85585749 0.86923981 -3.1761367
-0.87343574 0.86977994 -3.1753066
-0.74076289 0.85705382 -3.182483
-0.75913572 0.85833061 -3.1836188
-0.85156018 0.85024893 -3.1781547
-0.87887609 0.84235251 -3.1729517
-0.86292553 0.82913274 -3.1724291
-0.87437832 0.82190913 -3.1737905
-0.85864931 0.80955815 -3.1738379
-0.84497136 0.9693408 -3.2000804
-0.86518544 0.97172737 -3.2015707
-0.86299336 0.95316017 -3.2050545
-0.8806302 0.95438933 -3.2044616
-0.80721104 0.94352221 -3.2008798
-0.82661778 0.94556642 -3.2022023
-0.80286491 0.92376775 -3.2016902
-0.85942549 0.91120005 -3.1905956
-0.76936674 0.90133649 -3.191119
-0.84206414 0.91031474 -3.1912401
-0.83780164 0.8914777 -3.1932418
-0.85512811 0.89220923 -3.1926136
-0.84019983 0.88375032 -3.1875379
-0.76500887 0.88101876 -3.1915739
-0.76804596 0.88013029 -3.1924279
-0.74476755 0.86757481 -3.1869981
-0.76488119 0.86903322 -3.1896122
-0.84751004 0.87069798 -3.1884608
-0.8657968 0.87185562 -3.1883974
-0.87613505 0.86647189 -3.1909027
-0.75678349 0.84448659 -3.1909747
-0.86152047 0.85228086 -3.1898067
-0.88007981 0.85329312 -3.189755
-0.73652387 0.83778661 -3.1832736
-0.86477053 0.83148646 -3.1793756
-0.73228496 0.81851935 -3.1840639
-0.75058752 0.81947696 -3.1852131
-0.84296542 0.81226724 -3.1821907
-0.86043787 0.8123396 -3.1814103
-0.85869604 0.93416935 -3.2070723
-0.87629759 0.93524253 -3.2064962
-0.82223475 0.92564428 -3.2030199
-0.76482624 0.9135772 -3.2058511
-0.76287746 0.90451407 -3.2090201
-0.78005153 0.90726227 -3.2040298
-0.81785166 0.90572226 -3.2038372
-0.83750588 0.90745592 -3.2051809
-0.8461166 0.89365453 -3.2056944
-0.77594674 0.88847303 -3.2053819
-0.79417259 0.88425934 -3.2033114
-0.81346864 0.88580006 -3.2046547
-0.83353907 0.87264061 -3.1952436
-0.84653336 0.85422748 -3.1966496
-0.72970152 0.84125102 -3.2009823
-0.84223604 0.83523655 -3.1986675
-0.85970247 0.8354975 -3.1980226
-0.85724425 0.83270639 -3.1912158
-0.75210559 0.82450032 -3.1907868
-0.85320485 0.95543551 -3.2201338
-0.8579666 0.95713872 -3.2235491
-0.87153929 0.95730114 -3.220335
-0.83517736 0.95360285 -3.219944
-0.86726296 0.93772668 -3.2217441
-0.83097136 0.93435013 -3.2213297
-0.83281553 0.89542395 -3.211587
-0.75729096 0.88448721 -3.2088635
-0.7889266 0.87079591 -3.2068231
-0.82855302 0.87658691 -3.2135887
-0.84187579 0.87424213 -3.2070918
-0.86329973 0.87780225 -3.2126
-0.86889625 0.87014794 -3.2096922
-0.75357926 0.86374652 -3.2085471
-0.77184194 0.8696835 -3.2067344
-0.84861726 0.8687011 -3.2082655
-0.75246948 0.85235369 -3.2080746
-0.77280575 0.85368335 -3.2108607
-0.85583925 0.85585463 -3.2085931
-0.74308228 0.82827628 -3.207577
-0.78113419 0.82499659 -3.2057431
-0.83793867 0.81624568 -3.2006857
-0.85366929 0.93814778 -3.2255671
-0.84937197 0.91915697 -3.2275853
-0.86298668 0.91815221 -3.2231531
-0.7530598 0.90851414 -3.2253759
-0.84048235 0.89719868 -3.2243254
-0.74841082 0.88813031 -3.2251394
-0.82255936 0.89584446 -3.2241013
-0.74829555 0.87649 -3.2250543
-0.74537814 0.86531663 -3.2193296
-0.86439842 0.84970444 -3.2105315
-0.76363242 0.8321048 -3.2094393
-0.76865089 0.83309758 -3.2116084
-0.78360081 0.83562964 -3.2140384
-0.85156292 0.83628011 -3.2100024
-0.85990065 0.82926106 -3.21137
-0.86572593 0.81741798 -3.2115414
-0.82538342 0.9378652 -3.2398076
-0.86158174 0.94130045 -3.2405307
-0.7437616 0.86774653 -3.2249026
-0.84144092 0.87234509 -3.2268929
-0.85015786 0.85942841 -3.22738
-0.74417663 0.85608196 -3.2257955
-0.75914937 0.8533659 -3.2288678
-0.76228374 0.85432446 -3.22612
-0.77929115 0.85531271 -3.2263656
-0.79764825 0.84953803 -3.2246001
-0.83698219 0.85207838 -3.2277246
-0.85715967 0.85338032 -3.229321
-0.75817907 0.83553517 -3.2274723
-0.8127088 0.83069795 -3.2269459
-0.83908892 0.92015511 -3.2415593
-0.85730541 0.92172599 -3.2419395
-0.83647984 0.86218452 -3.2336392
-0.85389906 0.86266661 -3.2332814
-0.81504196 0.84285921 -3.2359371
-0.84588152 0.83985394 -3.2287889
-0.8495664 0.84351981 -3.2353158
-0.76028574 0.83685851 -3.2294838
-0.83252323 0.83181179 -3.2285562
-0.85266191 0.832937 -3.2301598
-0.85999668 0.82102191 -3.2304862
-0.75613087 0.81627274 -3.2302313
-0.83575046 0.88515389 -3.2501161
-0.83060718 0.88133049 -3.2443538
-0.84875286 0.88257694 -3.2447577
-0.75004786 0.85717463 -3.2458034
-0.75683039 0.85775506 -3.244153
-0.82980591 0.85572261 -3.2463517
-0.84447652 0.8630023 -3.2461665
-0.74532956 0.83701515 -3.2456138
-0.75192058 0.84061933 -3.2473595
-0.8402003 0.8434276 -3.2475753
-0.8452338 0.82437313 -3.2373505
-0.83145308 0.86616296 -3.2521343
-0.8444984 0.84753102 -3.2539625
-0.85426742 0.82462573 -3.2494311
-0.75137687 0.86118525 -3.2621861
-0.83451885 0.84700137 -3.266362
