# .PCD v0.7 - Point Cloud Data file format
VERSION 0.7
FIELDS x y z
SIZE 4 4 4
TYPE F F F
COUNT 1 1 1
WIDTH 398
HEIGHT 1
VIEWPOINT 0 0 0 1 0 0 0
POINTS 398
DATA ascii
-0.068203427 -0.093220219 -0.87282121
-0.094395623 -0.089726262 -0.87532568
-0.061172273 -0.099843726 -0.87595212
-0.064524837 -0.10217861 -0.87675601
-0.071067899 -0.10268771 -0.87287426
-0.089959808 -0.096965484 -0.87474567
-0.097136319 -0.10090621 -0.87411046
-0.099502072 -0.097912751 -0.87253082
-0.1065654 -0.0983027 -0.87574685
-0.096357614 -0.10643025 -0.87322193
-0.04368059 -0.091986373 -0.88740617
-0.058532655 -0.091724686 -0.88466102
-0.067333251 -0.090406582 -0.88592243
-0.073106393 -0.091100022 -0.88478845
-0.080551013 -0.091277823 -0.88293874
-0.087248668 -0.09163247 -0.8826673
-0.094460927 -0.09135367 -0.88284755
-0.1007609 -0.091096953 -0.88280982
-0.10766757 -0.091541573 -0.8814317
-0.11418835 -0.090546474 -0.88393998
-0.11924755 -0.090283081 -0.88405997
-0.052415453 -0.10030748 -0.88210416
-0.058391321 -0.099526182 -0.88271308
-0.066825211 -0.10017845 -0.87985814
-0.074930601 -0.099101178 -0.88493854
-0.080913052 -0.1003233 -0.88322467
-0.087286949 -0.10012989 -0.8826825
-0.094040938 -0.1006147 -0.88061744
-0.10070033 -0.1004065 -0.88124621
-0.10752407 -0.1005459 -0.88260245
-0.11217938 -0.1020766 -0.88389862
-0.060874768 -0.10970967 -0.88223398
-0.06966345 -0.10970186 -0.87995654
-0.080904372 -0.10618207 -0.88298845
-0.087329105 -0.10881768 -0.88268965
-0.093587391 -0.11020866 -0.88237625
-0.10124493 -0.10858128 -0.88204378
-0.10586906 -0.11079407 -0.88271958
-0.045745127 -0.091682151 -0.89135063
-0.05350465 -0.093256436 -0.89395016
-0.061378669 -0.092474639 -0.89455789
-0.066787288 -0.093341194 -0.89178103
-0.0733831 -0.093321845 -0.8924728
-0.080126747 -0.09302783 -0.89123857
-0.087013409 -0.092385083 -0.89067549
-0.093664475 -0.093705341 -0.89193988
-0.10114821 -0.093401521 -0.89110577
-0.10790676 -0.093015023 -0.89149284
-0.11425161 -0.092026919 -0.89263213
-0.12128063 -0.09298031 -0.89149714
-0.12634714 -0.090607435 -0.89304143
-0.045572042 -0.10080984 -0.89134848
-0.054112062 -0.10192488 -0.89112222
-0.060511317 -0.10230944 -0.89272833
-0.067375183 -0.10155725 -0.89243716
-0.073575251 -0.10272278 -0.89057279
-0.079866089 -0.10249114 -0.88937038
-0.087068379 -0.10161079 -0.88955933
-0.094568424 -0.10122833 -0.88940448
-0.10078789 -0.10110649 -0.88959771
-0.106562 -0.10135988 -0.89119983
-0.1146722 -0.10084656 -0.89068717
-0.11946581 -0.10194452 -0.89192235
-0.056625064 -0.10926087 -0.8883763
-0.058187403 -0.1126795 -0.89294922
-0.067617819 -0.11048684 -0.89229685
-0.074219488 -0.11100294 -0.89166343
-0.080469467 -0.11123464 -0.88923603
-0.086971298 -0.11213377 -0.88982671
-0.093993038 -0.11107275 -0.88965279
-0.10052851 -0.11072464 -0.88872278
-0.11318626 -0.11049137 -0.88993663
-0.059996359 -0.085605353 -0.90283072
-0.066035599 -0.085254595 -0.90214694
-0.071276121 -0.08851184 -0.90216941
-0.11474192 -0.085118636 -0.90168059
-0.041701961 -0.093058944 -0.89977801
-0.047369212 -0.093253493 -0.901281
-0.053624455 -0.093429059 -0.90344143
-0.059397716 -0.094889104 -0.90119338
-0.066677332 -0.094416544 -0.90172493
-0.072278433 -0.095378786 -0.89958102
-0.079909287 -0.096974581 -0.89923787
-0.091496274 -0.097832978 -0.89618856
-0.10132676 -0.093611784 -0.89842784
-0.10846511 -0.09299688 -0.89994478
-0.11448208 -0.093719505 -0.89969611
-0.12130934 -0.094358906 -0.90136379
-0.12726879 -0.093971118 -0.90134424
-0.13273491 -0.09218438 -0.90467578
-0.042912342 -0.10749757 -0.89873493
-0.046538543 -0.10366657 -0.90025699
-0.053574316 -0.1032446 -0.90167528
-0.060525529 -0.10382108 -0.90076947
-0.066605799 -0.1045287 -0.8994146
-0.072833449 -0.10446844 -0.89933121
-0.07789436 -0.1000645 -0.89781916
-0.10128447 -0.10271635 -0.89882255
-0.10823736 -0.10404804 -0.89778298
-0.114577 -0.10346163 -0.90093803
-0.12202839 -0.10362771 -0.8986237
-0.12663797 -0.10322141 -0.90276444
-0.13235891 -0.10341766 -0.9036783
-0.046669673 -0.11190225 -0.9023248
-0.054333687 -0.11254046 -0.90012389
-0.061674401 -0.11265364 -0.9011994
-0.066952445 -0.11294247 -0.89952952
-0.04001642 -0.086457312 -0.91118681
-0.046656013 -0.086900547 -0.91275769
-0.052669272 -0.086493909 -0.91211343
-0.059206463 -0.086855069 -0.91234827
-0.064220756 -0.088327914 -0.91010427
-0.11368115 -0.089136526 -0.90966105
-0.12073974 -0.085581601 -0.91166091
-0.12743279 -0.086284474 -0.91154361
-0.13461582 -0.085472524 -0.91148931
-0.034665611 -0.096094459 -0.91074294
-0.03921197 -0.094300926 -0.90981179
-0.047355331 -0.095604874 -0.91199499
-0.053193957 -0.095675312 -0.91143793
-0.059548903 -0.096821398 -0.91090697
-0.065251566 -0.096209496 -0.90953386
-0.11009812 -0.093341187 -0.90954286
-0.11581629 -0.094412357 -0.91057968
-0.12072512 -0.094384976 -0.90945339
-0.12790482 -0.095081523 -0.90892339
-0.1330339 -0.095211133 -0.91108209
-0.13970426 -0.090468556 -0.90904194
-0.0396071 -0.10542986 -0.91078174
-0.045490701 -0.10296424 -0.9101584
-0.053240929 -0.10534295 -0.91032445
-0.059701994 -0.1047494 -0.90935236
-0.066589445 -0.10506594 -0.90960515
-0.070900425 -0.10509437 -0.90783304
-0.12151814 -0.10447672 -0.90824693
-0.12827092 -0.10396402 -0.90840018
-0.13307041 -0.10254383 -0.90861821
-0.040451787 -0.11350919 -0.91131616
-0.04518912 -0.11190733 -0.91125506
-0.071624503 -0.11042305 -0.90874052
-0.057361387 -0.080083638 -0.92083126
-0.035561703 -0.087904796 -0.92118961
-0.039721083 -0.088345662 -0.92163181
-0.046398193 -0.088484325 -0.92177057
-0.052617695 -0.087694965 -0.92220867
-0.057823829 -0.087773815 -0.92072493
-0.11618173 -0.086211905 -0.92122632
-0.12084258 -0.086746126 -0.92015326
-0.12720513 -0.086776204 -0.92010427
-0.13493033 -0.087591425 -0.91897768
-0.13867134 -0.087569721 -0.92188656
-0.035232052 -0.099860437 -0.9212392
-0.040318325 -0.098025747 -0.92078626
-0.046360753 -0.097181022 -0.92155105
-0.053045373 -0.097033158 -0.92009288
-0.058539353 -0.097064897 -0.92059499
-0.11504386 -0.092156783 -0.91542596
-0.12651768 -0.096236125 -0.9182691
-0.13494231 -0.096780047 -0.91939682
-0.13851833 -0.09442012 -0.91958743
-0.035919812 -0.10547704 -0.92383665
-0.041081097 -0.10901038 -0.9218387
-0.04734515 -0.10666619 -0.91916627
-0.053061616 -0.10590485 -0.9189297
-0.060467836 -0.10537189 -0.91888964
-0.064990938 -0.10819722 -0.9163326
-0.039006732 -0.080358416 -0.93278569
-0.045967076 -0.080295473 -0.9325698
-0.05239588 -0.080394343 -0.93254852
-0.12239382 -0.080054134 -0.93048561
-0.033868238 -0.088993818 -0.93053454
-0.038762037 -0.088794097 -0.93152845
-0.045890704 -0.08816874 -0.93103039
-0.052711394 -0.089561693 -0.93090338
-0.056396805 -0.090526655 -0.9296087
-0.12171654 -0.087063201 -0.92831111
-0.12675263 -0.087799788 -0.92927086
-0.13562033 -0.088765442 -0.92918611
-0.13872601 -0.088318929 -0.92995471
-0.034353919 -0.097132221 -0.93224168
-0.03935438 -0.098209083 -0.9304235
-0.046680763 -0.097562581 -0.93020725
-0.052919749 -0.098325685 -0.92933017
-0.057430718 -0.098776981 -0.93037963
-0.13836184 -0.095597111 -0.92956603
-0.040909126 -0.10720532 -0.92819589
-0.04593429 -0.10682662 -0.92859995
-0.052631162 -0.10708873 -0.92804056
-0.059750721 -0.10759573 -0.92751616
-0.034646343 -0.082057677 -0.94092149
-0.039314371 -0.081666291 -0.94078189
-0.045961395 -0.080843851 -0.94135571
-0.052228078 -0.081043497 -0.9416756
-0.055964254 -0.085373431 -0.94579011
-0.12274262 -0.078828365 -0.94064683
-0.12699242 -0.081484646 -0.94087535
-0.13466151 -0.081293628 -0.94060713
-0.13939032 -0.080992177 -0.94034266
-0.035341904 -0.089326218 -0.93829203
-0.039549787 -0.091735482 -0.93980569
-0.046186373 -0.090014905 -0.94004351
-0.052209832 -0.090629995 -0.94061685
-0.056389086 -0.092583001 -0.93945098
-0.12294511 -0.088304505 -0.9374907
-0.12721503 -0.088901758 -0.93715459
-0.1348418 -0.090112343 -0.93918931
-0.13876078 -0.089802243 -0.93892336
-0.03535495 -0.097071543 -0.93701971
-0.040039342 -0.10146821 -0.93824428
-0.046619643 -0.099696875 -0.93879682
-0.053009029 -0.099129096 -0.9392556
-0.05691601 -0.10093188 -0.93901789
-0.034054212 -0.10695519 -0.93600714
-0.034747656 -0.076275557 -0.95298374
-0.045490727 -0.072827727 -0.9527632
-0.052218139 -0.07369861 -0.95232505
-0.033006813 -0.081502274 -0.94971502
-0.039319936 -0.081460491 -0.95096833
-0.046419911 -0.081936076 -0.95107627
-0.052259617 -0.082912065 -0.95048451
-0.05603724 -0.079069838 -0.95413142
-0.12256151 -0.078443989 -0.94946277
-0.1265167 -0.080302924 -0.9505803
-0.13392213 -0.081963167 -0.95033658
-0.1393799 -0.081481516 -0.94954145
-0.033250213 -0.089803576 -0.95257014
-0.03925664 -0.089969218 -0.94969821
-0.046558149 -0.091242984 -0.94973463
-0.052976321 -0.091248646 -0.94946641
-0.05672612 -0.094395265 -0.94914991
-0.13453707 -0.090927541 -0.94870764
-0.13893354 -0.091087691 -0.948551
-0.030444462 -0.098989032 -0.95107329
-0.039002329 -0.10052092 -0.94816089
-0.04587923 -0.099777207 -0.94788682
-0.052574445 -0.10132009 -0.94844228
-0.05708006 -0.10190622 -0.94755638
-0.034756102 -0.075861335 -0.96170294
-0.03899435 -0.076791413 -0.96176368
-0.04486917 -0.074414819 -0.9619413
-0.053002208 -0.074582502 -0.96139389
-0.056343757 -0.074084073 -0.96262485
-0.12149958 -0.073945567 -0.95877612
-0.12785882 -0.073677577 -0.96038789
-0.13339785 -0.073919557 -0.96061927
-0.034548324 -0.085152149 -0.95983309
-0.03981299 -0.085504383 -0.95981216
-0.045337755 -0.083850592 -0.96125853
-0.053333811 -0.08344008 -0.95990658
-0.056577388 -0.083890781 -0.96187115
-0.12870626 -0.083019398 -0.96060878
-0.13335435 -0.083207488 -0.95936406
-0.13844302 -0.083331168 -0.95817137
-0.032981567 -0.090186864 -0.96130699
-0.039353758 -0.093006328 -0.95880872
-0.04554525 -0.094426617 -0.95977736
-0.052882291 -0.092645705 -0.95834965
-0.056853425 -0.092661098 -0.95946258
-0.039877918 -0.10111032 -0.95739102
-0.046001323 -0.10147218 -0.9569276
-0.052596521 -0.10171592 -0.95730758
-0.032886453 -0.070253357 -0.97027826
-0.032553796 -0.071802497 -0.97120565
-0.039822828 -0.076415062 -0.97015959
-0.045113798 -0.075365767 -0.97118473
-0.052151531 -0.075819224 -0.97060323
-0.058136761 -0.076086745 -0.97156596
-0.12025313 -0.073751241 -0.97192276
-0.12642682 -0.075108171 -0.97006834
-0.13325344 -0.074804172 -0.96931362
-0.13777362 -0.074615702 -0.96799731
-0.03517741 -0.083491772 -0.97062147
-0.039818201 -0.084916413 -0.96957535
-0.04590901 -0.085803434 -0.97050202
-0.051608343 -0.085614629 -0.97007036
-0.057932653 -0.085119784 -0.97012675
-0.12750015 -0.084902287 -0.96899682
-0.13299717 -0.083908565 -0.96830618
-0.13762981 -0.084271841 -0.96779066
-0.039443135 -0.094566196 -0.97009808
-0.045208465 -0.095382243 -0.96828246
-0.052786522 -0.094362371 -0.966896
-0.058530439 -0.094632879 -0.96845585
-0.064373821 -0.091917142 -0.97178113
-0.04086053 -0.068551436 -0.97888339
-0.045839287 -0.067981161 -0.98187333
-0.052187089 -0.067784756 -0.98256338
-0.060152661 -0.068395473 -0.98109937
-0.064663656 -0.067258276 -0.98228836
-0.039637882 -0.078529015 -0.9778415
-0.045897093 -0.077031106 -0.97953528
-0.052002653 -0.076883659 -0.97986662
-0.058472306 -0.076651514 -0.98005205
-0.063975975 -0.076875433 -0.98083121
-0.11431041 -0.074197218 -0.9813183
-0.12044911 -0.076916218 -0.97967428
-0.12666355 -0.076229781 -0.97866583
-0.13272054 -0.076548398 -0.97737759
-0.039855629 -0.087661363 -0.97794908
-0.04553597 -0.085839838 -0.97896785
-0.051937848 -0.086349539 -0.97940105
-0.059683852 -0.086223431 -0.9781512
-0.0654779 -0.087146312 -0.98106736
-0.11624926 -0.082790092 -0.97720182
-0.12069451 -0.085452981 -0.97878647
-0.12642585 -0.085665397 -0.97728151
-0.13267861 -0.086516246 -0.97780627
-0.041277349 -0.096414626 -0.97817343
-0.046165749 -0.094611898 -0.97622144
-0.051419057 -0.095155165 -0.97746593
-0.059347317 -0.095572695 -0.9778353
-0.047357194 -0.070731394 -0.9887141
-0.052142516 -0.069708057 -0.99012154
-0.05904346 -0.068296678 -0.99065405
-0.065523282 -0.068674885 -0.99022317
-0.072072916 -0.068878204 -0.99112457
-0.077987827 -0.068495475 -0.99351478
-0.085688621 -0.069439389 -0.99336994
-0.092525594 -0.066646688 -0.99347419
-0.099173062 -0.068744257 -0.99293959
-0.10593307 -0.068645023 -0.99122226
-0.11277852 -0.068619147 -0.98964751
-0.1192174 -0.069195956 -0.98975056
-0.12578124 -0.068800494 -0.98920399
-0.13012774 -0.068650596 -0.9867565
-0.046315424 -0.07945814 -0.98754746
-0.052238747 -0.07976675 -0.98931706
-0.058670931 -0.078862891 -0.98993868
-0.06594532 -0.078428201 -0.98971689
-0.070871606 -0.077737868 -0.98969764
-0.077715233 -0.076252416 -0.99238986
-0.099762246 -0.076556318 -0.99281114
-0.10709533 -0.077448718 -0.99069476
-0.11288568 -0.077649169 -0.98910666
-0.11965803 -0.078264304 -0.98831326
-0.12571701 -0.078080639 -0.9871971
-0.13155712 -0.077410862 -0.98454279
-0.046942547 -0.087969467 -0.98628169
-0.052512843 -0.087889001 -0.98825836
-0.059041496 -0.088210583 -0.98827869
-0.065359443 -0.087933525 -0.98771119
-0.070103057 -0.086014837 -0.98922163
-0.05304651 -0.067486331 -0.99782723
-0.058310974 -0.069555327 -0.99920499
-0.065404557 -0.06961114 -0.99972981
-0.072789252 -0.069981046 -0.99959695
-0.079131454 -0.070394434 -0.99957865
-0.085395575 -0.070319377 -1.0002325
-0.092296883 -0.069699779 -1.0001065
-0.099471666 -0.070295416 -0.99963742
-0.10589141 -0.069965817 -0.99961287
-0.11273637 -0.069399819 -0.99824554
-0.11861359 -0.071184151 -0.99817008
-0.053023063 -0.078462407 -0.99799186
-0.05842483 -0.078082755 -0.99900591
-0.065067112 -0.080181628 -0.99854714
-0.072417222 -0.079121277 -0.99805778
-0.079270147 -0.07891202 -0.99957681
-0.085520834 -0.079792917 -0.99810648
-0.092364423 -0.079149961 -0.99821961
-0.099652663 -0.079242334 -0.99853069
-0.10608753 -0.079350352 -0.99779093
-0.11261959 -0.078564644 -0.99840629
-0.11880863 -0.079581656 -0.99638951
-0.12406272 -0.080148101 -0.99362874
-0.047510751 -0.089027122 -0.99852657
-0.052756861 -0.089898355 -0.99579901
-0.05916293 -0.088288642 -0.99799973
-0.065388374 -0.089148402 -0.99692494
-0.072660416 -0.089236125 -0.99690741
-0.086454816 -0.087415479 -0.99870706
-0.067829035 -0.063827083 -1.0073901
-0.072882369 -0.063181616 -1.0075051
-0.07879021 -0.063250653 -1.0081637
-0.086686291 -0.062778957 -1.0094508
-0.098767705 -0.064545959 -1.009576
-0.065880589 -0.073100582 -1.0068361
-0.072978944 -0.072831325 -1.0067571
-0.080479801 -0.073071338 -1.007781
-0.086178072 -0.072124586 -1.0066954
-0.092977993 -0.070389286 -1.0072602
-0.098461673 -0.071537748 -1.0072638
-0.10522204 -0.070353799 -1.005985
-0.11201088 -0.073601022 -1.005931
-0.065734923 -0.083411343 -1.0042645
-0.072866984 -0.082209267 -1.0068276
-0.080179654 -0.081866845 -1.0069144
-0.086030155 -0.081432611 -1.0066751
-0.092347071 -0.079451919 -1.005573
-0.098635621 -0.080810659 -1.0048095
-0.10544232 -0.078751802 -1.0044136
-0.11307147 -0.081628799 -1.0047004
-0.11841255 -0.081038594 -1.0036867
-0.078042068 -0.076308392 -1.0142875
-0.081070393 -0.084417909 -1.0132926
-0.086629152 -0.078187622 -1.0169159
-0.094816796 -0.077499203 -1.0129613
-0.10085113 -0.081327125 -1.0146139
