# .PCD v0.7 - Point Cloud Data file format
VERSION 0.7
FIELDS x y z
SIZE 4 4 4
TYPE F F F
COUNT 1 1 1
WIDTH 1361
HEIGHT 1
VIEWPOINT 0 0 0 1 0 0 0
POINTS 1361
DATA ascii
-0.65950745 -0.11139275 0.30100301
-0.69832331 -0.11302534 0.29450655
-0.70996279 -0.11370383 0.29648119
-0.72160214 -0.11438233 0.29845586
-0.19077741 -0.12160531 0.29174253
-0.21357599 -0.12161258 0.28818148
-0.21619499 -0.12623219 0.28766245
-0.22442366 -0.12375294 0.29350662
-0.57683969 -0.12358745 0.29977065
-0.59122366 -0.12457077 0.29948646
-0.60359871 -0.11680102 0.30102953
-0.62580198 -0.1189011 0.302791
-0.62873328 -0.11874263 0.29931295
-0.64260882 -0.11855163 0.29783428
-0.67882597 -0.12128738 0.30171812
-0.68436748 -0.11919297 0.29559991
-0.73324162 -0.11506082 0.30043054
-0.18757838 -0.1295719 0.28900734
-0.2159602 -0.13272387 0.29267865
-0.22735737 -0.13250695 0.29574487
-0.24097764 -0.13485011 0.29625088
-0.58579081 -0.13018462 0.29682559
-0.59527838 -0.13293017 0.30417758
-0.60033864 -0.12881452 0.29769108
-0.60746455 -0.13212584 0.29762697
-0.61645728 -0.12779166 0.29872677
-0.62252676 -0.13162519 0.29896176
-0.62833863 -0.12815905 0.30076915
-0.6383456 -0.13289373 0.29815495
-0.64021999 -0.12852642 0.30281153
-0.65210128 -0.12889381 0.30485395
-0.70250797 -0.13042176 0.30000272
-0.72806102 -0.13039264 0.30122766
-0.21684042 -0.14394188 0.29323155
-0.22343522 -0.13966262 0.29656887
-0.58192384 -0.13884166 0.29985857
-0.59691852 -0.13509136 0.30122671
-0.69556624 -0.13917479 0.30564201
-0.72415137 -0.13545254 0.29830661
-0.73463458 -0.14197302 0.3034237
-0.2012185 -0.15216699 0.29837373
-0.55181706 -0.14587478 0.30014062
-0.57038629 -0.15008169 0.30486888
-0.57477468 -0.14759904 0.30370259
-0.58388108 -0.14816026 0.30672523
-0.59145516 -0.14497557 0.30080354
-0.59573579 -0.1440661 0.30316845
-0.60276192 -0.14506865 0.30083221
-0.60870385 -0.14552017 0.30257556
-0.61855102 -0.15047942 0.30385146
-0.62066621 -0.14589003 0.30463192
-0.6326285 -0.14625992 0.30668822
-0.19333465 -0.16519339 0.29589239
-0.22921444 -0.16372478 0.30255747
-0.25178879 -0.15814707 0.29583684
-0.5473159 -0.15366077 0.29919028
-0.56605756 -0.16100296 0.30158046
-0.58252054 -0.16083519 0.30484879
-0.58883435 -0.1525995 0.30551195
-0.60080618 -0.15671809 0.3057127
-0.22499923 -0.16636598 0.29758307
-0.23881404 -0.17369971 0.29873317
-0.54871476 -0.16272601 0.30765519
-0.56299382 -0.16396883 0.30820456
-0.57010168 -0.1661965 0.30589065
-0.58879572 -0.16311443 0.30439001
-0.59562874 -0.16388629 0.30709311
-0.24077773 -0.17602141 0.29961225
-0.25163829 -0.17612796 0.30254275
-0.73653048 0.011440594 0.27584019
-0.73189288 -0.0024520606 0.2711693
-0.77728462 -0.010155056 0.27202412
-0.74702299 -0.025108028 0.27412844
-0.75274163 -0.03581503 0.27976456
-0.66993189 -0.042095821 0.27994853
-0.73889196 -0.042493589 0.28412011
-0.67405993 -0.060187116 0.2862497
-0.68957484 -0.060757317 0.28590161
-0.72130179 -0.06193139 0.28522336
-0.68160158 -0.073260583 0.2802054
-0.16731368 -0.084273621 0.27409816
-0.20352215 -0.089753747 0.27322969
-0.62669086 -0.083635777 0.28471285
-0.72452855 -0.080868259 0.28937861
-0.20152456 -0.097191676 0.27818456
-0.21356893 -0.097564101 0.28025496
-0.64303225 -0.091566145 0.28577751
-0.6744929 -0.0901637 0.28385442
-0.69778287 -0.090883836 0.28785798
-0.7057308 -0.096503153 0.29094321
-0.17926475 -0.10199277 0.27870387
-0.20159566 -0.10251674 0.27812967
-0.21555804 -0.1087569 0.28215906
-0.63147837 -0.098872177 0.28740743
-0.64291257 -0.1022764 0.2871227
-0.65436238 -0.10034069 0.28588483
-0.66720432 -0.099480912 0.28327909
-0.67935538 -0.099060155 0.28419045
-0.68477255 -0.10015014 0.28393042
-0.69304699 -0.10470434 0.28916427
-0.74000388 -0.098906398 0.28720844
-0.1862819 -0.11450151 0.28462076
-0.20137636 -0.11867155 0.28041905
-0.2214946 -0.11291099 0.282132
-0.59678471 -0.11128448 0.29207537
-0.62536103 -0.11361927 0.28457505
-0.63568103 -0.1151862 0.28879154
-0.64012617 -0.10963293 0.28463322
-0.65176553 -0.11031141 0.28660786
-0.66458869 -0.11287256 0.28657645
-0.66726273 -0.10726368 0.28745037
-0.67504448 -0.11166838 0.29055721
-0.68668389 -0.11234686 0.29253188
-0.72590023 -0.11481018 0.29065049
-0.19706038 -0.12783495 0.28415051
-0.20643556 -0.12610731 0.2793147
-0.21191253 -0.12077159 0.28592253
-0.22622035 -0.12531939 0.28054971
-0.59780347 -0.12152574 0.2856864
-0.6124686 -0.1225187 0.28535917
-0.65996087 -0.12462165 0.29119295
-0.69568288 -0.11690482 0.29062682
-0.71210814 -0.12420496 0.29434356
-0.71936667 -0.11782594 0.29294121
-0.60436314 -0.130192 0.28889042
-0.61608243 -0.13097808 0.29064465
-0.63049066 -0.12903345 0.28853115
-0.64392376 -0.12700677 0.29006374
-0.6556406 -0.12768975 0.29205155
-0.66735744 -0.12837276 0.29403937
-0.72187221 -0.12728682 0.2885589
-0.21557274 -0.14464571 0.28299201
-0.56069869 -0.14243466 0.28712949
-0.58123672 -0.143996 0.28912514
-0.60135615 -0.13991556 0.29192084
-0.6406765 -0.141845 0.29293501
-0.703255 -0.1392366 0.29345542
-0.21861729 -0.1545018 0.28320998
-0.22650501 -0.15400185 0.28848085
-0.56649888 -0.15494628 0.28861976
-0.57730931 -0.14688243 0.29173219
-0.59164572 -0.14803854 0.29260671
-0.59695971 -0.14818051 0.29082969
-0.60281777 -0.14618893 0.29111066
-0.60896313 -0.14864734 0.29200262
-0.62554008 -0.14733358 0.29017851
-0.20288603 -0.16361955 0.28979459
-0.21629544 -0.16280892 0.28863668
-0.22737633 -0.15672401 0.29169521
-0.22918281 -0.16164975 0.29137832
-0.56368744 -0.15993562 0.2924782
-0.56983829 -0.16088811 0.29481462
-0.57535744 -0.1610589 0.29485297
-0.58919978 -0.15881692 0.29516622
-0.59720111 -0.15855968 0.29057539
-0.60322851 -0.15885356 0.29182452
-0.60916346 -0.15892954 0.29263172
-0.62058073 -0.15750268 0.29625347
-0.63308817 -0.15966931 0.29674435
-0.73066747 -0.15426199 0.29219839
-0.21069466 -0.1718193 0.29256424
-0.22548708 -0.16931611 0.29238629
-0.23084785 -0.16691178 0.28997254
-0.2431455 -0.16729203 0.29208648
-0.56587815 -0.16366017 0.29695833
-0.7259376 0.0081632193 0.26526356
-0.75585341 -0.0016872808 0.2628803
-0.77744424 -0.0039957985 0.2697255
-0.77268267 -0.018259656 0.26492983
-0.75971603 -0.024834208 0.27048004
-0.77257591 -0.024555001 0.26677561
-0.74237728 -0.039315339 0.26895016
-0.72688931 -0.047070831 0.26806101
-0.74801159 -0.049984682 0.27500057
-0.69634312 -0.057625089 0.27170643
-0.72816843 -0.058753643 0.27082187
-0.1561459 -0.082491308 0.26953542
-0.17867796 -0.081901729 0.26368013
-0.18746309 -0.082851335 0.26315147
-0.19933878 -0.083543584 0.26516619
-0.68499202 -0.075395487 0.27840897
-0.72889692 -0.07423076 0.27699652
-0.74104971 -0.077180654 0.2773048
-0.19970746 -0.085738927 0.27033255
-0.66322941 -0.083348095 0.27758464
-0.19042788 -0.10073441 0.27356693
-0.62212855 -0.096859008 0.27877727
-0.63230473 -0.097230256 0.27959266
-0.65583009 -0.098145202 0.28189155
-0.72354496 -0.091449484 0.2742458
-0.19050463 -0.1068211 0.26725313
-0.20233284 -0.10795961 0.26966006
-0.20800795 -0.10738036 0.26615253
-0.21403171 -0.11106543 0.27024293
-0.22598933 -0.11023664 0.27447397
-0.62358105 -0.10512182 0.27879748
-0.63851416 -0.10599762 0.27839068
-0.64160269 -0.098673731 0.28055033
-0.65563262 -0.099402227 0.27908856
-0.67494035 -0.10321733 0.27417439
-0.68658537 -0.10357739 0.27617615
-0.72931343 -0.10274854 0.27495861
-0.18030399 -0.11447148 0.26941213
-0.20237431 -0.11541286 0.26847297
-0.59615672 -0.11046339 0.27853549
-0.64303982 -0.1125671 0.27994442
-0.6497103 -0.11382379 0.27983263
-0.65440619 -0.11366116 0.28225738
-0.68467337 -0.10873274 0.27724463
-0.70292109 -0.11280166 0.27630091
-0.73524243 -0.11317027 0.28241277
-0.19187582 -0.13100609 0.26927447
-0.20268455 -0.12837858 0.27310222
-0.20906083 -0.12479843 0.2710883
-0.22097543 -0.12580337 0.2716727
-0.23289004 -0.12680829 0.27225706
-0.60877341 -0.12495778 0.28410038
-0.62076926 -0.12692791 0.27860111
-0.66771311 -0.12040409 0.27770597
-0.67452282 -0.12148748 0.28231058
-0.6869539 -0.12525135 0.28263488
-0.70288032 -0.12149148 0.28375122
-0.71460259 -0.12185393 0.28576627
-0.73372591 -0.12061869 0.28141168
-0.20405559 -0.13515753 0.27394268
-0.2085306 -0.13732019 0.27133125
-0.6079821 -0.13684918 0.27802402
-0.6221236 -0.12907696 0.2840533
-0.64061087 -0.13097279 0.28037629
-0.66019791 -0.12843615 0.27689815
-0.67127979 -0.12965477 0.27906254
-0.71083283 -0.1291703 0.28531522
-0.73849785 -0.13571925 0.28005207
-0.19256791 -0.14571303 0.27821299
-0.20327373 -0.14799431 0.27614009
-0.2101268 -0.14245032 0.27607882
-0.61037737 -0.14131787 0.28588775
-0.61314321 -0.14593306 0.28006473
-0.62221175 -0.14231606 0.28646821
-0.62944037 -0.14287004 0.28089315
-0.63619125 -0.14429948 0.28208062
-0.64419574 -0.13999705 0.28010097
-0.65591252 -0.14068006 0.28208876
-0.66041434 -0.13785058 0.28138292
-0.66762936 -0.14136304 0.28407657
-0.6793462 -0.14204603 0.28606439
-0.18467785 -0.15863807 0.27567366
-0.20556286 -0.155301 0.27949446
-0.20994599 -0.15244612 0.27565059
-0.21500681 -0.15366408 0.27395287
-0.23506337 -0.14992908 0.27834594
-0.55380547 -0.15065758 0.28557968
-0.59686965 -0.15424603 0.28458568
-0.6303001 -0.14828554 0.2882705
-0.64199632 -0.15170197 0.28230724
-0.6645816 -0.14613464 0.28215486
-0.70392656 -0.14774466 0.28703082
-0.71762091 -0.15087494 0.28553754
-0.22729406 -0.16707002 0.27869534
-0.23613077 -0.16689348 0.28340501
-0.57668275 -0.15780737 0.28142467
-0.62447745 -0.15634528 0.28163368
-0.63627321 -0.15703289 0.28363487
-0.22869726 -0.17246602 0.27961454
-0.73477298 0.00057616457 0.25615159
-0.71840793 -0.013623875 0.25568312
-0.75115448 -0.01576335 0.25814778
-0.72261763 -0.030237369 0.26182756
-0.7351616 -0.033989474 0.25691986
-0.75567913 -0.032726426 0.26444742
-0.7550391 -0.039137203 0.26526693
-0.72463286 -0.051668193 0.26498097
-0.75094903 -0.046896085 0.2596834
-0.74966276 -0.05943704 0.26840046
-0.17547853 -0.074243039 0.25278753
-0.18989408 -0.079562739 0.25340506
-0.70545107 -0.079017729 0.26728138
-0.72351903 -0.073604532 0.26322037
-0.17945153 -0.094713271 0.25408679
-0.18864305 -0.092346177 0.26043576
-0.682046 -0.086227983 0.27058929
-0.72495478 -0.085115507 0.26858529
-0.16912939 -0.0958369 0.25892574
-0.21147412 -0.099958107 0.25780994
-0.71005195 -0.096039459 0.27238241
-0.59816939 -0.10653089 0.26368535
-0.64518678 -0.10290961 0.26439598
-0.66040915 -0.10378979 0.26393139
-0.71889669 -0.10534564 0.26826206
-0.20080517 -0.11968568 0.2625185
-0.2126347 -0.11761157 0.26310328
-0.63692403 -0.11283326 0.27398935
-0.64410788 -0.1105143 0.27055365
-0.65092158 -0.11366003 0.27248204
-0.6558705 -0.11097178 0.27170309
-0.67654145 -0.11344346 0.27058843
-0.6849665 -0.1126695 0.27421767
-0.68703282 -0.11663102 0.26649615
-0.72196764 -0.11771122 0.27250144
-0.21432075 -0.13009132 0.26337901
-0.5849492 -0.12305561 0.26975933
-0.61909461 -0.11945231 0.27146238
-0.62906384 -0.12595312 0.27047598
-0.63525516 -0.12397204 0.27279383
-0.64414674 -0.12623741 0.27197444
-0.64913869 -0.12143397 0.27058637
-0.66522145 -0.12489915 0.27246034
-0.68005747 -0.12347667 0.26969787
-0.71186757 -0.12557271 0.26876211
-0.72307742 -0.12290379 0.27416107
-0.72939241 -0.12348972 0.2752032
-0.74525768 -0.11843137 0.27650499
-0.19049622 -0.13705702 0.26856151
-0.20315799 -0.13880929 0.26483452
-0.21344413 -0.13297659 0.26800498
-0.22297241 -0.13528468 0.26457757
-0.59732848 -0.13726507 0.2721498
-0.64835602 -0.12797558 0.27574098
-0.6821779 -0.13260217 0.27372274
-0.69160825 -0.13426942 0.27199176
-0.20390165 -0.14578213 0.26414666
-0.21514368 -0.14757629 0.2687397
-0.58808118 -0.14091524 0.2757352
-0.60430765 -0.13997054 0.27504638
-0.60869306 -0.14056186 0.27547276
-0.61617738 -0.14023656 0.27262723
-0.62076205 -0.13863106 0.27612537
-0.62964374 -0.13860616 0.27171111
-0.63559067 -0.14318392 0.27341592
-0.64139897 -0.13959762 0.27228767
-0.64672244 -0.1422385 0.27539024
-0.65315425 -0.14058912 0.27286422
-0.66490942 -0.14158061 0.27344078
-0.66672534 -0.14358303 0.27398598
-0.67613637 -0.14465553 0.27257037
-0.68646902 -0.14553481 0.27224001
-0.68782187 -0.14085972 0.2736659
-0.70017505 -0.14455505 0.27517048
-0.71050292 -0.13951282 0.27668723
-0.20378812 -0.15678447 0.27023914
-0.20960405 -0.15543061 0.26554817
-0.21691638 -0.15241888 0.26766089
-0.60384387 -0.15314116 0.27100167
-0.61268175 -0.15565769 0.27963251
-0.62523973 -0.14858872 0.27194965
-0.65618438 -0.15367034 0.27212599
-0.66086775 -0.15107952 0.27157292
-0.67266917 -0.15144442 0.27360156
-0.679618 -0.15503635 0.27610159
-0.68447047 -0.1518093 0.27563021
-0.20449008 -0.16200539 0.26811844
-0.21483122 -0.16438062 0.27023286
-0.77101427 0.0017901007 0.2433411
-0.73013532 -0.01331649 0.25148073
-0.77563971 -0.015150528 0.24951082
-0.77610856 -0.021333657 0.25139996
-0.75861657 -0.029637821 0.24913025
-0.75854778 -0.035937555 0.24999477
-0.7287876 -0.050466146 0.25244296
-0.7412169 -0.0503444 0.24860194
-0.76315951 -0.046787385 0.25533846
-0.10354801 -0.080964059 0.24302444
-0.15799575 -0.078483097 0.24379951
-0.177976 -0.084054425 0.24422292
-0.64131957 -0.084658593 0.25833902
-0.65637761 -0.085390173 0.25778806
-0.71886963 -0.088455409 0.25561887
-0.72745204 -0.087720752 0.2594173
-0.75432777 -0.082626179 0.25979444
-0.76809788 -0.082531318 0.25716084
-0.17933433 -0.10511222 0.25254759
-0.20368436 -0.098417237 0.24828376
-0.71934104 -0.099204808 0.25786874
-0.73282212 -0.099548891 0.25968647
-0.17016204 -0.10823618 0.24969313
-0.19096377 -0.10978112 0.25019476
-0.20106503 -0.10612544 0.25254825
-0.66335219 -0.10696352 0.25769383
-0.67503715 -0.10741797 0.25883567
-0.72346795 -0.10741208 0.26191235
-0.18057129 -0.11997577 0.25676706
-0.20423397 -0.11559343 0.25349316
-0.57868433 -0.113141 0.26265708
-0.67538786 -0.11627097 0.26449436
-0.72920722 -0.11359359 0.25931126
-0.088771142 -0.13390349 0.25230819
-0.19213293 -0.12480882 0.2513974
-0.19330469 -0.1311712 0.25505239
-0.20064433 -0.13147365 0.25161779
-0.64892203 -0.12454772 0.26097149
-0.66030443 -0.12882489 0.26420102
-0.66767353 -0.12425584 0.26266411
-0.67665195 -0.1244076 0.26301023
-0.68516046 -0.12518886 0.26450494
-0.69119883 -0.12517078 0.264963
-0.7029615 -0.12562825 0.26611242
-0.7086395 -0.12828974 0.26112676
-0.19291867 -0.1415289 0.25633213
-0.61460805 -0.1337828 0.26412722
-0.62947798 -0.13486052 0.26361704
-0.64471877 -0.13281959 0.26393145
-0.6547966 -0.13886282 0.26270545
-0.66816354 -0.1335445 0.26796159
-0.6754415 -0.13822059 0.26215109
-0.71824789 -0.13626426 0.2657735
-0.095660262 -0.15271965 0.25426885
-0.19265965 -0.14398794 0.25955358
-0.19379172 -0.14879745 0.26037318
-0.20200419 -0.14648922 0.25583193
-0.62230432 -0.14132352 0.26470646
-0.6365549 -0.14042801 0.26432669
-0.63996238 -0.14091592 0.26528037
-0.64839679 -0.14088856 0.26548389
-0.66616279 -0.13995691 0.2650184
-0.67208052 -0.14180967 0.26779824
-0.68392235 -0.14227024 0.26895544
-0.69047707 -0.14477742 0.26594582
-0.7192328 -0.14096919 0.26168618
-0.089907244 -0.15478826 0.25342587
-0.21503027 -0.15820768 0.25804728
-0.58352721 -0.15472664 0.26803473
-0.60171962 -0.15521628 0.26970124
-0.60860336 -0.15144415 0.26344594
-0.61513227 -0.15371041 0.26462597
-0.62381279 -0.15331239 0.26253515
-0.62913156 -0.15132606 0.26139167
-0.64446753 -0.15298736 0.2701382
-0.64978039 -0.1541155 0.2640475
-0.67861485 -0.14838186 0.26892582
-0.69328874 -0.14947686 0.26731154
-0.71224099 -0.14968967 0.27082822
-0.72409177 -0.15222955 0.26815915
-0.20338182 -0.16166821 0.26006159
-0.21644397 -0.16747874 0.26068854
-0.7408796 -0.030869931 0.24211261
-0.77087808 -0.029414389 0.24471515
-0.76611656 -0.043678254 0.23991948
-0.72578979 -0.051881529 0.24269393
-0.71077418 -0.062639304 0.2452431
-0.72554016 -0.063107818 0.24342756
-0.73705792 -0.057991587 0.24395013
-0.11962596 -0.078437969 0.23234917
-0.146662 -0.076708183 0.24022767
-0.16936372 -0.076177523 0.23250069
-0.17356128 -0.079388753 0.23476423
-0.73600745 -0.070095852 0.25057256
-0.1686181 -0.088772632 0.23486766
-0.17593507 -0.087561615 0.24291101
-0.18532392 -0.079846233 0.23591368
-0.71501148 -0.080786534 0.25148866
-0.73157144 -0.081603028 0.24740511
-0.74100804 -0.082046226 0.24962747
-0.15912142 -0.089765921 0.23942254
-0.18101685 -0.094867423 0.2411401
-0.19900972 -0.09235841 0.23968071
-0.10106671 -0.10377675 0.23603041
-0.16994646 -0.10441713 0.24251771
-0.19832377 -0.097561494 0.24202487
-0.76318848 -0.096760333 0.25077379
-0.096879542 -0.11361407 0.23763758
-0.1319617 -0.11535577 0.23841484
-0.18022507 -0.1075248 0.24449344
-0.18868141 -0.11307868 0.24351297
-0.19418861 -0.11464114 0.24005884
-0.19988985 -0.10987646 0.24497047
-0.72909117 -0.10666331 0.25594455
-0.17119467 -0.12063546 0.24046052
-0.1816638 -0.12272214 0.24592896
-0.20152469 -0.11953485 0.24260437
-0.68687463 -0.12032181 0.25540012
-0.71449602 -0.11386764 0.25107455
-0.72814524 -0.11385189 0.2544733
-0.10481895 -0.12904011 0.24273768
-0.1058702 -0.12908325 0.2409974
-0.18266632 -0.13118863 0.24878362
-0.19514219 -0.1319934 0.24479425
-0.65115786 -0.1237927 0.25702283
-0.71101767 -0.12773743 0.25305051
-0.089910835 -0.13690604 0.24807298
-0.10079106 -0.14153886 0.24491021
-0.18238251 -0.13942888 0.25082865
-0.60933137 -0.13448662 0.25345367
-0.63615066 -0.13177253 0.24962234
-0.64462137 -0.13728048 0.2533758
-0.6513086 -0.13285822 0.24905255
-0.67203748 -0.13792953 0.25896335
-0.67406154 -0.13662124 0.25249422
-0.69123924 -0.13799736 0.25477451
-0.69912523 -0.1300447 0.25881788
-0.090468802 -0.1455632 0.24357389
-0.17666717 -0.14821103 0.24289732
-0.61012167 -0.14811328 0.25679207
-0.64290375 -0.14289527 0.25581673
-0.65556067 -0.14318152 0.25754872
-0.68788522 -0.14395034 0.25571972
-0.71528238 -0.14565757 0.25931916
-0.10111881 -0.15930489 0.24972226
-0.19427364 -0.15850364 0.24997167
-0.6622473 -0.15198274 0.2576378
-0.20571473 -0.1637015 0.25401628
-0.76930648 0.021593414 0.22196485
-0.78788239 -0.00049102679 0.22589716
-0.77383506 -0.026305255 0.22929616
-0.76205671 -0.0327379 0.23472263
-0.72122926 -0.045084283 0.23723839
-0.7360689 -0.045429096 0.23536643
-0.74470222 -0.04716615 0.23343198
-0.71531832 -0.06145015 0.23607899
-0.72763485 -0.061422363 0.23222913
-0.74915642 -0.05797714 0.23960224
-0.15454793 -0.07767497 0.22450392
-0.16614085 -0.078790829 0.22686298
-0.17470734 -0.073706299 0.23047753
-0.72117388 -0.066625468 0.23514718
-0.73235899 -0.072067656 0.23921761
-0.74442625 -0.072146803 0.23483825
-0.1046471 -0.085357375 0.23065662
-0.1148341 -0.084746495 0.22923678
-0.12431582 -0.08557348 0.22953075
-0.15507032 -0.085680515 0.22820958
-0.16339754 -0.082837932 0.22560975
-0.71955752 -0.078693099 0.24215484
-0.72072947 -0.077666983 0.2366814
-0.10186438 -0.099371932 0.22740842
-0.10696438 -0.099620238 0.22865455
-0.12358896 -0.098144725 0.22624552
-0.16990165 -0.095577285 0.23433487
-0.18347178 -0.094617501 0.23031642
-0.1922338 -0.092454374 0.22985873
-0.19325683 -0.097547159 0.23548038
-0.70506859 -0.089635164 0.23469196
-0.71578407 -0.085973963 0.23884033
-0.72766018 -0.086143732 0.23448507
-0.093008675 -0.10364613 0.22683775
-0.10488437 -0.10433839 0.22885251
-0.16014755 -0.10208695 0.23024821
-0.1763916 -0.10088021 0.23303452
-0.72936964 -0.10073144 0.23961626
-0.73633099 -0.096349224 0.24441431
-0.10779822 -0.11471282 0.23280878
-0.11780538 -0.11303103 0.22818156
-0.12415185 -0.11262609 0.23016961
-0.17284538 -0.11422866 0.23713714
-0.70900875 -0.1070314 0.24045449
-0.097927019 -0.12630695 0.2326114
-0.13397643 -0.12640728 0.23085941
-0.16990411 -0.1185657 0.23036729
-0.17577368 -0.12712388 0.23438853
-0.18099862 -0.12033635 0.2349001
-0.18828973 -0.12235063 0.23285787
-0.20016541 -0.12304287 0.23487262
-0.70957077 -0.11815718 0.24041584
-0.14178628 -0.12913695 0.23910464
-0.16942444 -0.13182251 0.23148774
-0.17556636 -0.13305742 0.23868448
-0.18913639 -0.12803851 0.23357591
-0.20080115 -0.13049775 0.23468956
-0.71299732 -0.12466142 0.24628833
-0.71350706 -0.12940921 0.24146616
-0.10486019 -0.14212924 0.23234066
-0.143801 -0.14018846 0.2315492
-0.18476138 -0.1424015 0.24080017
-0.19439095 -0.14269452 0.23530634
-0.20105897 -0.14088602 0.24015312
-0.64780939 -0.13758984 0.24487035
-0.66421473 -0.13837171 0.24103355
-0.67743528 -0.14008419 0.24936074
-0.68225873 -0.13506575 0.24785334
-0.69848734 -0.13381061 0.24087705
-0.72674376 -0.13765308 0.24927935
-0.089519121 -0.15025333 0.23274033
-0.1011598 -0.15207629 0.2364089
-0.18342173 -0.15190756 0.24153692
-0.18888421 -0.14539713 0.24055149
-0.19565223 -0.15305476 0.23711647
-0.20213169 -0.14853054 0.23993041
-0.60952657 -0.14708745 0.24367772
-0.61674762 -0.14504689 0.24289528
-0.63194591 -0.14773978 0.24526955
-0.63649589 -0.14761062 0.24699384
-0.64675826 -0.14739244 0.24161315
-0.65966511 -0.14305735 0.24803948
-0.69957262 -0.14309834 0.24913783
-0.71089756 -0.1417654 0.24254262
-0.71765155 -0.14712946 0.24718469
-0.79612374 0.017130258 0.21576999
-0.80931193 0.017699895 0.21165775
-0.76460755 0.0075173378 0.21723232
-0.80101436 -4.1542575e-05 0.22185396
-0.81166065 0.0062231869 0.21430603
-0.77024245 -0.015235232 0.22466365
-0.75379497 -0.024352703 0.21631463
-0.74178684 -0.042309552 0.22055918
-0.75892138 -0.041877925 0.22233328
-0.76907349 -0.040569123 0.22450048
-0.11411862 -0.072862372 0.21414779
-0.1243082 -0.065023087 0.21195516
-0.13525915 -0.066770829 0.21642931
-0.16263923 -0.068910502 0.21356887
-0.70283884 -0.065826491 0.22219984
-0.73125821 -0.059988268 0.22862028
-0.14917353 -0.074225716 0.21757336
-0.1608585 -0.074680179 0.21871522
-0.19591339 -0.076043524 0.22214077
-0.10102225 -0.087422542 0.21690425
-0.12221964 -0.087331459 0.21726735
-0.13439143 -0.083802991 0.2231214
-0.14402179 -0.082326971 0.21862473
-0.16971497 -0.088927843 0.22276193
-0.17497918 -0.086696588 0.22051473
-0.18669601 -0.087379597 0.22250253
-0.71655798 -0.0813694 0.22760041
-0.090142898 -0.097726315 0.2175374
-0.10510363 -0.098675951 0.2207801
-0.11365799 -0.096901007 0.21729666
-0.17793287 -0.092758797 0.21925117
-0.70543426 -0.094691418 0.23032472
-0.71591878 -0.092226155 0.22993523
-0.73969615 -0.086316451 0.23007424
-0.099327363 -0.10230358 0.22064708
-0.10813487 -0.10754879 0.22496781
-0.11296111 -0.10129973 0.22472857
-0.17569192 -0.10406101 0.22564843
-0.1810704 -0.10919813 0.22465636
-0.7210868 -0.10012856 0.23361589
-0.10142499 -0.11678247 0.22609656
-0.10549293 -0.11704032 0.22245422
-0.16117367 -0.11440796 0.22107388
-0.17684813 -0.11419879 0.223158
-0.18872947 -0.11456616 0.22520038
-0.70644796 -0.11394145 0.22943734
-0.10107362 -0.12476894 0.22070861
-0.10993005 -0.12612259 0.22468515
-0.12616657 -0.1236776 0.22261417
-0.16635641 -0.12334511 0.22172672
-0.1749284 -0.12537722 0.2291995
-0.18172395 -0.12053644 0.22153395
-0.7272985 -0.11774439 0.23586339
-0.093449019 -0.13461322 0.22189677
-0.099976137 -0.13754717 0.22492698
-0.10744332 -0.13595764 0.22277521
-0.13599114 -0.13745879 0.22330397
-0.18177219 -0.13314787 0.22530675
-0.18929362 -0.13404571 0.22668211
-0.68907589 -0.13191091 0.23355561
-0.71450305 -0.12455919 0.23788054
-0.10228027 -0.14367022 0.2263512
-0.1682599 -0.14186241 0.22331856
-0.17581466 -0.14012437 0.22406194
-0.18212758 -0.13785967 0.22656554
-0.65349662 -0.13475016 0.2354866
-0.69005078 -0.14214277 0.23931128
-0.70818776 -0.13860108 0.24003117
-0.093616202 -0.15265323 0.22710817
-0.14581573 -0.15123998 0.22399376
-0.18237476 -0.15053661 0.23037745
-0.18937971 -0.15344524 0.2279579
-0.20133638 -0.15414223 0.22998641
-0.17392482 -0.16228624 0.2267417
-0.19131714 -0.15927292 0.22656007
-0.20092888 -0.1589531 0.23132746
-0.80878526 0.039095335 0.20372373
-0.77374107 0.019197827 0.20863518
-0.79240203 0.023664005 0.20427224
-0.80457109 0.0032017697 0.20637348
-0.74873775 -0.0070580579 0.21037717
-0.75990874 -0.0065587424 0.21249977
-0.7737512 -0.012035575 0.20939149
-0.76551074 -0.024011612 0.21135637
-0.73942411 -0.045571841 0.21409845
-0.77068734 -0.041631456 0.21731234
-0.72231972 -0.059905723 0.21286808
-0.73109716 -0.058265105 0.21715936
-0.73697615 -0.056868725 0.21381301
-0.74289405 -0.051855169 0.21351814
-0.12772091 -0.066875026 0.20764485
-0.1429441 -0.072460942 0.20729005
-0.74382156 -0.06263838 0.22091562
-0.10248461 -0.078218043 0.20784806
-0.11639509 -0.083281606 0.21057576
-0.12856208 -0.07965821 0.20939295
-0.1360227 -0.079416588 0.2069601
-0.15038854 -0.079049535 0.20756635
-0.15856038 -0.083067678 0.20463039
-0.72645879 -0.075738758 0.220099
-0.73729205 -0.076057658 0.21900368
-0.74802566 -0.075646907 0.21908319
-0.1083753 -0.086063579 0.20509677
-0.12790246 -0.092919424 0.20771097
-0.1375287 -0.086513132 0.20631033
-0.14921366 -0.086967587 0.20745219
-0.17258359 -0.087876499 0.20973592
-0.70936817 -0.086055361 0.22005203
-0.72244275 -0.085977726 0.21719246
-0.096878149 -0.093629465 0.21141408
-0.11011371 -0.098905489 0.20651482
-0.1166456 -0.094607256 0.20768511
-0.11853538 -0.09379293 0.20851256
-0.12529762 -0.094464317 0.20732373
-0.14817527 -0.094717488 0.21090415
-0.15204963 -0.095701955 0.21377105
-0.16132888 -0.097990885 0.21263725
-0.17006621 -0.10167816 0.21302314
-0.090498805 -0.11064617 0.20766917
-0.11443154 -0.10971254 0.20770332
-0.16520996 -0.1085377 0.21770027
-0.16811597 -0.10379766 0.20935968
-0.1736421 -0.10504191 0.21438733
-0.18132564 -0.10344144 0.21657155
-0.71333718 -0.10342747 0.22571597
-0.73496604 -0.10048612 0.22531024
-0.098818526 -0.11493949 0.21039583
-0.11537925 -0.11329076 0.21390316
-0.1507706 -0.11233444 0.21563996
-0.17596559 -0.11713881 0.21561855
-0.70084709 -0.10840464 0.22441976
-0.71110815 -0.10678532 0.22318907
-0.71489555 -0.11161119 0.2235902
-0.73023599 -0.11465577 0.22054623
-0.10147025 -0.12691553 0.21660002
-0.1062856 -0.1299852 0.21620993
-0.11835672 -0.12094792 0.21436895
-0.15831779 -0.12442148 0.21241629
-0.16888398 -0.1208491 0.21383236
-0.17730466 -0.12751739 0.21328147
-0.18056157 -0.12183403 0.21440512
-0.70855999 -0.11727332 0.21950093
-0.71798825 -0.12138094 0.22271058
-0.11206187 -0.13753235 0.21656151
-0.12818129 -0.13472909 0.21505873
-0.1770114 -0.13652581 0.22126184
-0.7017799 -0.12792519 0.22473584
-0.71741408 -0.12568049 0.22663769
-0.1014257 -0.14475949 0.21817261
-0.1056831 -0.1485664 0.21375854
-0.11185268 -0.14417931 0.215076
-0.13800587 -0.14851031 0.21574852
-0.16279082 -0.14334737 0.21652687
-0.17325994 -0.14543405 0.22199529
-0.19063015 -0.14374894 0.22107691
-0.71254557 -0.13497272 0.22519274
-0.72461724 -0.13647373 0.22543445
-0.10490142 -0.15521839 0.22194363
-0.16989821 -0.15311456 0.21488956
-0.17884299 -0.15556172 0.22182649
-0.18248351 -0.15077952 0.21669729
-0.18766642 -0.14970651 0.22079694
-0.85362703 0.055257782 0.19510049
-0.82110369 0.03987591 0.19857049
-0.83358192 0.04066924 0.1933383
-0.84896648 0.0411608 0.19035776
-0.8128686 0.020943198 0.19617726
-0.75109941 -0.0038008429 0.19510339
-0.7628268 -0.0034905355 0.19728377
-0.77210009 -0.0061452948 0.20037946
-0.78395367 -0.0056612622 0.19521256
-0.78670633 -0.011669628 0.20527303
-0.7970885 -0.0054562222 0.19857039
-0.74725187 -0.023723641 0.19730797
-0.75803339 -0.02151129 0.19769081
-0.76742893 -0.020372013 0.20317876
-0.76907432 -0.026338583 0.20417835
-0.77732056 -0.023646358 0.20626245
-0.78199762 -0.026069576 0.20002455
-0.71438104 -0.041527271 0.2016834
-0.73917449 -0.040994372 0.20723367
-0.74895698 -0.041613318 0.20144638
-0.13916512 -0.06347692 0.19482353
-0.15072769 -0.064150915 0.19678517
-0.75607467 -0.052471578 0.20566222
-0.12510121 -0.069102854 0.20051138
-0.136709 -0.069554314 0.20164569
-0.10973652 -0.082110792 0.20212263
-0.11586018 -0.077087626 0.20248619
-0.12799099 -0.079779536 0.19774787
-0.1316255 -0.084119648 0.19504155
-0.13947602 -0.077876329 0.20123488
-0.14867078 -0.079861134 0.20000334
-0.16290928 -0.081814982 0.20367187
-0.75210357 -0.076155007 0.21156737
-0.10813234 -0.091719419 0.20307863
-0.11415876 -0.085604221 0.20402662
-0.11933047 -0.090887293 0.2002382
-0.12958179 -0.0919021 0.20027605
-0.13756993 -0.091391295 0.20330241
-0.14144862 -0.088090554 0.19707848
-0.15465824 -0.086336665 0.19972852
-0.16617461 -0.087445155 0.20207199
-0.11666695 -0.09627191 0.20061299
-0.12016732 -0.10003153 0.19748496
-0.12502857 -0.094625108 0.19882956
-0.14754741 -0.098151624 0.20592636
-0.72174478 -0.089920521 0.21375382
-0.093395397 -0.11232561 0.20161027
-0.10062391 -0.10698532 0.202676
-0.12752032 -0.10786495 0.20172407
-0.15915804 -0.11266522 0.19973598
-0.16653904 -0.10449501 0.20692122
-0.71572763 -0.10179318 0.21388718
-0.7308802 -0.099836707 0.20803022
-0.11451259 -0.11668152 0.20407251
-0.12112579 -0.12061159 0.20808667
-0.17041746 -0.11442847 0.20328438
-0.72463673 -0.10992867 0.21470293
-0.10342169 -0.12516421 0.20809506
-0.10998727 -0.12856033 0.20071733
-0.11367293 -0.12713942 0.20499207
-0.1262996 -0.12429471 0.20264275
-0.15179673 -0.12465547 0.20646563
-0.15990138 -0.12519777 0.20177184
-0.17092364 -0.12695688 0.20627511
-0.17623928 -0.13021658 0.20558867
-0.7062974 -0.12134451 0.2164429
-0.72171289 -0.11740473 0.21661147
-0.73503792 -0.11753487 0.21367288
-0.096789777 -0.1324673 0.2023675
-0.11456473 -0.135911 0.20422357
-0.12037144 -0.13199943 0.2068135
-0.14185257 -0.13917401 0.20558998
-0.16143341 -0.13526374 0.205909
-0.16955945 -0.13254052 0.20587009
-0.17877765 -0.13580458 0.20407425
-0.18005271 -0.13446994 0.20415388
-0.69589299 -0.12875606 0.21925786
-0.70109731 -0.13514699 0.22157857
-0.71356362 -0.12837195 0.22028744
-0.096691228 -0.15016475 0.20730445
-0.10855535 -0.14462756 0.20566538
-0.11419369 -0.14894213 0.20843789
-0.12090834 -0.14677942 0.21073729
-0.15232171 -0.1412607 0.21105844
-0.1603567 -0.14241813 0.20664781
-0.17145121 -0.14418876 0.2111806
-0.1769651 -0.14799121 0.21064739
-0.17909443 -0.14767438 0.21332416
-0.11066622 -0.15279867 0.20573793
-0.16382346 -0.15574665 0.20729424
-0.17741728 -0.15607406 0.21119775
-0.17923185 -0.15340795 0.20899794
-0.18777776 -0.15358855 0.21490036
-0.19265196 -0.1528009 0.20910062
-0.86094469 0.042353705 0.18471558
-0.84622067 0.041476201 0.18802308
-0.82248092 0.026983045 0.18791062
-0.86624879 0.025532236 0.18972272
-0.82625186 0.021545716 0.19189043
-0.77868938 0.011721017 0.18940255
-0.80812782 0.0064450745 0.19089299
-0.79023886 -0.0084482878 0.18989739
-0.79229492 -0.019816168 0.19374241
-0.73826307 -0.035791121 0.19312742
-0.76405239 -0.037959225 0.1951724
-0.76932961 -0.040667787 0.19375871
-0.77498746 -0.034350846 0.19366249
-0.13790296 -0.056449216 0.18674368
-0.736314 -0.050182089 0.19705452
-0.70983088 -0.056061499 0.19424398
-0.72560161 -0.05660218 0.19323781
-0.7419036 -0.058306113 0.19628769
-0.77387559 -0.057904541 0.19918598
-0.139129 -0.074948408 0.18838252
-0.72303098 -0.06780345 0.19443315
-0.72914886 -0.062845998 0.19819327
-0.12010913 -0.08301115 0.19269805
-0.12514108 -0.081760563 0.19045705
-0.13176438 -0.079857238 0.18886696
-0.14321366 -0.080822922 0.18942852
-0.15466294 -0.081788607 0.18999009
-0.15996446 -0.083114922 0.19385999
-0.73349625 -0.080007322 0.20405307
-0.12814702 -0.091637261 0.19130388
-0.13653718 -0.092231378 0.18790448
-0.14048937 -0.090044238 0.19217457
-0.14983338 -0.091868304 0.18979976
-0.15656632 -0.088425316 0.1947632
-0.16109341 -0.093075797 0.19300981
-0.71302807 -0.083217867 0.19591831
-0.72573394 -0.087030336 0.19764917
-0.10915846 -0.10404044 0.1939043
-0.11419891 -0.098346099 0.19390546
-0.12075872 -0.095552921 0.19257112
-0.12588388 -0.09880054 0.19504732
-0.13756885 -0.099254996 0.19618918
-0.14149034 -0.10023576 0.19144507
-0.14918011 -0.10092597 0.19117363
-0.15339209 -0.10177986 0.18943307
-0.16365056 -0.10481829 0.1910577
-0.17788875 -0.10132089 0.19451046
-0.71875918 -0.092958495 0.2057559
-0.72757828 -0.093377978 0.20288588
-0.74598497 -0.097325236 0.20638135
-0.10960823 -0.11145795 0.19633126
-0.12120868 -0.11243637 0.19690025
-0.12606615 -0.1071924 0.19779287
-0.13195935 -0.11399948 0.18987316
-0.1409394 -0.1062065 0.19655906
-0.14819969 -0.10867891 0.19434169
-0.15945172 -0.10820358 0.19696993
-0.71725208 -0.10060555 0.20172718
-0.72987658 -0.10432686 0.20296447
-0.096887201 -0.115004 0.19748816
-0.11503716 -0.11905259 0.1982808
-0.12124266 -0.11840472 0.19361342
-0.13385455 -0.11800618 0.19210885
-0.15011118 -0.11829334 0.19327253
-0.15514521 -0.11623123 0.19459128
-0.16263492 -0.12257144 0.19824196
-0.16673814 -0.11734711 0.19695035
-0.17833106 -0.11846296 0.19930941
-0.71261746 -0.11834319 0.20049131
-0.090854719 -0.123566 0.19780092
-0.12540872 -0.12449642 0.19387174
-0.13303281 -0.13013838 0.19570494
-0.14887914 -0.12343869 0.19726856
-0.16935219 -0.13070735 0.2019157
-0.70271015 -0.12560122 0.20496012
-0.71648163 -0.12530375 0.20507145
-0.11402885 -0.14005926 0.19512382
-0.1217989 -0.13422133 0.1978423
-0.12625556 -0.13947611 0.19588441
-0.13488546 -0.14049149 0.19688663
-0.14926217 -0.14064752 0.20211501
-0.15543765 -0.13355801 0.19932474
-0.17776117 -0.14083596 0.20340496
-0.18035117 -0.13964799 0.19855912
-0.70148677 -0.13590367 0.20969674
-0.71667284 -0.1358479 0.20582551
-0.73019558 -0.13156959 0.20737305
-0.10874016 -0.14662284 0.19465347
-0.14288521 -0.1515733 0.19635737
-0.16143332 -0.14576112 0.19598822
-0.17109731 -0.14443055 0.19835599
-0.16113025 -0.15522969 0.19705446
-0.18073942 -0.15666553 0.20247552
-0.79722005 0.030308938 0.17311278
-0.82547802 0.030134337 0.17228255
-0.84863883 0.028192839 0.17809822
-0.7951861 0.014659028 0.17721152
-0.77798516 0.0072983988 0.17456672
-0.81168437 0.0096883811 0.17541251
-0.75342906 -0.031642683 0.18781868
-0.78750134 -0.034176107 0.18891442
-0.72563654 -0.052040935 0.19116826
-0.73003101 -0.052546419 0.18360159
-0.73802179 -0.051950589 0.18701984
-0.74962133 -0.048778735 0.182915
-0.77783561 -0.054125242 0.18415645
-0.12677938 -0.06905894 0.17513901
-0.74162531 -0.057160929 0.19225393
-0.12532254 -0.073805541 0.17973953
-0.13643628 -0.075545996 0.18324204
-0.70528048 -0.070595711 0.18680456
-0.73788345 -0.068308346 0.19225959
-0.74238145 -0.069224261 0.19273552
-0.76372123 -0.069231719 0.18946955
-0.77470422 -0.06987194 0.19133283
-0.71825403 -0.082260758 0.1877342
-0.73109972 -0.078769892 0.1877154
-0.73641431 -0.076939121 0.18883708
-0.13425581 -0.090102613 0.18108498
-0.14839654 -0.095321193 0.18267135
-0.16000433 -0.095772639 0.18380567
-0.72557634 -0.089803651 0.19145815
-0.12026355 -0.10208546 0.18575925
-0.1284834 -0.1037309 0.18501246
-0.13182329 -0.096886858 0.18513653
-0.14018814 -0.1051802 0.18347806
-0.73523796 -0.096208371 0.1931918
-0.10877348 -0.11176775 0.185155
-0.12036641 -0.11288361 0.18751408
-0.13469495 -0.11049594 0.1845438
-0.1425087 -0.11176401 0.18555135
-0.15026674 -0.11219976 0.1852679
-0.15331979 -0.10894229 0.18302667
-0.16221416 -0.11026487 0.18611482
-0.72409856 -0.1081595 0.19458798
-0.73017061 -0.108624 0.19721147
-0.75182503 -0.10857756 0.19664656
-0.11018458 -0.11636145 0.18472995
-0.11755251 -0.1210651 0.18806505
-0.13430582 -0.11913943 0.18247133
-0.14161412 -0.11716238 0.18692872
-0.14824988 -0.12365228 0.18644881
-0.15236114 -0.12430148 0.18665081
-0.16293739 -0.12146913 0.18208981
-0.71263707 -0.11471899 0.19658309
-0.72495896 -0.11502443 0.19237068
-0.73874497 -0.11600304 0.1961143
-0.10960141 -0.13098942 0.1895052
-0.12188036 -0.12808499 0.1865643
-0.13252918 -0.12903547 0.18568477
-0.1433138 -0.12767148 0.1896127
-0.15318048 -0.12800223 0.18680653
-0.15950929 -0.12541553 0.18999723
-0.16693723 -0.13019921 0.18697947
-0.11753426 -0.1398564 0.18555287
-0.13512786 -0.14135127 0.18772149
-0.1484298 -0.14088073 0.19121231
-0.15341 -0.13538873 0.18434098
-0.16619144 -0.1354519 0.18681039
-0.71682793 -0.13240997 0.20236237
-0.12139121 -0.15148368 0.1868044
-0.13241608 -0.14948663 0.19088894
-0.13894121 -0.15168843 0.18798888
-0.15501885 -0.14721674 0.19043703
-0.16766804 -0.14907277 0.19219691
-0.17954388 -0.14710586 0.19390261
-0.15003574 -0.15345904 0.19252168
-0.15445505 -0.15341981 0.18944365
-0.86969864 0.064018808 0.15850458
-0.86227632 0.045904987 0.1678952
-0.77580965 0.032170974 0.16822675
-0.80938309 0.031023625 0.16779402
-0.81998193 0.027429815 0.1652163
-0.77164108 0.017701376 0.16375655
-0.79299581 0.015646301 0.16858295
-0.807836 0.015163882 0.17235264
-0.82065189 0.015677068 0.16742185
-0.84374642 0.013537176 0.17317082
-0.85710728 0.014041731 0.16817577
-0.75771815 0.0089991186 0.1701355
-0.79295087 0.0025608391 0.16839629
-0.76243377 -0.0075694006 0.17487778
-0.79042453 0.00039516203 0.17241584
-0.79611194 -0.0035354812 0.17443985
-0.81367958 0.00074363314 0.17219786
-0.83885407 -0.0011184923 0.16824341
-0.7609266 -0.014516538 0.17019077
-0.76946938 -0.0152722 0.16807626
-0.77609193 -0.019939266 0.17363407
-0.74383104 -0.034196481 0.1753819
-0.75864351 -0.03445315 0.17275214
-0.76610047 -0.031976365 0.17590277
-0.76090622 -0.045622725 0.17833361
-0.77322298 -0.041209742 0.1761391
-0.75021219 -0.046734452 0.17662497
-0.7231794 -0.061395355 0.1824623
-0.74403131 -0.059794836 0.17835361
-0.73700941 -0.071904868 0.18470716
-0.7164675 -0.080081463 0.18094808
-0.71906525 -0.075676404 0.17805035
-0.72961521 -0.083326235 0.18291864
-0.75299317 -0.080768168 0.17826748
-0.7639761 -0.081408381 0.18013078
-0.13970169 -0.089115456 0.17516033
-0.15956454 -0.095868558 0.17546402
-0.7317155 -0.091015197 0.18410453
-0.12687597 -0.10633227 0.17415117
-0.13405755 -0.10253153 0.1779885
-0.13800478 -0.1005237 0.1739454
-0.69887882 -0.096011333 0.18324564
-0.73378366 -0.10059813 0.18813601
-0.7466777 -0.10038067 0.18459098
-0.14353742 -0.11076257 0.17757498
-0.16066197 -0.11034573 0.17915609
-0.75884497 -0.10557326 0.18506297
-0.1205655 -0.12573572 0.17754319
-0.12744898 -0.12057781 0.17503653
-0.1376491 -0.12473872 0.17594683
-0.1406562 -0.11723379 0.17728317
-0.14933409 -0.12519319 0.17708868
-0.15237859 -0.11759625 0.17929822
-0.16371946 -0.12052849 0.17398095
-0.703022 -0.11427309 0.18903995
-0.71649873 -0.11463909 0.18576077
-0.74114048 -0.11958311 0.18508425
-0.75201166 -0.12062951 0.18729644
-0.1319488 -0.12893519 0.18089642
-0.14295185 -0.13086601 0.17899401
-0.15416452 -0.13071322 0.17609747
-0.70952731 -0.12244637 0.19066237
-0.7243098 -0.12189637 0.18376869
-0.7355805 -0.12224488 0.18570614
-0.76288283 -0.12167593 0.18950863
-0.10633685 -0.13983713 0.17859775
-0.11495004 -0.14123428 0.1780747
-0.11995049 -0.14130038 0.17772985
-0.1258404 -0.14009312 0.1802053
-0.13334709 -0.13900828 0.1760335
-0.14339864 -0.13949816 0.17767109
-0.15023801 -0.14260671 0.18152304
-0.15345351 -0.13852736 0.17748654
-0.16713633 -0.14305128 0.17700858
-0.17230807 -0.13801089 0.18240668
-0.15491809 -0.15008608 0.18138668
-0.16497144 -0.15085651 0.17870109
-0.80752665 0.027468804 0.15378873
-0.80513036 0.016262226 0.16323367
-0.81272966 0.010574605 0.15858462
-0.76747245 0.0032317825 0.15928635
-0.79338151 0.0035043005 0.15699686
-0.80087763 0.0015008282 0.1586733
-0.81582576 0.0012197997 0.16256115
-0.76456028 -0.0037163384 0.15999056
-0.79730403 -0.0020055976 0.15914609
-0.74920577 -0.018423043 0.16040552
-0.77130866 -0.018208513 0.16445424
-0.78510517 -0.013773836 0.16357172
-0.78841019 -0.011173751 0.1637755
-0.78090143 -0.028132567 0.1628245
-0.7338866 -0.048866771 0.16896835
-0.73916394 -0.047150709 0.1717248
-0.75399774 -0.048660465 0.16757388
-0.72552568 -0.058159366 0.16728804
-0.73686916 -0.062906802 0.166806
-0.75089449 -0.065348327 0.1704465
-0.76711482 -0.060818397 0.17281395
-0.71200067 -0.067485742 0.1727102
-0.73811406 -0.065817729 0.1741323
-0.73933238 -0.07387092 0.17362106
-0.14163707 -0.088985369 0.16524996
-0.72393197 -0.07916303 0.17303056
-0.74161559 -0.080190629 0.17439574
-0.77083105 -0.078127995 0.16826224
-0.78174585 -0.078764245 0.17011398
-0.79266065 -0.079400495 0.17196572
-0.15301231 -0.08994481 0.16580789
-0.71495092 -0.089957446 0.17363839
-0.7323935 -0.086648799 0.17716041
-0.73463356 -0.087946981 0.16888854
-0.76423091 -0.093585044 0.17079201
-0.71188289 -0.09410172 0.17583796
-0.72414476 -0.095060267 0.17715964
-0.75061113 -0.096626818 0.16966264
-0.76578945 -0.10261742 0.1736612
-0.11716172 -0.11781455 0.16608228
-0.70869994 -0.11117536 0.17433628
-0.72701657 -0.10509127 0.17937198
-0.73904824 -0.10538995 0.17459473
-0.76860976 -0.10989064 0.17526215
-0.77809447 -0.10709292 0.17649171
-0.1425955 -0.12199531 0.1679108
-0.7104767 -0.11878096 0.1793873
-0.71634448 -0.11929151 0.17636462
-0.74199814 -0.11437044 0.17856696
-0.11766186 -0.12964928 0.16350861
-0.12600428 -0.13702613 0.1646838
-0.13734171 -0.13463932 0.17316167
-0.14110662 -0.13037421 0.16753876
-0.14585438 -0.13573065 0.17173328
-0.71148425 -0.1256752 0.17636926
-0.71288145 -0.12412961 0.18001659
-0.72561884 -0.12408771 0.18067747
-0.11622956 -0.13843165 0.17326804
-0.13023835 -0.14308137 0.17159651
-0.13502342 -0.13859214 0.16787852
-0.14270073 -0.14187407 0.1704952
-0.15554339 -0.14193542 0.17464954
-0.10861957 -0.14622812 0.17364329
-0.14117272 -0.15054472 0.17261599
-0.14792094 -0.14992367 0.17123336
-0.88738197 0.060285963 0.14602992
-0.85501981 0.052298371 0.14418684
-0.86406898 0.049156487 0.15044868
-0.81930876 0.028692389 0.14832997
-0.75493562 0.0095946379 0.14642687
-0.84227401 0.014021193 0.15085214
-0.82726693 0.0053458298 0.15121447
-0.73992991 -0.00464621 0.14755557
-0.75931323 -0.0064895935 0.15095004
-0.77581424 -0.0027117524 0.15465555
-0.78949809 -0.0091581177 0.150491
-0.7441653 -0.020712417 0.15203573
-0.76179045 -0.014376557 0.15495527
-0.77518737 -0.012152651 0.15326901
-0.77960068 -0.016739611 0.15836194
-0.81099963 -0.013237471 0.15770045
-0.74040759 -0.026280163 0.15144975
-0.75913525 -0.025707409 0.15034594
-0.77475524 -0.022050213 0.14991708
-0.79427379 -0.026041398 0.15565072
-0.8061735 -0.027694739 0.15283975
-0.74948204 -0.034777448 0.15736957
-0.77492368 -0.031042608 0.15314879
-0.7525894 -0.043455727 0.16125034
-0.74842083 -0.057925321 0.15678012
-0.77150232 -0.057165317 0.15787435
-0.73689604 -0.05804234 0.16206607
-0.74529999 -0.062765263 0.15529311
-0.7493521 -0.062867761 0.16239561
-0.75480157 -0.061619591 0.15561804
-0.76206082 -0.06284827 0.15799463
-0.72471243 -0.076293193 0.15715846
-0.72960997 -0.076065317 0.15832686
-0.74347842 -0.073938906 0.15781121
-0.71990693 -0.076945066 0.16597784
-0.71532243 -0.090965316 0.16086772
-0.71915495 -0.093620338 0.16633157
-0.75324792 -0.092944838 0.16892871
-0.71083665 -0.1042385 0.16922644
-0.72587371 -0.10285763 0.16054681
-0.73778939 -0.10145713 0.16880058
-0.12867568 -0.11407999 0.15353546
-0.72198153 -0.10785905 0.16710281
-0.74593139 -0.11061658 0.16363861
-0.70672238 -0.11851954 0.16481447
-0.71337557 -0.11573288 0.16427109
-0.78618234 -0.11914276 0.16548587
-0.79734117 -0.12008393 0.16603318
-0.12907122 -0.13139753 0.15815994
-0.14071065 -0.13207603 0.16013461
-0.14522085 -0.13434371 0.15774642
-0.16437358 -0.13284957 0.16381647
-0.6893912 -0.12472462 0.16994099
-0.70358133 -0.1252124 0.16817375
-0.14161472 -0.14361461 0.15595968
-0.86656123 0.052593894 0.13432992
-0.88283563 0.045640178 0.14083329
-0.92527765 0.052460797 0.13919683
-0.81491226 0.014529333 0.14330463
-0.77795452 0.0011662003 0.13967216
-0.80330288 0.0048456714 0.14298862
-0.83179301 0.004816344 0.14178661
-0.78695625 -0.010356508 0.1439435
-0.80164111 -0.0067030806 0.14299184
-0.75485849 -0.019964263 0.14641671
-0.76240337 -0.013662241 0.14020719
-0.78310943 -0.013539951 0.1430898
-0.73609602 -0.029122587 0.1460638
-0.7551406 -0.028900232 0.14545214
-0.75899315 -0.027096637 0.14182909
-0.76719201 -0.030487962 0.14479995
-0.75040376 -0.033438928 0.14188336
-0.76678103 -0.039445519 0.14769928
-0.78788793 -0.032740578 0.14899895
-0.72999132 -0.046731576 0.15196085
-0.75614107 -0.047693212 0.14941472
-0.76335692 -0.043994691 0.14677328
-0.73784566 -0.053701766 0.1528447
-0.74402022 -0.050462231 0.1520609
-0.71787655 -0.068373121 0.15023158
-0.72375774 -0.069204412 0.14770178
-0.73956555 -0.063936897 0.14752755
-0.75642955 -0.062142119 0.14992772
-0.71255296 -0.069250882 0.15299048
-0.73737764 -0.075918004 0.15345755
-0.74101657 -0.076564237 0.15039694
-0.75738388 -0.077151284 0.15278149
-0.70846522 -0.083439574 0.14860705
-0.72182071 -0.085489333 0.15531892
-0.72997248 -0.07961411 0.14986217
-0.73755163 -0.084878795 0.15367253
-0.76400685 -0.078249462 0.15565905
-0.78619754 -0.079112493 0.15782753
-0.69571835 -0.089220263 0.15647605
-0.72483289 -0.09052261 0.1516279
-0.72763902 -0.091133751 0.15651786
-0.73833996 -0.08832036 0.15342624
-0.74006063 -0.091282383 0.15203908
-0.77108431 -0.090229087 0.15898144
-0.71862137 -0.097384512 0.15656471
-0.72302395 -0.10524722 0.15137379
-0.74187678 -0.10025773 0.15705298
-0.71437788 -0.10807765 0.15963262
-0.73821694 -0.11393084 0.15955058
-0.12896942 -0.1254551 0.15105122
-0.70912021 -0.11896133 0.15348123
-0.72287714 -0.11813524 0.15634809
-0.73570979 -0.12021127 0.16023947
-0.68838471 -0.12581465 0.15423469
-0.15262017 -0.145659 0.15221232
-0.85180026 0.072428368 0.12419285
-0.87923759 0.066926628 0.12031591
-0.89148992 0.056167431 0.1260334
-0.92737848 0.056326181 0.12317282
-0.82658863 0.038484521 0.13081531
-0.83910424 0.039268367 0.12512115
-0.84055597 0.037669547 0.12980141
-0.85237706 0.041913912 0.12405381
-0.85429227 0.035296451 0.12481997
-0.86796486 0.033771601 0.12568682
-0.82230711 0.023623075 0.12622404
-0.85554439 0.032479167 0.13145109
-0.78652197 0.020881768 0.12760712
-0.84268433 0.023324691 0.13282362
-0.80572808 0.0081905164 0.12730396
-0.7893787 0.0022060405 0.13418046
-0.80095977 0.0032572923 0.12862419
-0.76860845 -0.011664717 0.13724713
-0.77364337 -0.012721902 0.13474438
-0.78494298 -0.011898817 0.13585874
-0.80420256 -0.0072958451 0.13165098
-0.7612437 -0.022914466 0.13464203
-0.77609468 -0.023592276 0.13171558
-0.73819566 -0.025318431 0.13136555
-0.76122308 -0.032772772 0.13618331
-0.77191234 -0.026369801 0.13792853
-0.77843249 -0.027842952 0.13787664
-0.78506315 -0.025652364 0.13404532
-0.74280655 -0.042016685 0.13588315
-0.74576056 -0.037153233 0.13595943
-0.7790969 -0.039287291 0.14260982
-0.79206979 -0.036747761 0.13560422
-0.73186702 -0.042746417 0.14122978
-0.73671156 -0.043621603 0.13786648
-0.74074447 -0.050653681 0.13772851
-0.76192468 -0.043340005 0.13855305
-0.78352028 -0.046810728 0.14400655
-0.71633977 -0.054594751 0.14068758
-0.7587086 -0.057890847 0.14078957
-0.76381028 -0.0566319 0.14282888
-0.77511251 -0.053531699 0.14037444
-0.72544104 -0.061265804 0.14452145
-0.73511636 -0.069159798 0.14235143
-0.76771361 -0.061514348 0.14450277
-0.74125892 -0.072213888 0.13872704
-0.75211841 -0.076030232 0.14499992
-0.76337439 -0.075492859 0.13954291
-0.79242373 -0.075510941 0.14525746
-0.71965355 -0.086053886 0.14250071
-0.72612017 -0.08190953 0.14067899
-0.74008369 -0.086864516 0.14783971
-0.77783298 -0.086895272 0.14725064
-0.70437753 -0.097628273 0.14422362
-0.72538954 -0.094252303 0.14236952
-0.74550486 -0.089411899 0.14365061
-0.75282812 -0.090685576 0.14626633
-0.76404488 -0.090348393 0.14604858
-0.78623563 -0.091211438 0.14821704
-0.72289264 -0.10369831 0.1464866
-0.72767842 -0.099785194 0.14229371
-0.73554862 -0.10406888 0.14570296
-0.74503464 -0.11001912 0.14765659
-0.79114509 -0.10755417 0.15233417
-0.6999166 -0.12623748 0.14937198
-0.7078771 -0.12077038 0.1517906
-0.71964353 -0.12103526 0.15035552
-0.73230118 -0.12093297 0.14651164
-0.74468338 -0.12435776 0.15082106
-0.88648534 0.072238714 0.11698895
-0.89977479 0.073280402 0.11104137
-0.84717023 0.058423862 0.11948124
-0.8690536 0.056031309 0.11821117
-0.90622109 0.055341277 0.11666182
-0.88673538 0.041786164 0.12119502
-0.89920425 0.043009698 0.11496114
-0.80749565 0.021256227 0.11843678
-0.82902098 0.019655455 0.1223604
-0.83580273 0.02001036 0.12422334
-0.85196012 0.020575643 0.12598382
-0.78187633 0.0066744601 0.12242885
-0.79480404 0.0071623698 0.11775867
-0.81802571 0.0087616313 0.12163278
-0.79430795 -0.00032249279 0.11879148
-0.78503948 -0.011772461 0.12922059
-0.78936529 -0.0070340391 0.12836377
-0.80147535 -0.006570885 0.12274359
-0.73696119 -0.019969232 0.1248991
-0.78963196 -0.020736417 0.12914479
-0.79940891 -0.021655789 0.12682301
-0.76402569 -0.026302902 0.12975448
-0.77219695 -0.032103285 0.13042654
-0.78070027 -0.025750961 0.12426071
-0.80386323 -0.033667926 0.12777559
-0.74343169 -0.040511627 0.12377211
-0.76726401 -0.040265955 0.13194482
-0.77375549 -0.042145953 0.13266349
-0.74161929 -0.05152791 0.13151854
-0.75317532 -0.051367879 0.12603088
-0.76768512 -0.045750394 0.12583517
-0.73216128 -0.058155823 0.13042705
