# .PCD v0.7 - Point Cloud Data file format
VERSION 0.7
FIELDS x y z
SIZE 4 4 4
TYPE F F F
COUNT 1 1 1
WIDTH 1428
HEIGHT 1
VIEWPOINT 0 0 0 1 0 0 0
POINTS 1428
DATA ascii
-1.0271391 0.38232464 -2.0732408
-1.0354596 0.38198343 -2.0759883
-1.0421153 0.38276929 -2.0730498
-1.0539459 0.38376844 -2.0687001
-1.030745 0.4237141 -2.0926266
-1.0407175 0.42250884 -2.0910285
-1.0557758 0.42831686 -2.0902724
-1.035378 0.41377616 -2.0884373
-1.0485787 0.41626996 -2.0840528
-1.0812197 0.42172948 -2.0874286
-0.99294484 0.404241 -2.0883884
-1.0228484 0.41315812 -2.0844231
-1.0293202 0.40912342 -2.08586
-1.0362294 0.4078365 -2.0866637
-1.0425721 0.41102165 -2.0831432
-1.0586354 0.40442553 -2.0828135
-1.0836006 0.4066003 -2.0827594
-1.0111434 0.40078607 -2.0829172
-1.0185004 0.39616916 -2.0833268
-1.0248545 0.39957789 -2.0868685
-1.031086 0.39905545 -2.0817404
-1.036773 0.39813831 -2.0817652
-1.042495 0.3976903 -2.084038
-1.081737 0.39584044 -2.0820909
-0.99987853 0.39306989 -2.0815928
-1.0205451 0.38872808 -2.0822322
-1.0278006 0.38932887 -2.0868104
-1.0356258 0.39114013 -2.0844088
-1.0448258 0.39122772 -2.0812132
-1.0544405 0.38588801 -2.0847833
-1.0611992 0.39195558 -2.0804112
-1.0667194 0.38859659 -2.0827959
-1.0390439 0.42200273 -2.0952721
-1.0404129 0.42246366 -2.0966473
-1.0488548 0.42719314 -2.0976708
-1.0579232 0.42684653 -2.098897
-1.014731 0.41829798 -2.0973892
-1.0294178 0.41888627 -2.0993097
-1.0344663 0.41601712 -2.0982625
-1.0418916 0.41436726 -2.0948219
-1.0467113 0.41881943 -2.1000109
-1.0559103 0.41478628 -2.0959296
-1.0017272 0.40332985 -2.0945146
-1.0149862 0.40650952 -2.094552
-1.0226601 0.40685779 -2.0934329
-1.029561 0.40329587 -2.097522
-1.0363191 0.40442839 -2.0952539
-1.0485209 0.40739202 -2.0964
-1.0630808 0.40693158 -2.0944247
-1.0035802 0.39456156 -2.0983241
-0.99777484 0.38700929 -2.0919573
-0.99927282 0.38941562 -2.0974805
-1.0104131 0.3875936 -2.0904059
-1.0156417 0.38925678 -2.0934753
-1.0312783 0.38970321 -2.0925984
-1.036213 0.38823494 -2.0943325
-1.0463582 0.39091581 -2.0931842
-1.0413226 0.43132603 -2.1076112
-1.0537366 0.43265778 -2.1072335
-0.99499798 0.42354548 -2.1108677
-1.0246296 0.42328581 -2.1099095
-1.0287521 0.4269082 -2.1081612
-1.0345719 0.42271858 -2.1101592
-1.0798815 0.42580536 -2.1052611
-1.0086914 0.41091132 -2.1025712
-1.0285728 0.41447157 -2.1081922
-1.0365974 0.41522202 -2.1028063
-1.0218984 0.41066557 -2.1014647
-1.0400469 0.40293613 -2.1059501
-1.0472618 0.40197226 -2.1024349
-1.0537285 0.40830907 -2.1008668
-1.0001976 0.3960889 -2.10325
-1.0069966 0.3960121 -2.1078176
-1.0176313 0.39381278 -2.1017396
-1.022747 0.39742526 -2.1059234
-1.0315332 0.39475989 -2.1023893
-1.0388821 0.39323765 -2.0984094
-1.0531331 0.39626047 -2.0991969
-0.98813272 0.39123765 -2.1045551
-1.0130868 0.38788205 -2.0996079
-1.0495337 0.38977155 -2.1028366
-1.0183387 0.42996565 -2.1179953
-1.0373697 0.43322659 -2.1174579
-1.0654823 0.42927843 -2.1155908
-0.98766476 0.42658031 -2.1204696
-1.0172229 0.41924301 -2.1145551
-1.0225762 0.42656267 -2.1201532
-1.0276858 0.42116007 -2.1159799
-1.0327799 0.42589533 -2.1129582
-1.050863 0.42686486 -2.1169357
-1.0149701 0.41427702 -2.1179538
-1.0317898 0.41637418 -2.1184721
-1.037544 0.41528097 -2.1149578
-1.0498135 0.41749942 -2.1139646
-0.99272388 0.40845829 -2.1162937
-1.0026357 0.40674135 -2.1167815
-1.014093 0.40188727 -2.1143904
-1.0240108 0.40442082 -2.1162152
-1.0292314 0.40731975 -2.1139066
-1.0344011 0.40638599 -2.1101525
-1.0445131 0.4001697 -2.1124701
-0.99865484 0.39030394 -2.1142061
-1.0083983 0.39149803 -2.1145012
-1.0133489 0.39556676 -2.1117406
-1.0292833 0.39283612 -2.1147614
-1.0334718 0.39664081 -2.1162994
-1.0448353 0.39880332 -2.1108603
-1.0362059 0.43732432 -2.131506
-1.0088817 0.43121845 -2.1275978
-1.025147 0.42932701 -2.1292691
-1.0302902 0.43484816 -2.1313145
-1.0347486 0.42966631 -2.1268487
-1.0012252 0.41894865 -2.1297324
-1.0265242 0.42107403 -2.127161
-1.0408952 0.42034972 -2.1262553
-0.98321617 0.41259208 -2.1244266
-0.99315232 0.40930334 -2.1284621
-1.0043747 0.41546804 -2.1219952
-1.0148073 0.40960801 -2.124306
-1.0300478 0.41233453 -2.1289988
-1.0336119 0.41580927 -2.1215463
-0.98085839 0.40049326 -2.1253672
-1.001169 0.39900425 -2.1220417
-1.0074378 0.40010425 -2.1239882
-1.0249569 0.40460035 -2.1238635
-1.0315628 0.40697244 -2.1199303
-1.0366619 0.40279484 -2.1224837
-1.0464128 0.39926961 -2.1176701
-0.99877667 0.39505023 -2.1243284
-1.012724 0.39535651 -2.1221392
-1.0338848 0.43763068 -2.1347656
-0.97920787 0.42907915 -2.1377096
-0.99228042 0.42882526 -2.1395817
-0.99941373 0.43014944 -2.1414001
-1.0129631 0.43308994 -2.1373932
-1.0188771 0.43242538 -2.1366124
-1.0278118 0.42827335 -2.1343064
-1.0016793 0.42189723 -2.134501
-1.0135247 0.42031136 -2.1345735
-1.0198113 0.42198712 -2.1311445
-1.0273037 0.41929293 -2.1336761
-1.0321337 0.41868412 -2.1328475
-1.0015303 0.40707618 -2.1338253
-1.0057684 0.41537473 -2.1339946
-1.0213559 0.41054305 -2.1299512
-0.98928773 0.39855647 -2.1340325
-0.99680573 0.40294057 -2.1354706
-1.0084466 0.4027133 -2.1310658
-1.0153975 0.40464455 -2.1320791
-1.0229106 0.40104419 -2.1319389
-1.0280619 0.40004396 -2.1341894
-1.0242895 0.39657006 -2.1348369
-0.98999292 0.43340784 -2.1509385
-1.004503 0.43597865 -2.1455917
-1.01071 0.43452933 -2.1464574
-1.023489 0.44051722 -2.1479716
-0.99138409 0.42478767 -2.1421039
-0.99493617 0.42359447 -2.1494882
-1.0041167 0.42589837 -2.1485748
-1.0148873 0.42932966 -2.1458018
-1.0185479 0.42323598 -2.1488383
-0.98549747 0.41421539 -2.1472311
-0.99493647 0.41607094 -2.1453826
-1.0003407 0.41966027 -2.1442077
-1.0105498 0.42281026 -2.145766
-1.0151625 0.41821674 -2.1463561
-1.0215329 0.42106357 -2.1445894
-1.0270635 0.41591331 -2.146909
-0.98366892 0.41186532 -2.140142
-0.98945951 0.40632603 -2.1432006
-1.0072818 0.40885991 -2.1454966
-1.0151826 0.41122952 -2.1458013
-1.0213287 0.40788388 -2.142436
-1.034826 0.41187412 -2.1445925
-0.9810794 0.40358952 -2.1475275
-0.99340343 0.40429938 -2.1390944
-1.0006169 0.40102634 -2.1381807
-1.0094994 0.40028611 -2.1411006
-1.0170132 0.4017235 -2.1444726
-0.98936582 0.43273649 -2.1599848
-0.99900246 0.43823811 -2.1560416
-1.0159153 0.43597713 -2.1543872
-1.0295002 0.43747258 -2.1558068
-1.0359832 0.44005734 -2.1532245
-0.99292123 0.42606854 -2.1510568
-1.0081269 0.43054199 -2.1562178
-1.0225786 0.42880753 -2.1560707
-1.0305016 0.42590219 -2.1576171
-0.98687094 0.41598481 -2.1567214
-0.99844456 0.41392627 -2.1498919
-1.0056813 0.41672936 -2.1516712
-0.99015069 0.40655527 -2.1538043
-0.99534845 0.40679964 -2.1533856
-1.0016625 0.40563911 -2.1530242
-1.0135955 0.40707901 -2.1520195
-0.99024189 0.39911059 -2.1489675
-0.99594975 0.39717457 -2.1466284
-1.0032327 0.39727807 -2.1496358
-1.006708 0.44420284 -2.1706064
-1.014483 0.44183463 -2.1630373
-1.0243422 0.44330075 -2.1662126
-0.98537552 0.43426299 -2.170666
-0.9970063 0.43666896 -2.1688085
-1.0003078 0.43866861 -2.1638746
-1.009352 0.4360581 -2.1636281
-1.0206393 0.43518275 -2.1619217
-0.98336399 0.42551339 -2.1678376
-0.98752326 0.42821121 -2.1608024
-0.995776 0.42406589 -2.1629057
-1.0041417 0.42929813 -2.1611304
-1.0084962 0.42484173 -2.1635303
-1.0134196 0.42726704 -2.1683049
-1.0206615 0.42298236 -2.1638632
-0.98292851 0.41763112 -2.1673748
-0.99654871 0.41736728 -2.1641355
-1.0066936 0.41868258 -2.1622243
-1.0262773 0.415941 -2.1586788
-0.98153985 0.40631375 -2.1609178
-0.98901707 0.40848309 -2.1639032
-0.99510515 0.40847182 -2.1631029
-1.0000162 0.41095123 -2.161341
-1.0067307 0.40396103 -2.1614799
-1.0065845 0.40157497 -2.1586549
-1.0022482 0.43962198 -2.1782024
-1.0072449 0.44495803 -2.1747541
-0.9960227 0.4326956 -2.1762376
-1.0026746 0.43290663 -2.1752443
-1.0138967 0.43234485 -2.1705344
-1.0224979 0.43740377 -2.1731646
-0.97202653 0.42261019 -2.1735065
-0.9867084 0.42283338 -2.17013
-0.99762601 0.42311734 -2.1758511
-1.0026219 0.42693409 -2.1746423
-1.0217152 0.42924485 -2.1714258
-0.97759271 0.41234604 -2.1733348
-0.98928106 0.41682249 -2.1738453
-0.99287206 0.41422269 -2.1737483
-1.0097854 0.41431904 -2.170325
-1.0172689 0.411872 -2.1703048
-0.9691059 0.40285969 -2.171308
-0.97119743 0.40154049 -2.1732605
-0.98163271 0.40617621 -2.1727109
-0.99289274 0.40585265 -2.1754546
-0.99845022 0.40770936 -2.1744845
-1.0018783 0.44802549 -2.1883767
-1.0173748 0.44996047 -2.1863556
-1.0190845 0.45015293 -2.1892982
-0.99736804 0.44219387 -2.1815166
-0.99944371 0.4439373 -2.1873066
-1.0139493 0.44147062 -2.1872506
-0.982467 0.43123907 -2.1856277
-0.99179703 0.43496466 -2.1873891
-1.0052148 0.43588221 -2.1849983
-1.0129286 0.4325875 -2.1852345
-0.97619468 0.4201383 -2.1849968
-0.98860711 0.41761774 -2.1865537
-0.99433786 0.42511231 -2.1835485
-0.99845695 0.42083806 -2.1788845
-0.96876532 0.41426605 -2.1833797
-0.97852904 0.41092137 -2.1831253
-0.98693883 0.41404691 -2.1833537
-0.99414521 0.40999123 -2.1808412
-0.99836493 0.41310754 -2.1805987
-1.0084825 0.41521466 -2.1841133
-0.9608677 0.40550923 -2.1826773
-0.99093229 0.4067823 -2.1798644
-1.001691 0.4064607 -2.1775191
-0.97118652 0.44641367 -2.1959081
-0.98782659 0.44609886 -2.1946259
-1.0013374 0.4497813 -2.1931567
-1.0085883 0.45330313 -2.2001643
-0.96901602 0.43538782 -2.1990957
-0.98119175 0.43873599 -2.1967335
-0.98790401 0.43609309 -2.1913447
-1.004142 0.43593028 -2.1990433
-1.0136855 0.44068167 -2.1934745
-0.98002952 0.43267959 -2.1987555
-0.98538679 0.43091881 -2.1908674
-0.99454802 0.43183637 -2.1945522
-1.0014101 0.43267396 -2.1920464
-1.0153506 0.42945573 -2.1903727
-0.96736455 0.42347947 -2.1947312
-0.98081654 0.41894609 -2.1916957
-0.99005014 0.41713122 -2.1906266
-0.99752003 0.41844508 -2.1961005
-0.99845129 0.42637837 -2.1913815
-1.005326 0.4258796 -2.1920712
-1.0175766 0.42654926 -2.1905923
-0.97091103 0.41431436 -2.1954796
-0.98124135 0.4126972 -2.1899483
-0.99071664 0.4117144 -2.19559
-0.99343884 0.41216367 -2.1940365
-1.0006607 0.40867856 -2.194205
-0.96643281 0.40622428 -2.191812
-0.97832632 0.40673661 -2.1950178
-0.99597001 0.4531576 -2.2109051
-1.0060638 0.45445517 -2.2069738
-0.98539096 0.44845441 -2.2042074
-0.99704862 0.45184815 -2.206147
-1.0066577 0.44554001 -2.2048056
-1.0113261 0.45027995 -2.2059186
-0.98238236 0.43535599 -2.2018244
-0.9842993 0.43817827 -2.2013719
-1.0006144 0.44210842 -2.2003717
-0.98065752 0.43118984 -2.2038116
-1.0021765 0.42682868 -2.2034965
-0.96476609 0.41780344 -2.2009504
-0.9755761 0.42150766 -2.2062829
-0.97923201 0.41962996 -2.2021172
-0.97473049 0.41318882 -2.2031412
-0.98516744 0.41157433 -2.2033942
-0.99586207 0.41074583 -2.2005391
-1.000607 0.45492086 -2.2128906
-0.98162419 0.44274604 -2.2125793
-0.98646992 0.44592434 -2.2176442
-0.98238528 0.43627691 -2.2153652
-0.98775476 0.43752733 -2.2135394
-0.99186683 0.43777871 -2.2149198
-0.99929297 0.43776321 -2.210079
-1.0084952 0.44063619 -2.2106819
-0.96619493 0.42626852 -2.2135985
-0.98319101 0.42770138 -2.2115066
-0.99542046 0.42854407 -2.2149622
-1.0023643 0.42943129 -2.2098463
-0.96315902 0.41654524 -2.2097769
-0.98281288 0.41520765 -2.2114515
-0.98788995 0.41617167 -2.2135673
-0.99623019 0.42237407 -2.2132902
-0.96369803 0.40963307 -2.2125738
-0.96173835 0.45453161 -2.2307103
-0.97481346 0.45208612 -2.2245491
-0.98717225 0.45836601 -2.2303138
-0.9925862 0.45710817 -2.2263255
-1.0033596 0.45380098 -2.2219062
-1.0040677 0.45018411 -2.2254877
-0.97467333 0.444884 -2.2284055
-0.97916877 0.44649416 -2.2283895
-0.98656917 0.44261563 -2.2266603
-0.99083352 0.44046593 -2.2271709
-0.99979752 0.44605505 -2.2235332
-0.95906985 0.43743551 -2.2274539
-0.96669066 0.43195128 -2.2258182
-0.97118121 0.43506515 -2.2239721
-0.97753638 0.43984067 -2.2257533
-0.98685414 0.43557954 -2.2235651
-0.99934846 0.43509999 -2.2223246
-0.9825201 0.42549443 -2.223999
-0.99560261 0.42603508 -2.2250473
-0.96886468 0.41840398 -2.2190359
-0.97249436 0.41357073 -2.220798
-0.98222768 0.41509944 -2.2210364
-0.99215502 0.45136821 -2.23825
-0.9473685 0.43961278 -2.2348266
-0.96101743 0.44246256 -2.2342379
-0.9683097 0.44034338 -2.2375348
-0.97044486 0.44026554 -2.2340202
-0.9822135 0.44358981 -2.2342179
-0.98378134 0.44114655 -2.2333262
-0.99261409 0.44776249 -2.2357571
-1.0042732 0.44768497 -2.2327282
-0.98656249 0.43804088 -2.2299848
-0.99940228 0.4329831 -2.2276213
-0.96605945 0.42842343 -2.2308931
-0.97325397 0.42212161 -2.2276225
-0.9807691 0.42513892 -2.2312839
-0.98672944 0.42181185 -2.2279363
-0.96155208 0.41527769 -2.231787
-0.97876483 0.41887963 -2.2287118
-0.98707408 0.41698843 -2.228807
-1.002335 0.41403574 -2.2262788
-0.98743808 0.46224675 -2.2466977
-1.0000269 0.46403062 -2.2444324
-0.8922407 0.4464184 -2.2499471
-0.9733355 0.45203695 -2.2443109
-0.97997773 0.44921294 -2.2398074
-0.98434567 0.45492241 -2.24559
-0.99987423 0.45487013 -2.2410057
-0.9379012 0.4411898 -2.2464886
-0.94738472 0.44499311 -2.2488031
-0.97778267 0.44595835 -2.240469
-0.98540366 0.44541228 -2.2456281
-0.99575216 0.44576633 -2.2442605
-0.93423164 0.43142888 -2.2421372
-0.95471323 0.43391621 -2.2436621
-0.98186284 0.43368748 -2.2408798
-0.98759335 0.43101689 -2.2392807
-0.99506855 0.43734103 -2.2406034
-0.94576144 0.42793024 -2.2453878
-0.96724826 0.42387781 -2.2419209
-0.97333652 0.42858544 -2.2393482
-0.97739106 0.46603432 -2.2577605
-0.99178106 0.46748126 -2.2597761
-1.0010005 0.46786013 -2.2542779
-0.96699268 0.46204102 -2.2538235
-0.97232985 0.45679957 -2.2519395
-0.98255914 0.46331605 -2.2594576
-0.91226453 0.44614455 -2.2569437
-0.9536081 0.45060045 -2.2587912
-0.98218787 0.44951859 -2.2524123
-0.9935379 0.45111302 -2.251199
-0.92597193 0.44305351 -2.2527921
-0.96298444 0.44369313 -2.2551441
-0.97007298 0.43960533 -2.2485833
-0.98097867 0.43922219 -2.2542026
-0.95883989 0.43018469 -2.2481966
-0.9659186 0.42892998 -2.2551959
-0.97839522 0.43316099 -2.2524552
-0.99904871 0.4339737 -2.2477832
-0.9125405 0.42571625 -2.249455
-0.97335893 0.42159089 -2.2524893
-0.9781431 0.42296207 -2.2473149
-0.95696867 0.46459359 -2.2672722
-0.96632195 0.4671196 -2.2673233
-0.98742676 0.46723616 -2.2662909
-1.0001895 0.45827487 -2.2665608
-0.90660936 0.44532833 -2.2687855
-0.91887122 0.44548357 -2.2677209
-0.96797627 0.44824556 -2.2637527
-0.97213024 0.45263007 -2.2622962
-0.97953057 0.44863904 -2.2639303
-0.96728337 0.43681768 -2.2654095
-0.99809623 0.4425523 -2.2665734
-0.89789462 0.43122557 -2.2610598
-0.90665501 0.42847681 -2.2660506
-0.93176866 0.42804277 -2.2642758
-0.94147885 0.43151289 -2.2655883
-0.9624151 0.42603809 -2.2605467
-0.96519423 0.42925048 -2.2630336
-0.97351903 0.42852017 -2.2622266
-0.98035604 0.43354753 -2.256592
-0.98323137 0.43095258 -2.2594326
-0.91446054 0.42069867 -2.263195
-0.94378459 0.42616552 -2.2579265
-0.97507167 0.42059755 -2.2586057
-0.99346304 0.42319688 -2.2595172
-1.0145361 0.47710955 -2.277102
-0.93628222 0.46243113 -2.2709877
-0.97732794 0.46585929 -2.277262
-0.99337846 0.46706605 -2.2744141
-0.93975413 0.4546628 -2.2766759
-0.94814622 0.45413086 -2.2759452
-0.96869498 0.46099523 -2.2733085
-0.9716289 0.45423558 -2.2764492
-0.98266929 0.45981967 -2.269727
-0.98338836 0.45688233 -2.2745988
-1.0051686 0.45552868 -2.2742782
-0.88886178 0.45049903 -2.2716882
-0.92110479 0.44969818 -2.2732289
-0.93170989 0.45091772 -2.2725506
-0.94311386 0.44869897 -2.2690282
-0.96642172 0.4436751 -2.2699282
-0.97568107 0.44854844 -2.273797
-0.98596811 0.44901848 -2.2685738
-0.99980474 0.45072168 -2.2713788
-0.93209565 0.43486249 -2.2682905
-0.97294545 0.43935218 -2.2718208
-0.98023963 0.44033101 -2.270905
-0.98937738 0.44046411 -2.2712889
-0.99476075 0.43713969 -2.2663753
-0.88619328 0.43340281 -2.2684321
-0.89800501 0.43183792 -2.2712917
-0.91812402 0.43084252 -2.2682192
-0.94442171 0.4344255 -2.2666903
-0.95365071 0.42869511 -2.2740741
-0.97178769 0.4263005 -2.266813
-0.98729181 0.42770836 -2.2732821
-0.99325341 0.42488804 -2.2661679
-0.97557414 0.47413176 -2.2874863
-0.98810583 0.47068673 -2.2889512
-0.90574807 0.4616538 -2.2866673
-0.92531794 0.46554053 -2.2863092
-0.96195453 0.46951818 -2.2869592
-0.96907288 0.46174559 -2.2875748
-0.9745003 0.46666279 -2.2818995
-0.9796682 0.46517774 -2.2853191
-0.99425858 0.4643462 -2.2812824
-0.89709735 0.45467648 -2.2856801
-0.9280479 0.45657742 -2.2841101
-0.9341417 0.45807764 -2.2875957
-0.93748587 0.45646852 -2.2879062
-0.9496336 0.45521262 -2.2832875
-0.96091545 0.45363927 -2.283694
-0.97085863 0.45650312 -2.2792416
-0.98196 0.45594037 -2.2828081
-0.98297518 0.45525607 -2.2815027
-0.90999377 0.44899133 -2.2803307
-0.94137478 0.44780537 -2.2788134
-0.96220732 0.44753531 -2.2861767
-0.97046024 0.44816974 -2.2832305
-0.97878855 0.44419873 -2.2800715
-0.98941571 0.44668198 -2.2808771
-0.85696256 0.43160054 -2.2860088
-0.89572114 0.43367434 -2.2833242
-0.93315876 0.44101387 -2.2843254
-0.95779961 0.43946415 -2.2771454
-0.96827996 0.43990809 -2.2852278
-0.98036921 0.43775788 -2.2780936
-0.98756397 0.43577746 -2.277663
-0.86878836 0.42949721 -2.2790301
-0.90773696 0.43179721 -2.2769747
-0.91130525 0.42426133 -2.2847707
-0.91985559 0.42472485 -2.2846448
-0.93217599 0.42395002 -2.2810547
-0.960181 0.42803621 -2.2829397
-0.97342879 0.42903337 -2.2829731
-0.98531651 0.42610773 -2.279253
-1.0067164 0.48062515 -2.2938118
-0.99236977 0.47471634 -2.2917805
-0.99952686 0.47600496 -2.2939215
-0.8845948 0.46038526 -2.2920611
-0.92996395 0.4626919 -2.2970901
-0.9451915 0.46262884 -2.2962971
-0.95089513 0.46544093 -2.2947109
-0.98557794 0.46847588 -2.2955861
-1.0028325 0.46138182 -2.2945108
-0.88596201 0.45274571 -2.2930293
-0.91634166 0.45849201 -2.291544
-0.92644691 0.45375156 -2.2947328
-0.93162823 0.45435852 -2.2959592
-0.9425928 0.45770457 -2.293308
-0.97088593 0.45740631 -2.2886364
-0.98229957 0.45508888 -2.2924273
-0.98396891 0.45188332 -2.2897227
-0.87935555 0.44864926 -2.2973673
-0.8912679 0.44653055 -2.2903376
-0.90211725 0.44329128 -2.2955914
-0.92083836 0.4417887 -2.2879152
-0.95316446 0.4426856 -2.2960401
-0.96525133 0.44281128 -2.2882624
-0.97922075 0.44820878 -2.2959173
-0.98833656 0.44164395 -2.2943654
-0.84513694 0.43370381 -2.2929869
-0.87168938 0.4374288 -2.2960227
-0.87491637 0.43838879 -2.2957799
-0.8837052 0.43555155 -2.2896736
-0.8919431 0.43476233 -2.2879848
-0.92557788 0.43511572 -2.2880542
-0.93710864 0.43514007 -2.2860339
-0.94729233 0.43455443 -2.289902
-0.9668569 0.43920806 -2.2946801
-0.97374642 0.43368998 -2.2903869
-0.97873604 0.43726519 -2.2871363
-0.98718482 0.43579084 -2.2866707
-0.88870001 0.42928845 -2.2869785
-0.99628258 0.4300423 -2.2925301
-0.95794421 0.47809812 -2.3091211
-0.99277455 0.47968712 -2.307915
-0.99889666 0.48414078 -2.3105218
-0.90701836 0.46846956 -2.3045115
-0.91647524 0.46843034 -2.3013389
-0.94940436 0.47122201 -2.303396
-0.97789294 0.47612178 -2.3075857
-0.99814528 0.47411433 -2.3060222
-1.0173352 0.47080418 -2.3078246
-0.85889691 0.46023279 -2.3072691
-0.86187696 0.45902973 -2.3086309
-0.87685084 0.46112955 -2.3068764
-0.90204191 0.46223488 -2.3037744
-0.9089725 0.45886189 -2.3073883
-0.92137104 0.45893106 -2.3037188
-0.92614591 0.45777938 -2.3074617
-0.93097949 0.46352988 -2.3056045
-0.93575901 0.4641808 -2.3007081
-0.95346421 0.46059322 -2.3079917
-0.9627685 0.4595688 -2.3056352
-0.98002046 0.46270099 -2.3028905
-0.99484348 0.46322423 -2.2990565
-1.0097165 0.45900458 -2.3051333
-0.86193025 0.45650017 -2.3057282
-0.87394613 0.45462292 -2.2993789
-0.89816278 0.4549695 -2.3066533
-0.90569162 0.45090809 -2.3039162
-0.91060311 0.4550932 -2.3058782
-0.91852158 0.45300347 -2.305275
-0.93225592 0.45393604 -2.3051353
-0.94507974 0.45622978 -2.3030922
-0.96509284 0.45154598 -2.3009791
-0.98318255 0.45767751 -2.3023088
-0.99086452 0.45257258 -2.2982798
-1.0038999 0.45575339 -2.298908
-0.84371978 0.44184422 -2.3071587
-0.85828328 0.44184056 -2.3034
-0.89079064 0.44225013 -2.3042295
-0.8981089 0.44056168 -2.3040619
-0.90736878 0.44386363 -2.3002377
-0.91150641 0.44644937 -2.2984538
-0.91767132 0.44042894 -2.3033631
-0.92480284 0.44398564 -2.2991011
-0.93353856 0.4407514 -2.3015196
-0.94380182 0.44168192 -2.3000185
-0.9518556 0.44385907 -2.2979279
-0.9575572 0.44627044 -2.304704
-0.9897809 0.44201875 -2.2992396
-0.8891058 0.43661898 -2.3024852
-0.90441686 0.43232688 -2.3010023
-0.91249162 0.43774164 -2.2965016
-0.92855078 0.43379864 -2.2991762
-0.93472779 0.43638781 -2.2964473
-0.93757421 0.43600073 -2.3013339
-0.96826559 0.4383949 -2.2962005
-0.98904705 0.43856442 -2.3037281
-0.99427319 0.4333989 -2.3016219
-0.96297622 0.47979456 -2.318244
-0.97917998 0.47956422 -2.3179469
-0.98797262 0.47822261 -2.3109603
-0.99426967 0.48038545 -2.3149581
-0.9990508 0.48127174 -2.3151793
-1.0105081 0.47896722 -2.3188028
-0.88431638 0.46685988 -2.3185389
-0.89185691 0.46716434 -2.3168252
-0.916394 0.47238547 -2.3168988
-0.92707705 0.46771812 -2.3151717
-0.93473315 0.47064155 -2.3122885
-0.93600911 0.47370028 -2.3137918
-0.95680374 0.47536033 -2.3119771
-0.96591753 0.47409964 -2.3150826
-0.98210466 0.47135583 -2.3104043
-1.0208571 0.4760327 -2.311316
-0.83313483 0.46032178 -2.3157949
-0.84591043 0.46005413 -2.3130507
-0.84879792 0.46154034 -2.314748
-0.85896736 0.46063471 -2.31388
-0.87583762 0.46144703 -2.3171117
-0.88315624 0.46054572 -2.3150306
-0.89130169 0.46016759 -2.3147695
-0.89971113 0.45686585 -2.3111804
-0.90472704 0.46053675 -2.3131535
-0.92245233 0.46042293 -2.3138881
-0.93225306 0.45995885 -2.3112986
-0.95199794 0.45783132 -2.3115752
-0.96583319 0.45998198 -2.3124571
-0.98766887 0.45871335 -2.3119807
-0.83560705 0.4509964 -2.3182209
-0.84252065 0.44860402 -2.3101885
-0.85553098 0.45288679 -2.3114262
-0.87870479 0.44712043 -2.3104594
-0.89251167 0.45290989 -2.3128695
-0.89931208 0.44723508 -2.3152292
-0.90419751 0.4554767 -2.3133457
-0.92434543 0.4515402 -2.3117445
-0.94310611 0.44742393 -2.3125038
-0.95183927 0.44773129 -2.3077319
-1.0002037 0.44812188 -2.3081
-1.0131068 0.45211825 -2.3098102
-0.84466547 0.44268492 -2.3124776
-0.84740192 0.44400162 -2.312777
-0.85853082 0.44341049 -2.3112571
-0.8719697 0.44333449 -2.3091815
-0.87503964 0.44119281 -2.3132818
-0.88570392 0.44143364 -2.3074906
-0.89397573 0.44067636 -2.3092229
-0.89884508 0.43997085 -2.3130519
-0.90465295 0.4424378 -2.3110995
-0.90805089 0.44621506 -2.3152568
-0.91593885 0.44502679 -2.3068871
-0.92337972 0.44052678 -2.3112023
-0.93201208 0.44635874 -2.3066297
-0.93649745 0.44415161 -2.3081458
-0.94900185 0.44363168 -2.3066297
-0.96603674 0.44115892 -2.3097389
-0.9765141 0.4452498 -2.3077915
-0.98435718 0.44278163 -2.3074865
-1.0054744 0.44040483 -2.3049173
-0.83310699 0.43400431 -2.3148589
-0.8459332 0.42937389 -2.306185
-0.86273205 0.43100101 -2.3144605
-0.87579453 0.43041688 -2.3104107
-0.89013201 0.42940167 -2.3108246
-0.9025405 0.42862132 -2.307209
-0.91402566 0.43642727 -2.3073311
-0.92807406 0.43694693 -2.3082049
-0.9430002 0.43539461 -2.3092926
-0.96752906 0.43272534 -2.3092465
-0.97317386 0.43646082 -2.3077769
-0.98565233 0.43385237 -2.3073306
-0.93334764 0.47984651 -2.3276222
-0.93925661 0.47649261 -2.3248949
-0.94569147 0.47544017 -2.3242605
-0.94983554 0.47940087 -2.3216465
-0.97478974 0.47744876 -2.3235161
-0.98666513 0.4830673 -2.3274941
-0.85781044 0.46806499 -2.3287141
-0.87087715 0.46546546 -2.3225646
-0.87889773 0.46738794 -2.3220551
-0.90581268 0.4680374 -2.3247199
-0.91371047 0.47231773 -2.3294494
-0.92016304 0.4730024 -2.320348
-0.92477423 0.46542856 -2.3245864
-0.93355125 0.47050694 -2.3250017
-0.9704811 0.46763363 -2.3235381
-0.98551446 0.469152 -2.3246014
-0.83771271 0.46308511 -2.3233566
-0.86488169 0.45801207 -2.3254511
-0.87100029 0.46340725 -2.3244069
-0.87805045 0.46311238 -2.3284731
-0.8915174 0.4595364 -2.322494
-0.90323186 0.46221969 -2.3252039
-0.91126031 0.46020499 -2.3204534
-0.92629337 0.45974922 -2.3239033
-0.94168317 0.45709231 -2.3255813
-0.98413676 0.45796335 -2.3203857
-0.99044561 0.45667145 -2.3184652
-0.8239851 0.45289722 -2.3256013
-0.83528197 0.44814435 -2.3218207
-0.85529226 0.45094964 -2.3253276
-0.86702591 0.44725105 -2.3215182
-0.86829418 0.4473528 -2.325701
-0.87710929 0.4501102 -2.3187163
-0.88630795 0.44695672 -2.3248322
-0.90139967 0.45079458 -2.3236072
-0.94013101 0.44645652 -2.3207753
-0.9597255 0.45492232 -2.3187277
-0.9845928 0.45074183 -2.3164966
-1.004266 0.45321682 -2.3197041
-0.83848059 0.43639567 -2.3217921
-0.85100406 0.43655422 -2.3207049
-0.85521376 0.44337347 -2.3241107
-0.86464536 0.44163746 -2.3210824
-0.87880296 0.44116616 -2.3191779
-0.88513058 0.4434827 -2.3195961
-0.8899858 0.44059598 -2.320014
-0.89655662 0.44352046 -2.3168852
-0.91105574 0.44360554 -2.3223999
-0.91538292 0.44442594 -2.3209279
-0.92797375 0.44397959 -2.3192933
-0.95205075 0.44494429 -2.3245668
-0.95994323 0.44423777 -2.3193293
-0.9705627 0.4427467 -2.3176005
-0.97878671 0.43836576 -2.3213599
-0.98242295 0.43819794 -2.3181586
-0.99117965 0.44070366 -2.3143215
-0.99979872 0.44630665 -2.3185833
-0.83292687 0.42897353 -2.3169234
-0.83541572 0.43181223 -2.3192985
-0.85142851 0.43254462 -2.3212173
-0.89420956 0.43374056 -2.3190949
-0.89801264 0.43191746 -2.3179381
-0.93438005 0.43526608 -2.319144
-0.90537614 0.47594342 -2.3357661
-0.91730881 0.47642517 -2.3374772
-0.93156445 0.47770178 -2.3349538
-0.98348558 0.48177093 -2.3303683
-0.82797873 0.46415797 -2.3366046
-0.83594328 0.46634629 -2.3389466
-0.84094906 0.46603641 -2.334197
-0.85316354 0.46522468 -2.3298714
-0.86830819 0.46763679 -2.336484
-0.89709198 0.47135511 -2.3384252
-0.90608966 0.46606609 -2.331903
-0.90902829 0.46501076 -2.337369
-0.9183951 0.47125545 -2.3296354
-0.93127739 0.46501893 -2.3288493
-0.9698925 0.46512699 -2.3306949
-0.85150492 0.45712137 -2.3338611
-0.86394435 0.46166408 -2.3348327
-0.87641418 0.46128115 -2.3326466
-0.89087158 0.45741081 -2.3332415
-0.90445548 0.45824364 -2.3330112
-0.81465733 0.4479968 -2.3340044
-0.82633191 0.4468472 -2.3331394
-0.82907933 0.45048946 -2.332197
-0.83983874 0.4471041 -2.3307352
-0.84248 0.44877389 -2.3324914
-0.85084671 0.44744489 -2.3323984
-0.85522372 0.45084906 -2.3351626
-0.86436123 0.44642904 -2.3345656
-0.86976874 0.44720837 -2.3323796
-0.87816602 0.44697833 -2.3307891
-0.89247143 0.44887397 -2.3300939
-0.89956677 0.45025125 -2.3292367
-0.90559912 0.44875476 -2.3290548
-0.91211641 0.45345581 -2.3297765
-0.9310323 0.44876611 -2.3303449
-0.86803091 0.43478644 -2.3330834
-0.88906848 0.44048011 -2.3297942
-0.89498132 0.44011879 -2.3339522
-0.90759426 0.4402785 -2.3328574
-0.93767488 0.43874449 -2.3269019
-1.0039324 0.43734708 -2.3299935
-0.82784897 0.43308663 -2.3307643
-0.89483351 0.43298662 -2.3288407
-0.93868595 0.48566899 -2.3483593
-0.88737541 0.47182319 -2.3453803
-0.89581585 0.47155219 -2.3436131
-0.90456569 0.47722587 -2.3454742
-0.90971315 0.47479278 -2.3440993
-0.92682624 0.47703478 -2.3401299
-0.82375395 0.46489543 -2.345855
-0.82750416 0.46139017 -2.3480241
-0.83490753 0.46423173 -2.3452773
-0.84883946 0.46501666 -2.3444431
-0.86450124 0.46583053 -2.3439498
-0.8733263 0.46366379 -2.3458755
-0.88445669 0.46553463 -2.3451309
-0.89339858 0.46738836 -2.3448451
-0.92550701 0.46875995 -2.3470283
-0.8201735 0.45669347 -2.3476295
-0.83165848 0.45416766 -2.3420372
-0.83950454 0.45925575 -2.3409426
-0.84448218 0.45681435 -2.3411455
-0.8479259 0.46089894 -2.3436241
-0.85617095 0.45762548 -2.3399718
-0.86256266 0.45168826 -2.344311
-0.8710134 0.45725319 -2.3409221
-0.88488513 0.45855552 -2.3417153
-0.89188087 0.45419991 -2.3402646
-0.9056018 0.4567669 -2.34389
-0.82362396 0.44588661 -2.3426259
-0.83179975 0.45034131 -2.34284
-0.83536845 0.44340399 -2.3418248
-0.84450108 0.44902134 -2.3464272
-0.847987 0.44352949 -2.3410382
-0.85694259 0.44658309 -2.3427296
-0.87915361 0.44825134 -2.3412542
-0.88603532 0.44738334 -2.3394346
-0.92501301 0.45132354 -2.3441594
-0.81765532 0.43957812 -2.344243
-0.83050966 0.43620083 -2.3389893
-0.83754247 0.43793619 -2.337327
-0.84917557 0.43732581 -2.337132
-0.87048405 0.43776107 -2.3369319
-0.88513786 0.4380334 -2.3376729
-0.88826615 0.43686935 -2.3361995
-0.97833037 0.4418177 -2.3361394
-0.82263356 0.4698993 -2.3536255
-0.8357681 0.47100458 -2.3543522
-0.84655529 0.46924627 -2.3521235
-0.84939808 0.47192407 -2.3562562
-0.85829538 0.46985897 -2.3573852
-0.8620829 0.47139674 -2.3547182
-0.88664651 0.47747505 -2.3498626
-0.88869989 0.478019 -2.3575158
-0.90140408 0.47817978 -2.3564129
-0.8220498 0.46819368 -2.3554761
-0.83401912 0.46788207 -2.3515539
-0.84432638 0.46457127 -2.3549356
-0.85299122 0.46495301 -2.349602
-0.85808593 0.46492451 -2.3531632
-0.86379492 0.46086019 -2.3547335
-0.90145141 0.46072045 -2.3535795
-0.80846727 0.45860806 -2.3550634
-0.82142276 0.45214209 -2.3523433
-0.83203316 0.45619288 -2.3564312
-0.83352715 0.45307592 -2.3514934
-0.84773374 0.45361707 -2.3495979
-0.86418045 0.45584196 -2.3481276
-0.87612194 0.45422828 -2.347945
-0.82406211 0.44668993 -2.3534291
-0.83604205 0.4499096 -2.3507664
-0.84261203 0.44711283 -2.3511925
-0.8614763 0.44928119 -2.3490639
-0.869537 0.44736552 -2.3478248
-0.81000715 0.4372966 -2.3519926
-0.84274524 0.43619141 -2.3496826
-0.86573207 0.43713623 -2.350065
-0.87145001 0.44030643 -2.3516231
-0.87918299 0.44049621 -2.3512053
-0.88181502 0.44105756 -2.3458741
-0.89211452 0.48212305 -2.3607814
-0.82234949 0.46959278 -2.3593819
-0.82860476 0.46876281 -2.3624883
-0.83924186 0.4694438 -2.3646705
-0.84332019 0.46997339 -2.3617854
-0.8474533 0.47442499 -2.3655996
-0.8630479 0.47486719 -2.3595867
-0.81875122 0.45849547 -2.3653786
-0.82522643 0.45975563 -2.3601971
-0.83815181 0.46415782 -2.3657193
-0.84501255 0.46388268 -2.3605535
-0.85659796 0.46374166 -2.3612967
-0.86520892 0.46274933 -2.3593225
-0.87837279 0.46347868 -2.3597019
-0.7727949 0.45765182 -2.3626151
-0.78600788 0.45617867 -2.3625941
-0.79850608 0.45539269 -2.358952
-0.80870479 0.45192847 -2.3595338
-0.81609625 0.45351887 -2.3634324
-0.82416773 0.450517 -2.3604536
-0.83287084 0.45649797 -2.3587286
-0.83574963 0.45143297 -2.3638093
-0.85560459 0.4532361 -2.3613064
-0.80377263 0.44139916 -2.3580117
-0.81048411 0.4404777 -2.3578408
-0.82552344 0.4414517 -2.358901
-0.84034961 0.44687432 -2.360163
-0.85642409 0.4454051 -2.3603818
-0.87319952 0.44456792 -2.3602271
-0.87869644 0.44403288 -2.3565826
-0.78413051 0.43815717 -2.3613207
-0.79750901 0.43808264 -2.3556347
-0.81379265 0.43804362 -2.363296
-0.82814753 0.43902171 -2.3582556
-0.82247591 0.47628015 -2.3777397
-0.83078325 0.47661224 -2.3737955
-0.83310884 0.47655344 -2.3736515
-0.8523345 0.48024327 -2.3780496
-0.87126207 0.47856608 -2.3753636
-0.80315971 0.47241566 -2.3743165
-0.81685072 0.47321665 -2.373157
-0.82306021 0.47139597 -2.3708515
-0.8291387 0.47142655 -2.373642
-0.8379091 0.46750587 -2.3743372
-0.78430331 0.45917892 -2.3727648
-0.80453086 0.4624778 -2.3775001
-0.81762719 0.45891395 -2.3710487
-0.82320839 0.46571079 -2.3708351
-0.8285917 0.4592452 -2.3732631
-0.84247208 0.45816913 -2.3718228
-0.85633999 0.46421182 -2.3706641
-0.77150881 0.45585948 -2.375351
-0.8019281 0.45512459 -2.371969
-0.81555724 0.45240873 -2.372416
-0.8206023 0.44821253 -2.3674262
-0.82838631 0.45402205 -2.3703594
-0.87310052 0.45014206 -2.3742526
-0.80199426 0.44523719 -2.3740885
-0.81508327 0.44343841 -2.3689845
-0.82930225 0.44005108 -2.3674223
-0.83340001 0.44342223 -2.3655989
-0.8463487 0.44237265 -2.3739388
-0.85263717 0.44586587 -2.3713305
-0.87166971 0.44387412 -2.3672609
-0.87161988 0.48423076 -2.3819733
-0.82903016 0.47828877 -2.3854635
-0.83425105 0.47482866 -2.3789628
-0.85391837 0.47872657 -2.379019
-0.80499077 0.47333542 -2.3845503
-0.81124979 0.46607813 -2.3831408
-0.81906152 0.46781957 -2.3785956
-0.82283086 0.47017929 -2.382514
-0.82995784 0.47069317 -2.3812692
-0.849922 0.47423011 -2.379647
-0.77242917 0.46138835 -2.3802459
-0.79028207 0.45705926 -2.3823788
-0.80364549 0.45738107 -2.3809295
-0.81602204 0.46049601 -2.3794379
-0.82074893 0.45715246 -2.3859351
-0.82885408 0.45752919 -2.3814852
-0.83289373 0.45974925 -2.3852971
-0.84372181 0.45866889 -2.3784051
-0.78841215 0.45280915 -2.3796675
-0.81054437 0.44560668 -2.3840754
-0.81447983 0.44844779 -2.3813643
-0.82189286 0.44963256 -2.3774445
-0.82637566 0.45249978 -2.3784258
-0.83388662 0.4478257 -2.3753254
-0.77759212 0.4418557 -2.3796623
-0.78070629 0.44255352 -2.3811445
-0.80787176 0.44396067 -2.3822911
-0.82280225 0.44311118 -2.3780253
-0.83466893 0.48196614 -2.3966286
-0.84737825 0.48207563 -2.3964174
-0.86410654 0.48760855 -2.3980286
-0.78249621 0.47558746 -2.3953681
-0.81072003 0.48067278 -2.3965962
-0.82357019 0.47940519 -2.3982506
-0.79699939 0.4638212 -2.3950095
-0.80026388 0.46448034 -2.389169
-0.81090117 0.46714503 -2.3952234
-0.81784767 0.46768886 -2.3951128
-0.82269531 0.46879748 -2.3948064
-0.82829618 0.47183523 -2.3880987
-0.83477843 0.46445447 -2.3941398
-0.75641298 0.45943338 -2.3942873
-0.76928008 0.45897722 -2.3926167
-0.80880976 0.45912504 -2.3939006
-0.81537062 0.45577037 -2.3908038
-0.82301605 0.46291682 -2.3910007
-0.79663104 0.44682017 -2.3918417
-0.80973315 0.44835836 -2.3929338
-0.81695336 0.44944671 -2.3877094
-0.82456112 0.44852793 -2.3928311
-0.78928131 0.44374174 -2.3850324
-0.83665699 0.4449909 -2.3858755
-0.82228351 0.48415592 -2.4047747
-0.82703692 0.48459992 -2.402627
-0.78242207 0.47355092 -2.4018295
-0.78697956 0.4788613 -2.4044323
-0.79500568 0.47608504 -2.4040849
-0.79950964 0.4773531 -2.4063303
-0.81056929 0.47972336 -2.4002149
-0.813218 0.4771913 -2.4067094
-0.82954258 0.4760085 -2.4015691
-0.83900011 0.48059851 -2.405014
-0.73299628 0.46619168 -2.403048
-0.74586666 0.46565658 -2.4014876
-0.76268762 0.46401253 -2.4031661
-0.78745341 0.46549535 -2.4001777
-0.79762685 0.46685386 -2.4017801
-0.80130094 0.46842381 -2.3996971
-0.80668175 0.46205375 -2.4009399
-0.81351751 0.46339458 -2.4027469
-0.82622492 0.46324018 -2.4026418
-0.7564348 0.45683405 -2.4030497
-0.76917636 0.45644274 -2.4008164
-0.78160197 0.45589691 -2.401747
-0.79187191 0.45680195 -2.4049444
-0.80405164 0.45463562 -2.3977568
-0.80916315 0.46035305 -2.4054914
-0.81474286 0.459705 -2.4031971
-0.82223636 0.46097332 -2.3992894
-0.72474062 0.45191899 -2.4012811
-0.73433113 0.44738576 -2.4006643
-0.74629319 0.4477571 -2.399061
-0.76147902 0.44637236 -2.4017506
-0.77096689 0.44519153 -2.3988049
-0.77417326 0.44589639 -2.3998508
-0.78755498 0.45029944 -2.3967252
-0.79811239 0.44756153 -2.3980112
-0.80216503 0.44918287 -2.3983228
-0.80820704 0.44679055 -2.3962984
-0.81497079 0.45119658 -2.396625
-0.77506024 0.4799287 -2.4148562
-0.80276984 0.48221651 -2.4158344
-0.80921018 0.48313633 -2.4133785
-0.81621778 0.48512122 -2.4151423
-0.77717865 0.4723244 -2.4150975
-0.78347552 0.47178024 -2.4148149
-0.79591548 0.47437009 -2.4109921
-0.8043797 0.47442028 -2.4099693
-0.81435388 0.47579235 -2.4143312
-0.82096416 0.4740653 -2.4160151
-0.82858354 0.47627294 -2.4132335
-0.72562045 0.46683091 -2.4134214
-0.74939948 0.46290454 -2.413327
-0.77431113 0.46527195 -2.4132977
-0.7897194 0.46575254 -2.4095218
-0.80298334 0.4694396 -2.4129248
-0.80948377 0.46379277 -2.4146411
-0.81703234 0.46791625 -2.4092171
-0.77082944 0.45853794 -2.4118931
-0.7738747 0.45498282 -2.4132979
-0.77848434 0.45368665 -2.4139433
-0.800991 0.45871076 -2.4086106
-0.80940443 0.45941436 -2.4066989
-0.82823461 0.45727283 -2.4050055
-0.76894385 0.44822231 -2.4112182
-0.77693653 0.44963342 -2.4100633
-0.79254252 0.45133221 -2.4073517
-0.78738368 0.48355451 -2.4219503
-0.79529613 0.48268664 -2.424216
-0.73002762 0.47316068 -2.4216835
-0.75274658 0.46866331 -2.4201016
-0.76301467 0.47736904 -2.4233305
-0.76780516 0.47115403 -2.4228787
-0.77584946 0.47697484 -2.4210808
-0.78165591 0.4702622 -2.420105
-0.7878111 0.47186062 -2.4191759
-0.80217367 0.4767364 -2.4247754
-0.81444514 0.47455373 -2.4175339
-0.82420301 0.47257113 -2.4225161
-0.749672 0.46013564 -2.4223099
-0.76453388 0.468409 -2.4174721
-0.767928 0.46650973 -2.4229145
-0.78139395 0.46596658 -2.4206979
-0.79422754 0.46539655 -2.417177
-0.80129498 0.46322027 -2.4197278
-0.80664051 0.46692663 -2.4202888
-0.82023162 0.46455374 -2.4195719
-0.76235712 0.45486864 -2.419488
-0.76742172 0.45332414 -2.4163351
-0.78160053 0.45396045 -2.4172359
-0.7933163 0.45154628 -2.4195008
-0.80939144 0.45356196 -2.4181948
-0.81750226 0.45885289 -2.4191225
-0.82005799 0.45486143 -2.4223495
-0.78048104 0.48734444 -2.4355562
-0.81065762 0.49073973 -2.4363494
-0.78336781 0.47703087 -2.4327233
-0.79502398 0.48185694 -2.4314775
-0.80322164 0.48376414 -2.4294164
-0.80824673 0.48617771 -2.429002
-0.72919983 0.46687812 -2.4342744
-0.76716679 0.4675377 -2.4304857
-0.77271944 0.46746016 -2.4335048
-0.78152126 0.47313881 -2.4314799
-0.78618306 0.47001281 -2.4322259
-0.71116769 0.46131819 -2.4290593
-0.74225819 0.46641508 -2.432579
-0.76742923 0.46287027 -2.4306574
-0.78877741 0.46361274 -2.4299288
-0.79394215 0.46210942 -2.4260554
-0.79855859 0.46675581 -2.4290261
-0.74287105 0.45050791 -2.4290965
-0.75246692 0.45176226 -2.4335687
-0.76278019 0.45135239 -2.427217
-0.76741636 0.45121911 -2.429826
-0.77476746 0.45697424 -2.430274
-0.7791903 0.45682085 -2.4322495
-0.80109531 0.45345584 -2.4272339
-0.78708333 0.48592994 -2.4432373
-0.7948634 0.48774043 -2.4431891
-0.81263739 0.48812976 -2.4405315
-0.82553071 0.487973 -2.4404249
-0.74333131 0.4812488 -2.4451785
-0.76057631 0.47626063 -2.4461622
-0.76843303 0.47776848 -2.4417186
-0.77334964 0.47964358 -2.4448068
-0.77974659 0.47926119 -2.4417608
-0.78969795 0.48102096 -2.4413428
-0.74529874 0.47193396 -2.4391103
-0.75545979 0.46882588 -2.4390402
-0.76170796 0.47004977 -2.4435816
-0.7685461 0.46549308 -2.442323
-0.77267367 0.47165185 -2.437278
-0.78158015 0.47132951 -2.4401011
-0.78850454 0.46938798 -2.4417291
-0.7398693 0.46235958 -2.4391818
-0.74858534 0.45880485 -2.4361377
-0.75800198 0.45876381 -2.4427001
-0.76710039 0.46019453 -2.4438014
-0.77950311 0.45848429 -2.4374533
-0.78605175 0.46295589 -2.441999
-0.73226595 0.45379049 -2.4373281
-0.74376148 0.45486373 -2.4354196
-0.76080394 0.45272216 -2.4380481
-0.77736014 0.4557704 -2.4420311
-0.79041386 0.49403697 -2.456785
-0.76421291 0.48978204 -2.45732
-0.77556723 0.49021488 -2.4516914
-0.78312105 0.49010149 -2.4542494
-0.78650677 0.48807222 -2.452441
-0.75371444 0.4800939 -2.4476624
-0.77096766 0.47331473 -2.4541101
-0.78221887 0.48053071 -2.4480357
-0.7976045 0.48127678 -2.4487236
-0.72309971 0.47247785 -2.4548316
-0.73596913 0.47166851 -2.4510818
-0.7488386 0.4708592 -2.4473317
-0.75242239 0.47248912 -2.455368
-0.76435709 0.46940386 -2.4472599
-0.77530569 0.47405943 -2.4484079
-0.78110474 0.46879703 -2.4489477
-0.79139942 0.47208831 -2.4520688
-0.72207308 0.45465368 -2.4514155
-0.73644614 0.45582458 -2.4465117
-0.76242715 0.4560484 -2.4460797
-0.76808059 0.46475458 -2.4453845
-0.7349425 0.45384425 -2.4476655
-0.76864052 0.49227735 -2.459904
-0.74965119 0.48660773 -2.4655612
-0.76441395 0.48595768 -2.4603012
-0.77948868 0.48752961 -2.4627407
-0.79654765 0.48849899 -2.4611418
-0.71023035 0.47328719 -2.4585819
-0.72456628 0.47509056 -2.4595664
-0.73465925 0.4783476 -2.4621127
-0.73840123 0.47528028 -2.4596679
-0.75420702 0.47623825 -2.4596171
-0.76394397 0.47734851 -2.4575229
-0.77257401 0.47662321 -2.4624
-0.77996939 0.47453851 -2.4575095
-0.73566347 0.46635655 -2.4584939
-0.74031019 0.46258336 -2.461668
-0.74858016 0.46907404 -2.461508
-0.75705051 0.47166035 -2.4640942
-0.76079547 0.46802974 -2.4609523
-0.76818377 0.46635267 -2.4591384
-0.73365206 0.45747152 -2.4619422
-0.74213398 0.45688209 -2.4562359
-0.7535823 0.45674074 -2.4540441
-0.76077193 0.45908579 -2.4578061
-0.77607828 0.45772424 -2.456888
-0.78131247 0.46126509 -2.456692
-0.73723 0.4909772 -2.4726479
-0.75120115 0.49261063 -2.4704733
-0.75795293 0.49360371 -2.4745605
-0.76870209 0.49408436 -2.4729841
-0.77814704 0.49569306 -2.4707341
-0.74629629 0.48743999 -2.4729993
-0.75750804 0.48203367 -2.4674129
-0.76730478 0.48624927 -2.4705143
-0.77307838 0.48418051 -2.4747469
-0.7819674 0.48424256 -2.4691224
-0.74638927 0.47403517 -2.474246
-0.75494486 0.47886899 -2.4702823
-0.76744848 0.47705129 -2.4671314
-0.77428389 0.47788569 -2.4734733
-0.70979023 0.46768418 -2.4662452
-0.72932035 0.46590146 -2.4666743
-0.7314719 0.46595487 -2.4698188
-0.74217325 0.4660458 -2.4730947
-0.75358796 0.46426219 -2.4677005
-0.75784475 0.4699775 -2.4671266
-0.77314258 0.46589428 -2.4720242
-0.74935985 0.46076214 -2.4656882
-0.76978892 0.49966928 -2.4845066
-0.72979844 0.48778096 -2.4855518
-0.73578066 0.49227288 -2.4852061
-0.74629337 0.49634999 -2.4876974
-0.75817108 0.49559021 -2.4798286
-0.72960091 0.48190793 -2.479912
-0.73264766 0.48403734 -2.4811544
-0.74240702 0.48795164 -2.4828317
-0.74549389 0.48411381 -2.4807179
-0.75381714 0.48529825 -2.483629
-0.76512581 0.48266104 -2.4841166
-0.70352536 0.47829717 -2.4803441
-0.71680403 0.47846526 -2.4791911
-0.72665954 0.47022331 -2.4812489
-0.7324394 0.47744811 -2.476939
-0.75500387 0.47385713 -2.4770348
-0.76697671 0.47670087 -2.4773815
-0.69343561 0.46510142 -2.4769928
-0.7051475 0.46264094 -2.4767737
-0.72000462 0.46536568 -2.475337
-0.72707772 0.46526676 -2.4816799
-0.73328906 0.46549785 -2.4745088
-0.74452513 0.46096867 -2.4767685
-0.75912374 0.46593693 -2.4813702
-0.71685344 0.4602164 -2.4762294
-0.73698467 0.49621233 -2.4931743
-0.76146024 0.49843037 -2.4898729
-0.72515184 0.49195978 -2.4940276
-0.73112452 0.49522623 -2.4956293
-0.7405681 0.4911688 -2.4905274
-0.74984378 0.49250823 -2.4914365
-0.76073122 0.49423409 -2.488431
-0.69904679 0.48256755 -2.4938531
-0.72001374 0.48626256 -2.4927342
-0.7294026 0.47712645 -2.4920065
-0.7341553 0.48069063 -2.4858801
-0.73905456 0.4821327 -2.4918697
-0.7584911 0.48015818 -2.491518
-0.71301889 0.47106332 -2.489747
-0.7267189 0.47276768 -2.4875655
-0.73108429 0.46981695 -2.4914997
-0.7422722 0.4757663 -2.4865339
-0.74782872 0.47156769 -2.4926972
-0.7699185 0.46998706 -2.4837224
-0.72108418 0.46241042 -2.4835174
-0.7350204 0.46314156 -2.4873452
-0.74042362 0.46611583 -2.4878461
-0.74911708 0.46673572 -2.4902198
-0.76003939 0.4644081 -2.486191
-0.74101442 0.50067294 -2.504143
-0.75291032 0.50148207 -2.5032847
-0.72156262 0.49169904 -2.4991229
-0.72665787 0.48949906 -2.4997256
-0.73066157 0.49398264 -2.5020919
-0.70838571 0.47877437 -2.4963126
-0.72096068 0.48111081 -2.4997919
-0.73023987 0.48238328 -2.5008779
-0.73902434 0.47926277 -2.5016465
-0.75115943 0.48239747 -2.5013154
-0.71999371 0.47419125 -2.4979899
-0.73442525 0.47230652 -2.4981494
-0.74416035 0.47499958 -2.5002167
-0.716447 0.46431959 -2.4939573
-0.72488499 0.46457931 -2.4970784
-0.74728745 0.46545741 -2.4964232
-0.75199395 0.50466442 -2.5081205
-0.76208454 0.50460303 -2.5138414
-0.72632396 0.50050879 -2.508148
-0.74165893 0.49841213 -2.5094273
-0.71762156 0.4860599 -2.5125525
-0.72462499 0.48932812 -2.5131688
-0.73121303 0.48701304 -2.5086548
-0.69918489 0.48149437 -2.5144119
-0.71264303 0.48101726 -2.5126646
-0.7193796 0.47666234 -2.5132334
-0.72798222 0.47893301 -2.5062869
-0.73924971 0.47895926 -2.5084128
-0.72009081 0.46890023 -2.5109611
-0.72636956 0.46938357 -2.5060158
-0.73369646 0.46988982 -2.5065629
-0.73181063 0.50632226 -2.5264976
-0.74519563 0.50643754 -2.5262749
-0.74998677 0.50346577 -2.5178657
-0.72207987 0.49667537 -2.5219705
-0.72492552 0.49954042 -2.5189626
-0.73409069 0.4964636 -2.5221946
-0.71378225 0.48939979 -2.5191257
-0.7234832 0.48897567 -2.520617
-0.73140734 0.48677802 -2.5223544
-0.74612838 0.48592827 -2.5185854
-0.7017622 0.47349495 -2.5212386
-0.70619035 0.47877571 -2.5188944
-0.71184194 0.47501537 -2.5151999
-0.71908689 0.47794235 -2.5171149
-0.73396981 0.47971308 -2.5190473
-0.71068424 0.46876505 -2.5181582
-0.71949494 0.47148937 -2.5204144
-0.71815258 0.50137484 -2.5343664
-0.73144728 0.50503647 -2.535794
-0.73655182 0.50805032 -2.5341516
-0.74826211 0.50624239 -2.5283453
-0.74993497 0.50788772 -2.5340412
-0.71506107 0.49240705 -2.5346479
-0.71960783 0.49588642 -2.5275376
-0.72297478 0.49181715 -2.5258672
-0.73249173 0.49903566 -2.529691
-0.71338069 0.48912859 -2.5263662
-0.73134196 0.48544931 -2.5288911
-0.73648059 0.48960653 -2.531543
-0.74546373 0.48682278 -2.5254769
-0.74986374 0.48944387 -2.5314326
-0.71861321 0.47744253 -2.5287564
-0.71237719 0.50242639 -2.5401621
-0.71703809 0.50323433 -2.5422511
-0.70614374 0.49309444 -2.5396595
-0.72071135 0.49295175 -2.5429103
-0.69139165 0.48528934 -2.535219
-0.7044819 0.48552459 -2.5367463
-0.71083379 0.48458788 -2.5374606
-0.72605008 0.48621383 -2.5379043
-0.7106654 0.47902814 -2.541054
-0.71882707 0.47349247 -2.538137
-0.70336032 0.50707269 -2.5562243
-0.71148074 0.50980473 -2.5520175
-0.72112989 0.51120675 -2.5537822
-0.7353223 0.50889838 -2.556263
-0.74353623 0.51107508 -2.5537839
-0.7067312 0.5012691 -2.5517344
-0.73831171 0.50412345 -2.5511513
-0.70123845 0.48809469 -2.552834
-0.71730012 0.49379951 -2.5544965
-0.72279161 0.49112788 -2.553349
-0.74068111 0.4927828 -2.5502999
-0.71530074 0.48043671 -2.5463514
-0.72053301 0.48488683 -2.5441818
-0.73680621 0.48706022 -2.5517848
-0.7030558 0.47665438 -2.545716
-0.72008163 0.51506281 -2.5624051
-0.6839506 0.50797176 -2.5592031
-0.69761801 0.50748718 -2.5574291
-0.71188003 0.51165152 -2.5614173
-0.7159192 0.5139004 -2.5659323
-0.72998333 0.51268649 -2.5628788
-0.70121163 0.498368 -2.5576632
-0.71232784 0.50232542 -2.5595224
-0.71606338 0.49744472 -2.5622005
-0.73435634 0.50416619 -2.5577152
-0.69900423 0.49097106 -2.5582111
-0.70446759 0.49055091 -2.5614514
-0.71156192 0.48901322 -2.5609109
-0.71708494 0.48768142 -2.554358
-0.7281611 0.49511236 -2.5581882
-0.69734234 0.47806337 -2.5588379
-0.71199495 0.48077029 -2.5590506
-0.7264455 0.48383212 -2.5606518
-0.7132811 0.51642835 -2.5731616
-0.73797596 0.51968896 -2.5691011
-0.69446284 0.50876331 -2.5714247
-0.69613016 0.51032329 -2.5716746
-0.70854902 0.50667506 -2.5664458
-0.70886421 0.50892293 -2.5736558
-0.72157031 0.51124942 -2.5684545
-0.72654372 0.50983912 -2.5711737
-0.73285931 0.50592387 -2.5726039
-0.69336486 0.50259852 -2.5713937
-0.70500439 0.50066733 -2.5657952
-0.72228611 0.49507657 -2.5687623
-0.68586206 0.48507845 -2.5677655
-0.6916405 0.49242523 -2.5727468
-0.70092344 0.48562095 -2.5676615
-0.70480168 0.49011442 -2.5682056
-0.71844488 0.49105427 -2.5664086
-0.69237077 0.48169503 -2.5666735
-0.71181113 0.48016092 -2.5691092
-0.69085324 0.51666284 -2.5816391
-0.70509964 0.51712918 -2.5810258
-0.7088024 0.51746672 -2.5857806
-0.71732104 0.51492023 -2.5841274
-0.70661849 0.51049519 -2.5805244
-0.7086879 0.50554508 -2.5755148
-0.69354492 0.50046694 -2.5810812
-0.6954875 0.49416843 -2.5823588
-0.70418501 0.49678051 -2.576895
-0.71363014 0.4983696 -2.582366
-0.7213555 0.49818829 -2.5830472
-0.73529565 0.49913776 -2.5829546
-0.70480061 0.49050939 -2.5753474
-0.73049194 0.4914057 -2.5760682
-0.70355946 0.48328388 -2.5761328
-0.69270891 0.51883554 -2.5891831
-0.71065491 0.51756853 -2.5933642
-0.72486132 0.5169363 -2.5870352
-0.68524736 0.50190377 -2.5911617
-0.68890733 0.50155646 -2.5898921
-0.70504797 0.50876462 -2.5915072
-0.70571363 0.49776602 -2.5878654
-0.72323316 0.49989319 -2.5840411
-0.69810843 0.48469666 -2.5887392
-0.68659043 0.52194262 -2.6050644
-0.69690663 0.51901329 -2.6054232
-0.71283364 0.52351719 -2.6049137
-0.69931507 0.51452434 -2.599556
-0.70301837 0.51606679 -2.605056
-0.71053284 0.51678932 -2.6000667
-0.69764692 0.50353283 -2.5989625
-0.70647514 0.50105488 -2.5991542
-0.69566876 0.49546504 -2.6000938
-0.70643711 0.49655181 -2.6018467
-0.68127817 0.48693785 -2.6011157
-0.70747638 0.48981917 -2.5933068
-0.67586845 0.51777422 -2.612967
-0.70069826 0.52207071 -2.6106775
-0.64015901 0.50775814 -2.6093073
-0.68944353 0.51692051 -2.6090112
-0.69723171 0.50998777 -2.6124406
-0.65374792 0.49965656 -2.6046548
-0.66302544 0.506181 -2.6116633
-0.67682779 0.50601327 -2.6115494
-0.68401396 0.5030514 -2.6067266
-0.69321626 0.50212079 -2.6066391
-0.69631803 0.50495577 -2.6095731
-0.70269305 0.49896118 -2.6078577
-0.70853406 0.50604296 -2.6044209
-0.68529207 0.49117747 -2.6067572
-0.69841927 0.48988876 -2.6060209
-0.71068692 0.4939622 -2.6040337
-0.69204229 0.52536374 -2.6242809
-0.70384526 0.52949911 -2.6224728
-0.71047634 0.52636695 -2.6208525
-0.71599025 0.52796924 -2.6245518
-0.72998732 0.52738732 -2.6228547
-0.65946299 0.52035117 -2.6246796
-0.68523681 0.51881015 -2.6176207
-0.69156277 0.51871037 -2.6159778
-0.70261562 0.51744854 -2.6167772
-0.71666569 0.51774758 -2.6224246
-0.6337899 0.50949663 -2.62397
-0.64781451 0.50963616 -2.6230955
-0.66183919 0.5097757 -2.6222215
-0.69998395 0.50952649 -2.6186647
-0.65897441 0.50107086 -2.6217437
-0.67296809 0.50057471 -2.6199269
