# .PCD v0.7 - Point Cloud Data file format
VERSION 0.7
FIELDS x y z
SIZE 4 4 4
TYPE F F F
COUNT 1 1 1
WIDTH 339
HEIGHT 1
VIEWPOINT 0 0 0 1 0 0 0
POINTS 339
DATA ascii
0.59571481 -0.41104546 0.18006042
0.59191364 -0.40961188 0.16738153
0.5984875 -0.40541387 0.15257896
0.58807719 -0.40872353 0.15328768
0.57913458 -0.4178406 0.14761826
0.60506147 -0.40121591 0.13777643
0.59385121 -0.40435761 0.13821751
0.57548511 -0.41713285 0.13466443
0.57479203 -0.43227664 0.13983753
0.60068744 -0.41575626 0.12993948
0.5713343 -0.43167791 0.12743874
0.62118053 -0.40028521 0.11614644
0.6072613 -0.4115583 0.11513694
0.58131874 -0.42810878 0.12514116
0.58549041 -0.43365487 0.12366321
0.66789252 -0.41253284 0.10825787
0.62252611 -0.41362146 0.11196598
0.59126455 -0.42928898 0.10859303
0.60121906 -0.41027448 0.10080002
0.66288584 -0.42727265 0.10301453
0.65654331 -0.39006564 0.082395665
0.64017481 -0.39051875 0.090039924
0.60699308 -0.40590855 0.085729852
0.66627294 -0.4235402 0.086783491
0.59703863 -0.42492309 0.093522862
0.65565783 -0.4411718 0.089576721
0.64679641 -0.38629031 0.075130001
0.63150883 -0.38854781 0.073749974
0.66240454 -0.40104738 0.07920479
0.64679497 -0.39946568 0.081686012
0.661852 -0.40291759 0.082059376
0.65171671 -0.40445581 0.077731155
0.65118641 -0.4201605 0.085591987
0.60281265 -0.42055717 0.078452691
0.64239067 -0.40093613 0.067236222
0.61276722 -0.40154266 0.070659675
0.62729847 -0.40330121 0.066420764
0.6579656 -0.41552752 0.070778601
0.64693475 -0.42196235 0.070783645
0.66248715 -0.43650457 0.074653886
0.65190828 -0.432192 0.071645685
0.63732421 -0.38415068 0.058572002
0.61829484 -0.39283341 0.059440024
0.67596292 -0.39178139 0.04957803
0.64670932 -0.38774309 0.046645507
0.64901227 -0.39670768 0.052326299
0.69981146 -0.41233727 0.050511442
0.65099651 -0.407996 0.05109293
0.62885225 -0.40755796 0.054806218
0.65360481 -0.41770297 0.055764556
0.65527177 -0.42848557 0.055527657
0.63357937 -0.43022776 0.051448647
0.68274218 -0.38714838 0.034764647
0.65147316 -0.38422102 0.04035753
0.63611722 -0.38971159 0.043727562
0.62431538 -0.39281085 0.040519331
0.68881398 -0.40486792 0.043202929
0.67152411 -0.40626153 0.041151844
0.65584826 -0.4046419 0.043909665
0.71226233 -0.41438019 0.043473683
0.67614567 -0.4271701 0.044808213
0.65002668 -0.3840875 0.030748773
0.64670449 -0.38637039 0.026321659
0.6300894 -0.38844496 0.025449155
0.70811474 -0.39988348 0.033347994
0.6783033 -0.40162849 0.026338462
0.68469131 -0.42058596 0.036456514
0.65144163 -0.41901678 0.035544731
0.64020091 -0.42599931 0.036538724
0.66495019 -0.43285918 0.035075005
0.65583688 -0.42819661 0.032793872
0.67939568 -0.37359378 0.013273044
0.66669089 -0.37527299 0.018822141
0.71814698 -0.39590138 0.020131797
0.68782562 -0.41748604 0.02028339
0.66922778 -0.37157485 0.0029287562
0.68044466 -0.37646908 0.0081574991
0.65327835 -0.38217241 0.011519114
0.64424372 -0.37487042 0.0056271888
0.6209774 -0.37538558 0.010668799
0.67479509 -0.38842136 0.0065738112
0.68508244 -0.39699551 0.011525083
0.71441591 -0.41134989 0.0098386183
0.6778304 -0.403164 0.013294496
0.68980432 -0.41783562 0.014962554
0.6784386 -0.42614657 0.013882849
0.6699844 -0.42859599 0.019210039
0.66250688 -0.42393723 0.017774779
0.68454981 -0.43065977 0.013629727
0.68717456 -0.37186971 -0.0065482035
0.67559195 -0.3680979 -0.0069047883
0.65985221 -0.37797442 -0.0032834373
0.63225591 -0.37708193 0.0037517287
0.69186163 -0.39236253 -0.0032883026
0.61627811 -0.38939634 0.006127283
0.67019445 -0.40324891 -0.00012542307
0.66447127 -0.3986682 -0.00029724836
0.64890444 -0.39671275 0.0036821738
0.61874807 -0.38579571 -0.0093470439
0.66449988 -0.41147155 -0.0088499635
0.64309812 -0.4127658 -0.0039011203
0.68962049 -0.42636564 -0.0023503192
0.70985889 -0.36861637 -0.024488874
0.68144923 -0.36366901 -0.022192411
0.70777595 -0.3753317 -0.019729622
0.68969733 -0.3730481 -0.018268537
0.67042732 -0.37827906 -0.019158021
0.7389909 -0.38958269 -0.017216038
0.69864094 -0.38772956 -0.018101677
0.67709869 -0.39225981 -0.013559248
0.73187035 -0.39965591 -0.017918553
0.61404878 -0.39980647 -0.013888557
0.69167435 -0.40585935 -0.01615845
0.68742281 -0.40684262 -0.011714485
0.69469118 -0.42207149 -0.018330358
0.69272202 -0.42585111 -0.0097647719
0.72306561 -0.36049762 -0.033865638
0.69668627 -0.36517575 -0.027171109
0.66278642 -0.36444393 -0.029229827
0.65745503 -0.36782619 -0.028738216
0.7164011 -0.37109494 -0.033869006
0.69806284 -0.37739357 -0.026398428
0.67720854 -0.37852901 -0.029574569
0.71756923 -0.3880074 -0.029206313
0.70542008 -0.38309652 -0.032915063
0.68019056 -0.39478359 -0.031627771
0.66585934 -0.39300135 -0.025809675
0.71569902 -0.40221596 -0.026962314
0.67305952 -0.40726694 -0.02288191
0.68298388 -0.42132276 -0.020140674
0.70258605 -0.36071473 -0.042569622
0.758663 -0.36359113 -0.046545092
0.6639818 -0.36365831 -0.043434586
0.76503807 -0.37978366 -0.044251159
0.73867607 -0.37858081 -0.044159841
0.70473295 -0.3731342 -0.041417517
0.72530663 -0.39814019 -0.040527362
0.70098132 -0.39757663 -0.041341245
0.69761741 -0.40136564 -0.031669714
0.73216659 -0.3558152 -0.052866541
0.71697497 -0.35817263 -0.048098486
0.69938791 -0.35666326 -0.049731638
0.65696537 -0.36255395 -0.054137893
0.72996062 -0.3680079 -0.046920493
0.72502631 -0.36685818 -0.048008397
0.72355628 -0.38348049 -0.044832185
0.70029497 -0.38788721 -0.0493691
0.67613083 -0.38993272 -0.049250863
0.72904491 -0.40502831 -0.0419516
0.70890009 -0.41838497 -0.0442973
0.69331461 -0.41644299 -0.039159857
0.70438588 -0.35243058 -0.065482803
0.73972344 -0.36065799 -0.057597563
0.73339587 -0.36422241 -0.063382298
0.72405219 -0.35772985 -0.063223198
0.70478076 -0.36154023 -0.059782408
0.77104056 -0.36708841 -0.065815054
0.72769582 -0.37067729 -0.060876876
0.71140301 -0.36887479 -0.056436613
0.67382169 -0.36812422 -0.055002965
0.77596784 -0.37596351 -0.055790279
0.76804179 -0.37725875 -0.058233067
0.74828362 -0.37450504 -0.057724893
0.72954327 -0.37895361 -0.060458057
0.72095633 -0.38198024 -0.057402439
0.71492982 -0.37716606 -0.061340336
0.75456673 -0.39697281 -0.054571852
0.72661918 -0.40385619 -0.054399163
0.72467822 -0.42032969 -0.049553037
0.75356483 -0.3507762 -0.073421702
0.74655277 -0.35599074 -0.07252039
0.72393578 -0.35622987 -0.074396312
0.71912503 -0.35394946 -0.071601808
0.74107081 -0.35881132 -0.072412796
0.74419188 -0.372482 -0.065425925
0.70696497 -0.3836278 -0.064388201
0.75331992 -0.38816199 -0.068650417
0.72517115 -0.39066145 -0.067519963
0.73070961 -0.41576925 -0.065294757
0.74585193 -0.35471106 -0.084164307
0.75096107 -0.36815932 -0.080668159
0.74208105 -0.37057787 -0.081008837
0.73553038 -0.37442675 -0.076083921
0.80270916 -0.38104951 -0.08092954
0.76416492 -0.38437146 -0.080099978
0.73078007 -0.38983226 -0.074574448
0.73583883 -0.4107486 -0.071797736
0.76958877 -0.35630104 -0.092459954
0.75679564 -0.37580919 -0.087678015
0.74151736 -0.36989984 -0.091709793
0.7464571 -0.3831315 -0.08873789
0.7981016 -0.3960796 -0.089675784
0.7471391 -0.39134696 -0.089176759
0.73119575 -0.38961554 -0.083629414
0.78182918 -0.40031987 -0.086937919
0.75208163 -0.34656343 -0.099023461
0.7437551 -0.34545138 -0.098555781
0.75431597 -0.35270315 -0.10024769
0.75773013 -0.36383662 -0.095910415
0.76548731 -0.37153974 -0.10192646
0.77085477 -0.3881633 -0.097174153
0.75269425 -0.39104789 -0.097144514
0.72686124 -0.40480429 -0.091174908
0.77766365 -0.41579705 -0.096552581
0.76425135 -0.34944895 -0.10862568
0.76449931 -0.35951394 -0.11115263
0.75573963 -0.36124343 -0.11085451
0.73931617 -0.3599315 -0.10698196
0.74750435 -0.36537299 -0.10733567
0.73219311 -0.39181963 -0.10715768
0.78375298 -0.3431536 -0.12131095
0.77577227 -0.34021899 -0.11832515
0.76704067 -0.34198904 -0.11728889
0.74782461 -0.33975512 -0.12526825
0.79405302 -0.34854376 -0.120548
0.78759545 -0.34722584 -0.12287365
0.77436829 -0.3456853 -0.12109183
0.76815218 -0.34567446 -0.11870533
0.75942373 -0.34837756 -0.11634475
0.78925604 -0.36388418 -0.1188506
0.79452986 -0.36863959 -0.12213832
0.76080483 -0.36456239 -0.11878861
0.74338311 -0.37266672 -0.11427742
0.74316972 -0.38056171 -0.11488117
0.79484922 -0.38493147 -0.11634529
0.76671547 -0.38659117 -0.11590578
0.76329643 -0.38888159 -0.11540995
0.75647861 -0.39664313 -0.11689815
0.80053091 -0.40630078 -0.11379804
0.78329283 -0.40462092 -0.1097655
0.78254145 -0.33589634 -0.13356739
0.79566383 -0.34349278 -0.13520531
0.79063284 -0.3384518 -0.13634442
0.76453149 -0.34405199 -0.13244179
0.77126843 -0.35519129 -0.12639487
0.74352181 -0.35483247 -0.13275839
0.78822422 -0.35690036 -0.1314562
0.78287077 -0.3630009 -0.13042337
0.77092189 -0.36079878 -0.13125476
0.76408225 -0.36079651 -0.12809937
0.75010234 -0.36837587 -0.12940748
0.77405775 -0.3851203 -0.12677126
0.75549155 -0.38945845 -0.12729208
0.73891234 -0.38752878 -0.12228775
0.75376767 -0.33526143 -0.14077951
0.79809499 -0.34276932 -0.13780119
0.77999818 -0.34250239 -0.13694078
0.79835659 -0.36236963 -0.13908304
0.77876943 -0.37823963 -0.13988987
0.79110438 -0.40369275 -0.13543206
0.78491867 -0.40025192 -0.13751258
0.77128166 -0.40034845 -0.13718207
0.80797124 -0.33884913 -0.15081191
0.80354625 -0.33800456 -0.15123595
0.79751277 -0.33374998 -0.15137787
0.78931046 -0.33157367 -0.14880964
0.78311759 -0.33399352 -0.15462123
0.76963931 -0.33972642 -0.14853886
0.79473293 -0.3552615 -0.14737338
0.7861281 -0.35314706 -0.14489579
0.74946487 -0.35033882 -0.14826965
0.7915625 -0.35873148 -0.14467181
0.75682175 -0.36408499 -0.14453755
0.75514382 -0.37150797 -0.1461329
0.80439276 -0.3290481 -0.16641136
0.78509706 -0.3316617 -0.15874833
0.775787 -0.33207667 -0.16229366
0.79300803 -0.34844524 -0.15992926
0.80151147 -0.35347229 -0.16107152
0.76546532 -0.35179231 -0.15421326
0.7816233 -0.36784235 -0.15344717
0.78746116 -0.37397018 -0.15413833
0.77126473 -0.37310517 -0.15214363
0.8148362 -0.33063084 -0.17095648
0.80775064 -0.32849231 -0.17620076
0.8026529 -0.32872745 -0.17526287
0.79513663 -0.3279269 -0.17111906
0.79181838 -0.33780238 -0.1702729
0.80894589 -0.35019261 -0.17316872
0.77145237 -0.34726542 -0.16983914
0.79615283 -0.36970076 -0.16838679
0.78850323 -0.36314049 -0.16848065
0.7771185 -0.38253763 -0.16199854
0.80431336 -0.32658526 -0.17699856
0.79809231 -0.32882106 -0.18416592
0.8260563 -0.34547606 -0.18300247
0.80062509 -0.36926576 -0.17107821
0.78399831 -0.37783578 -0.17703202
0.77319276 -0.38256711 -0.17516623
0.83043069 -0.32641503 -0.19219911
0.81668419 -0.32005087 -0.19616942
0.78230226 -0.33643922 -0.19356877
0.80293101 -0.34138665 -0.18991539
0.79603523 -0.34101152 -0.1895656
0.84369683 -0.34714371 -0.18855989
0.83698118 -0.34802476 -0.19022816
0.81763762 -0.34592319 -0.18741716
0.81244302 -0.3597413 -0.18804944
0.7953831 -0.3584387 -0.18351412
0.8271057 -0.32037681 -0.20106442
0.81379366 -0.32502127 -0.20357445
0.80412364 -0.32426059 -0.19990765
0.82218862 -0.3434692 -0.19810711
0.80046105 -0.3586745 -0.19631085
0.7882964 -0.35792243 -0.19128937
0.7908783 -0.37313396 -0.19206549
0.83368021 -0.3156862 -0.2154634
0.82074237 -0.32552317 -0.20635483
0.82370615 -0.33580345 -0.21207668
0.80353117 -0.3323437 -0.21099007
0.81026119 -0.35478449 -0.20922129
0.79681629 -0.37376559 -0.20636588
0.85530418 -0.31557631 -0.22082113
0.84781414 -0.31787616 -0.22069602
0.82767379 -0.31847289 -0.21994767
0.82325315 -0.32100829 -0.21693049
0.82914263 -0.33077037 -0.22359346
0.78941339 -0.33368477 -0.21671675
0.78887135 -0.34761658 -0.21585402
0.80914301 -0.34903499 -0.21358104
0.78777218 -0.36241427 -0.21736841
0.80470544 -0.3214165 -0.23397765
0.79540038 -0.32915789 -0.23234263
0.81954944 -0.33625337 -0.22671001
0.83063906 -0.34546632 -0.2310698
0.81602299 -0.34433314 -0.22861452
0.80661643 -0.36987561 -0.21927634
0.83470649 -0.32039353 -0.24410553
0.83308375 -0.32690248 -0.24121447
0.81405288 -0.3249869 -0.23807035
0.81181973 -0.33044109 -0.23899251
0.82986146 -0.34700459 -0.23504217
0.82038867 -0.34626129 -0.23646913
0.80769342 -0.36562014 -0.23172379
0.81689316 -0.32184568 -0.24820432
0.84123689 -0.34176219 -0.2422585
0.82901382 -0.34202453 -0.2506085
0.81631869 -0.36138338 -0.24586318
0.83850294 -0.35675892 -0.25251111
