# .PCD v0.7 - Point Cloud Data file format
VERSION 0.7
FIELDS x y z
SIZE 4 4 4
TYPE F F F
COUNT 1 1 1
WIDTH 154
HEIGHT 1
VIEWPOINT 0 0 0 1 0 0 0
POINTS 154
DATA ascii
-0.10739402 -0.86110115 0.65273523
-0.12155093 -0.8579064 0.64749682
-0.093543559 -0.85517246 0.64319783
-0.12592694 -0.8587122 0.63713908
-0.11241635 -0.86015624 0.64546108
-0.11804669 -0.86018914 0.63945609
-0.13464446 -0.85925299 0.62828946
-0.12057943 -0.85095388 0.6216467
-0.11565471 -0.86106777 0.61184084
-0.14092626 -0.84608114 0.59744382
-0.16711351 -0.85053807 0.60587263
-0.1297245 -0.85993552 0.60485208
-0.11783453 -0.85579264 0.59098428
-0.15645275 -0.84831876 0.59108388
-0.16051842 -0.84833002 0.59358269
-0.17631593 -0.84778005 0.59281892
-0.1437943 -0.85880333 0.5978632
-0.0087547451 -0.848207 0.58326721
-0.15109965 -0.8436448 0.58534241
-0.16973692 -0.84570092 0.58134645
-0.18551832 -0.8450219 0.57976514
-0.14738347 -0.85471904 0.58044994
-0.099816814 -0.83969283 0.56961292
0.00015399093 -0.84112722 0.5726679
-0.022471953 -0.84710318 0.57645363
-0.036189161 -0.84599924 0.56963992
-0.05698321 -0.84694052 0.57531565
-0.10833238 -0.84412563 0.57430673
-0.12928903 -0.84848881 0.57364929
-0.16127306 -0.8412084 0.573241
0.025262881 -0.84052932 0.56024325
-0.012806067 -0.839742 0.56468499
-0.025766123 -0.83835679 0.55670208
-0.095145479 -0.83833992 0.56245387
-0.11299151 -0.83828473 0.56149781
-0.17144649 -0.83877206 0.56113952
-0.049906369 -0.84489542 0.56282628
-0.14257383 -0.84706897 0.56546634
-0.038726185 -0.83697164 0.54871917
-0.077340789 -0.84268779 0.54919887
-0.12425784 -0.83607024 0.54961449
-0.050191052 -0.84712946 0.54886484
-0.063623577 -0.84379166 0.55601251
-0.067183524 -0.84709501 0.5509696
-0.15585862 -0.84564906 0.5572834
-0.14902683 -0.83385289 0.54271287
0.024623532 -0.84197336 0.5426935
-0.051686242 -0.83558643 0.54073626
-0.06360475 -0.83433604 0.54598981
-0.072298616 -0.84035426 0.54711801
-0.091057993 -0.84158391 0.54238522
-0.1450441 -0.84049827 0.54027379
-0.080275096 -0.84418887 0.54444236
-0.12994853 -0.83165741 0.53169048
-0.13463216 -0.83317363 0.53840929
-0.15802264 -0.83115661 0.52995223
0.010887308 -0.84116548 0.53310597
-0.082516439 -0.83750117 0.53608179
-0.17140853 -0.83861446 0.53446668
-0.0026980885 -0.83492553 0.52476746
-0.083190322 -0.82964569 0.52269244
-0.09273427 -0.83464807 0.52504563
-0.14500645 -0.83027679 0.5272041
-0.18047215 -0.83589792 0.52160984
-0.156738 -0.83825296 0.52993715
-0.00075503299 -0.82844007 0.50956649
-0.090566419 -0.83143085 0.51678753
-0.10295209 -0.83179504 0.51400942
-0.13986586 -0.83776367 0.5158695
-0.014136927 -0.82736325 0.50291932
-0.05265443 -0.82802224 0.50154006
-0.1027759 -0.82495534 0.49939513
-0.11482823 -0.82880121 0.50189745
-0.10352647 -0.8300457 0.50880468
-0.12678902 -0.83650339 0.5094375
-0.14560734 -0.83720613 0.50420022
-0.02751882 -0.82628638 0.49627227
-0.040900711 -0.82520962 0.48962513
-0.062303007 -0.82571167 0.49006295
-0.072217584 -0.83047163 0.49035835
-0.1294466 -0.82727534 0.49283883
-0.022358079 -0.83312267 0.49234062
-0.13708448 -0.83362865 0.49831745
-0.054282606 -0.82413268 0.48297805
-0.05930813 -0.82314336 0.48421377
-0.1125687 -0.82261014 0.48774642
-0.012616793 -0.82949883 0.48033738
-0.030954411 -0.82946473 0.48394728
-0.09680219 -0.83220208 0.48237842
-0.11922404 -0.82428348 0.48300815
-0.08331044 -0.83328784 0.4890801
0.014087964 -0.82108074 0.47055182
-0.068257704 -0.82390594 0.47488612
-0.071951583 -0.82340091 0.47858581
-0.13064314 -0.82209086 0.47291452
-0.034545708 -0.82884461 0.47539222
-0.059268601 -0.82843596 0.47385314
-0.073156193 -0.82485414 0.47891831
-0.082283691 -0.82766098 0.47948611
-0.11029393 -0.83111638 0.47567672
-0.1553667 -0.82450509 0.47687301
-0.16665298 -0.82973522 0.47787175
-0.0077667367 -0.81755984 0.46620572
-0.067063317 -0.82707751 0.460922
-0.09234979 -0.82485026 0.46861374
-0.14294282 -0.82014054 0.46634275
-0.0078058001 -0.81946892 0.45148522
-0.15376128 -0.81761771 0.45577785
0.0053611831 -0.82052845 0.45802557
-0.010178785 -0.82235914 0.45472923
-0.053924348 -0.82515198 0.45609069
-0.086356916 -0.82149714 0.45577544
-0.10241588 -0.82203954 0.45774144
-0.12588868 -0.82659364 0.45279896
0.0042955447 -0.8129003 0.44414353
-0.020972785 -0.81840926 0.44494486
-0.072281152 -0.81311768 0.44812933
-0.078989081 -0.81246483 0.44702408
-0.11248198 -0.81922883 0.44686916
-0.11902197 -0.81218761 0.44043851
-0.15173987 -0.81322938 0.44115174
-0.17123355 -0.81715757 0.44872525
-0.022729542 -0.82101774 0.44699842
-0.034139771 -0.81734973 0.4384045
-0.047831059 -0.81833488 0.43153682
-0.094595306 -0.80883312 0.42840517
-0.060473736 -0.81523061 0.42532378
-0.12008634 -0.81502074 0.42596102
-0.1326142 -0.81360751 0.42512453
-0.069254614 -0.81094277 0.4189128
-0.073640719 -0.81417102 0.4187834
-0.1057524 -0.80669087 0.4185431
-0.13132948 -0.81286192 0.41602287
-0.079101257 -0.80819339 0.40827751
-0.085483335 -0.81431055 0.40834445
-0.12984304 -0.80953705 0.40972301
-0.14257263 -0.81070316 0.40608475
-0.1392443 -0.80082333 0.39787537
-0.15381578 -0.80854434 0.39614657
-0.13577795 -0.79746145 0.38221732
-0.086260781 -0.80084455 0.3859818
-0.098925039 -0.80543649 0.38872075
-0.095800005 -0.79998118 0.37341863
-0.10864116 -0.79994512 0.37637174
-0.10856377 -0.80590153 0.3791244
-0.10678881 -0.79787111 0.36370534
-0.1184878 -0.79719567 0.36573642
-0.14535576 -0.79516774 0.37082437
-0.15493356 -0.79287404 0.35943142
-0.11777762 -0.79576123 0.35399199
-0.16965365 -0.79659224 0.3622047
-0.12860017 -0.79163247 0.34624505
-0.14195623 -0.79906249 0.3511126
-0.14871489 -0.7913757 0.33645234
