# .PCD v0.7 - Point Cloud Data file format
VERSION 0.7
FIELDS x y z
SIZE 4 4 4
TYPE F F F
COUNT 1 1 1
WIDTH 588
HEIGHT 1
VIEWPOINT 0 0 0 1 0 0 0
POINTS 588
DATA ascii
1.1168182 -0.10808513 -1.1034218
1.1364255 -0.10820737 -1.1070101
1.1127989 -0.10124335 -1.1204238
1.1001114 -0.099071808 -1.129778
1.1507534 -0.099414088 -1.1399503
1.1279905 -0.10150293 -1.1381084
1.1152474 -0.098745428 -1.1421943
1.0949377 -0.095024444 -1.1447974
1.0789917 -0.096008763 -1.1389616
1.1696509 -0.093753815 -1.1546144
1.1625873 -0.09104044 -1.1563891
1.1521491 -0.098239757 -1.1508759
1.1468759 -0.10109834 -1.1514733
1.1136905 -0.095406935 -1.1510096
1.1071852 -0.094636314 -1.1495234
1.1611426 -0.092031397 -1.1615244
1.1491524 -0.092196338 -1.1614298
1.109665 -0.090715416 -1.1592356
1.1741346 -0.089884289 -1.1751335
1.1660597 -0.08883322 -1.1708292
1.1609039 -0.094030567 -1.1704149
1.1411247 -0.094410397 -1.1681997
1.1259739 -0.094562583 -1.1666278
1.1123689 -0.090246461 -1.1658595
1.1874683 -0.087752581 -1.1845589
1.1175526 -0.085856616 -1.1821957
1.1795421 -0.092004687 -1.178398
1.1710349 -0.094267964 -1.1807787
1.1880275 -0.085863069 -1.190569
1.1780865 -0.090080552 -1.1875231
1.1732829 -0.08457537 -1.1920078
1.14911 -0.085734636 -1.1925031
1.1346884 -0.086330608 -1.1859702
1.1832066 -0.081633776 -1.2038245
1.1718864 -0.080747612 -1.203691
1.168026 -0.087123476 -1.2004164
1.149097 -0.090403616 -1.2023989
1.137553 -0.08869604 -1.2033985
1.1359092 -0.085425131 -1.1969171
1.180287 -0.093088895 -1.1987818
1.1834801 -0.084049344 -1.2119297
1.1752909 -0.079701498 -1.2109282
1.1582974 -0.0798278 -1.2079085
1.1405383 -0.079290412 -1.2122345
1.1785225 -0.085010268 -1.2063617
1.1999185 -0.081651971 -1.2226335
1.1814289 -0.078478828 -1.2227197
1.1580933 -0.079015978 -1.2175919
1.1541138 -0.077659979 -1.2182844
1.1450416 -0.082164854 -1.2179418
1.1245273 -0.080145806 -1.2177556
1.1637986 -0.085785739 -1.2193148
1.2055074 -0.074902751 -1.234357
1.1767907 -0.075087547 -1.2319623
1.1639127 -0.074341595 -1.2318635
1.145454 -0.075007319 -1.2290466
1.1858661 -0.087403737 -1.2334132
1.1800299 -0.079664141 -1.2274473
1.1680502 -0.078927718 -1.2269021
1.1532369 -0.078688249 -1.2295128
1.1429307 -0.079406798 -1.2293348
1.1258253 -0.081636429 -1.2267973
1.1987573 -0.076746121 -1.2412305
1.1971207 -0.076583043 -1.2426165
1.1786638 -0.075185381 -1.2422405
1.1770407 -0.073002882 -1.2384539
1.1645192 -0.074793018 -1.2437848
1.1618977 -0.074424259 -1.2409844
1.1494706 -0.074937373 -1.2436253
1.1318743 -0.074002266 -1.2372173
1.1787844 -0.08005973 -1.2437361
1.1698996 -0.069814719 -1.2474895
1.1507136 -0.07445661 -1.2446456
1.1971829 -0.071827121 -1.2606661
1.1798302 -0.069799468 -1.2628773
1.1739576 -0.068687439 -1.2557685
1.1690117 -0.070327871 -1.2616494
1.1440097 -0.066831335 -1.2603267
1.1299372 -0.070806839 -1.2595952
1.1876311 -0.073706411 -1.2594408
1.1790239 -0.074484266 -1.255717
1.1697578 -0.079423606 -1.2542866
1.1318586 -0.07563068 -1.2599429
1.1977787 -0.065844849 -1.2673205
1.1813145 -0.065079853 -1.2676889
1.1706445 -0.065514579 -1.2733508
1.1489207 -0.070780806 -1.2692978
1.1880351 -0.077096231 -1.2657548
1.1331929 -0.073592342 -1.2701795
1.1723301 -0.064858556 -1.2789893
1.1620215 -0.063311763 -1.2792088
1.2129586 -0.074136049 -1.2803997
1.196312 -0.069124006 -1.2788601
1.1522323 -0.073902771 -1.2786144
1.1456919 -0.07262639 -1.2733963
1.1986562 -0.06402614 -1.2869346
1.1876379 -0.062834568 -1.2884907
1.184986 -0.065793067 -1.293069
1.1450987 -0.063359365 -1.2844497
1.1982651 -0.076161906 -1.2856256
1.1644595 -0.072025709 -1.2875509
1.1442806 -0.071638957 -1.28576
1.3819811 -0.062706418 -1.2995955
1.3753015 -0.060314149 -1.2990192
1.1956704 -0.062152162 -1.2981511
1.1911701 -0.064563371 -1.2956407
1.180861 -0.062709898 -1.2947713
1.1637399 -0.065624699 -1.2958134
1.207505 -0.070045419 -1.2983041
1.3891817 -0.05778531 -1.31533
1.3823866 -0.055789888 -1.3149723
1.3750607 -0.05385296 -1.3144639
1.2006804 -0.059112839 -1.306008
1.1816181 -0.056508116 -1.3135839
1.1724664 -0.054466411 -1.3121256
1.1602603 -0.055911884 -1.3093044
1.4024096 -0.069033533 -1.3103004
1.2062467 -0.062576942 -1.3063685
1.2030936 -0.065341495 -1.3119036
1.1700659 -0.065694787 -1.3074285
1.1592396 -0.067388028 -1.3109697
1.3731167 -0.058927275 -1.3235774
1.2617303 -0.053357378 -1.3182402
1.1633916 -0.059243329 -1.3195919
1.3546489 -0.06617669 -1.323755
1.2417864 -0.068472475 -1.3226372
1.2241548 -0.064152032 -1.3195035
1.1589452 -0.067025155 -1.3152689
1.3142526 -0.074581951 -1.3196511
1.397016 -0.052949727 -1.3307519
1.3894712 -0.051265612 -1.3309253
1.1870816 -0.052035898 -1.3318553
1.4065875 -0.06442979 -1.3303204
1.3956522 -0.057461366 -1.3354712
1.3898607 -0.062518299 -1.3308392
1.3329667 -0.059446067 -1.3275149
1.2979809 -0.061366357 -1.3266519
1.2670305 -0.061469361 -1.3255628
1.2100618 -0.058372967 -1.3246498
1.2060984 -0.06096109 -1.3307288
1.1913846 -0.053797841 -1.3279362
1.1761638 -0.059748508 -1.3262835
1.1607624 -0.063151032 -1.3307632
1.3414383 -0.068083845 -1.3247511
1.3195823 -0.064435586 -1.3299828
1.228458 -0.066673562 -1.3289989
1.1657339 -0.062949888 -1.3251603
1.2834125 -0.073849984 -1.3283982
1.2753876 -0.077155262 -1.3253778
1.2461154 -0.074796379 -1.324421
1.3523217 -0.053170264 -1.3416976
1.3398901 -0.055024892 -1.3431045
1.2815516 -0.053014025 -1.336944
1.2762911 -0.052352458 -1.341324
1.2638955 -0.0530193 -1.3403159
1.2449775 -0.051629514 -1.3430678
1.1697552 -0.050308108 -1.3421153
1.3611125 -0.061289601 -1.3406243
1.3515098 -0.058859766 -1.3415539
1.3277105 -0.060242563 -1.340766
1.3013397 -0.059009701 -1.3396021
1.2961357 -0.056997612 -1.3431255
1.2537222 -0.064803317 -1.3423426
1.2414267 -0.063586734 -1.3419871
1.2229751 -0.059167564 -1.3383989
1.1692915 -0.054782316 -1.3349905
1.1528283 -0.061839558 -1.3322902
1.3116977 -0.069576114 -1.3387299
1.3043622 -0.069943465 -1.3348572
1.2843964 -0.070559517 -1.3376561
1.2280066 -0.0662769 -1.338361
1.4042172 -0.048069209 -1.3475811
1.3927909 -0.055568159 -1.3502474
1.3608526 -0.049628377 -1.3503847
1.3095815 -0.055861205 -1.3506804
1.2813464 -0.057147861 -1.3529758
1.2615576 -0.05421713 -1.3494288
1.1365678 -0.048053041 -1.3447711
1.3436024 -0.062830679 -1.3451438
1.3329647 -0.065503314 -1.3439368
1.2688229 -0.064710885 -1.3474236
1.2654998 -0.062792011 -1.3523324
1.244276 -0.062027082 -1.3429859
1.2246585 -0.062532209 -1.3483082
1.2148857 -0.061674349 -1.3479755
1.1835467 -0.062629916 -1.3487279
1.1783144 -0.061535612 -1.342433
1.1644893 -0.059044331 -1.3486217
1.3774511 -0.068081938 -1.3470105
1.3288287 -0.067170188 -1.3471289
1.2758453 -0.071830817 -1.3451608
1.2646898 -0.067674108 -1.3469119
1.2473296 -0.070798337 -1.3424642
1.2695454 -0.044745609 -1.3556898
1.2631621 -0.0447108 -1.3592211
1.2591617 -0.043754667 -1.358345
1.2383779 -0.043777287 -1.3590236
1.2067528 -0.044372946 -1.3632278
1.20373 -0.045696169 -1.3565931
1.1820096 -0.044448122 -1.3570702
1.1766253 -0.0479808 -1.3562962
1.1294471 -0.04552792 -1.3581537
1.3914409 -0.056754187 -1.3630338
1.3062466 -0.054598212 -1.3578783
1.2176918 -0.049965024 -1.3612127
1.2083883 -0.051102385 -1.3563739
1.1929228 -0.053168431 -1.359399
1.174695 -0.056657434 -1.359078
1.1613017 -0.057867944 -1.360394
1.2146945 -0.059690356 -1.3543242
1.1977344 -0.062429354 -1.3579991
1.1781042 -0.061114341 -1.3520423
1.2891234 -0.068233214 -1.3585712
1.2098895 -0.047733679 -1.3653634
1.1830149 -0.043900549 -1.3706837
1.1681503 -0.04341206 -1.3646499
1.1620693 -0.04209964 -1.3718119
1.1530622 -0.048858315 -1.365244
1.3280944 -0.053544804 -1.3645132
1.2209172 -0.057113916 -1.3637172
1.1870062 -0.054307893 -1.3672701
1.1855544 -0.057756037 -1.3676484
1.1698018 -0.052946553 -1.368842
1.154048 -0.051179036 -1.366274
1.1481314 -0.054966018 -1.3658355
1.3334341 -0.060042009 -1.3642282
1.1578634 -0.048761636 -1.3723916
1.1362723 -0.041715354 -1.3788453
1.1256664 -0.041096985 -1.3742787
1.1698732 -0.05593054 -1.3725152
1.162416 -0.054989964 -1.3742276
1.1427308 -0.051404804 -1.374019
1.1596905 -0.037438571 -1.3895766
1.1429116 -0.041955099 -1.383274
1.1549141 -0.045838133 -1.3875974
1.1445844 -0.045376882 -1.3901153
1.1374136 -0.046198055 -1.389659
1.1306901 -0.044022411 -1.3817066
1.1220527 -0.046146229 -1.383479
1.130458 -0.0337089 -1.4005437
1.1335474 -0.038457185 -1.3962229
1.1169666 -0.038551956 -1.3985714
1.1444985 -0.045138121 -1.3914521
1.1345214 -0.046225816 -1.3972632
1.129933 -0.047508821 -1.392768
1.1257412 -0.034001201 -1.4059352
1.1441554 -0.040480226 -1.4098996
1.1373997 -0.039062589 -1.4043546
1.1245449 -0.038200453 -1.4060642
1.1104208 -0.041371748 -1.4086788
1.1423905 -0.036361441 -1.4162705
1.1336565 -0.035962015 -1.4130982
1.1201915 -0.035930276 -1.4126863
1.1567709 -0.040879652 -1.4168955
1.1549325 -0.028116435 -1.4251058
1.1470852 -0.034234807 -1.421959
1.1426656 -0.036691844 -1.4266957
1.1379626 -0.034814343 -1.4224049
1.131798 -0.036425099 -1.4233816
1.1029592 -0.033694252 -1.4243594
1.1487937 -0.027677044 -1.4387008
1.1434923 -0.02939254 -1.4384817
1.1511732 -0.035274327 -1.4346035
1.1105086 -0.035799697 -1.4325477
1.1530906 -0.02377528 -1.4464092
1.1434693 -0.031164408 -1.4467946
1.134508 -0.026057959 -1.4498967
1.1302788 -0.029841796 -1.4419867
1.1079218 -0.029491678 -1.4399987
1.1509432 -0.033218235 -1.4434249
1.1437702 -0.037134767 -1.4445281
1.1280559 -0.035195425 -1.4458785
1.1502101 -0.030046359 -1.4543564
1.1146249 -0.028705016 -1.4577006
1.1128844 -0.025289103 -1.4556382
1.1349338 -0.021105945 -1.4682959
1.1498002 -0.028388649 -1.461733
1.1431265 -0.026506484 -1.4652421
1.1358352 -0.030295193 -1.4599991
1.1331458 -0.025662467 -1.4599479
1.1153274 -0.028412119 -1.4626665
1.1642874 -0.02263543 -1.4713023
1.1493589 -0.022510216 -1.475593
1.1360128 -0.021483168 -1.4779092
1.1202394 -0.02445972 -1.4723545
1.1177095 -0.023464352 -1.4740843
1.1103768 -0.021082357 -1.4769387
1.1583345 -0.030152723 -1.4702579
1.145026 -0.026731879 -1.4713992
1.1403193 -0.027364269 -1.4734921
1.115706 -0.028593227 -1.4742064
1.1641557 -0.015470207 -1.482703
1.1474148 -0.015398756 -1.4848403
1.136736 -0.014252856 -1.4868181
1.1228095 -0.01688394 -1.4869167
1.1571014 -0.025076285 -1.4864131
1.1486571 -0.023559093 -1.4800409
1.1469654 -0.0271606 -1.4810998
1.1348711 -0.020242155 -1.4874053
1.1258539 -0.020214438 -1.4870083
1.1594023 -0.012364715 -1.499917
1.1388797 -0.017303824 -1.4958704
1.1164857 -0.016907513 -1.4902872
1.1677804 -0.028461874 -1.490966
1.1569517 -0.022928804 -1.4946632
1.1432668 -0.022092745 -1.4978
1.1219802 -0.021879345 -1.4933085
1.1357851 -0.011201888 -1.5050945
1.1115627 -0.0097019672 -1.5042844
1.1573914 -0.017127141 -1.5057334
1.1286696 -0.012957871 -1.5018448
1.1194974 -0.012695774 -1.501366
1.1628335 -0.022862226 -1.5046839
1.1568207 -0.0081536472 -1.515211
1.1356175 -0.0093706995 -1.5147573
1.1297261 -0.0089440644 -1.515775
1.1250733 -0.0084797442 -1.515919
1.1687436 -0.018346116 -1.5177131
1.1513177 -0.021185935 -1.5100999
1.126388 -0.017916501 -1.509726
1.1651938 -0.012595817 -1.5286024
1.1548972 -0.0094908178 -1.5240418
1.1420975 -0.012532786 -1.5205846
1.1307957 -0.013953641 -1.5261434
1.1663867 -0.022767976 -1.5236293
1.1602963 -0.018130258 -1.5222734
1.1688637 -0.0012921244 -1.5385811
1.1585972 -0.0038802922 -1.5310792
1.1376972 -0.004276216 -1.5338346
1.1306173 -0.0049558878 -1.5302209
1.1650696 -0.013394386 -1.5346088
1.1637013 0.0011781305 -1.5479873
1.1687635 -0.0058332831 -1.5398067
1.1656352 -0.0077358484 -1.5467118
1.1222506 -0.0067333579 -1.5413903
1.1694746 -0.017485023 -1.5456975
1.1595045 -0.012124568 -1.538576
1.1417545 -0.0078748763 -1.5390322
1.1300591 -0.01277642 -1.5429877
1.1605579 0.0008790642 -1.5495547
1.1613957 -0.0084426999 -1.5515049
1.1474806 -0.0047658831 -1.5497541
1.1266265 -0.0027990639 -1.5576894
1.1322342 -0.013054892 -1.550483
1.1257952 -0.010222197 -1.5516104
1.1718923 0.0032985955 -1.5612848
1.1625186 0.0056384057 -1.5680305
1.1514225 0.00058890879 -1.5631101
1.1362756 0.0026470721 -1.5656197
1.180692 -0.0039672256 -1.5621346
1.172895 -0.010331586 -1.5608535
1.1624899 -0.0034907609 -1.5638467
1.1557186 -0.0062989146 -1.5607803
1.14303 -0.0090814978 -1.5646226
1.1382909 -0.0080780685 -1.5624478
1.1336474 -0.0088222176 -1.5601832
1.1655229 -0.012853742 -1.5625519
1.1588769 -0.012478217 -1.5575371
1.1750348 0.0063028485 -1.5775332
1.1738962 0.0027318448 -1.5703406
1.1440191 -0.0020650923 -1.5753958
1.1329621 -0.0012221634 -1.5755042
1.1568555 -0.011006609 -1.5732626
1.137764 -0.0099774301 -1.5666049
1.1304543 -0.0073513836 -1.5706528
1.1815988 0.0052662194 -1.5830035
1.1702292 0.0070260018 -1.5878745
1.1782571 0.0008033216 -1.5803164
1.17337 -0.001845181 -1.5864139
1.1664912 0.0024949014 -1.5846719
1.1553731 -0.0016045868 -1.579372
1.1353818 -0.003178522 -1.5861816
1.1850106 -0.0090309829 -1.5782837
1.1734574 -0.00821729 -1.5818653
1.1687553 -0.010153174 -1.5795506
1.1491387 -0.0049066395 -1.5779711
1.14334 -0.0057614148 -1.5811578
1.1372359 -0.0048679858 -1.5773784
1.1712511 0.011487111 -1.594617
1.1812804 -0.0040034503 -1.5954385
1.1503117 -0.0004017204 -1.5895154
1.1462141 0.0020589828 -1.5916032
1.1388944 0.00033900142 -1.5946755
1.1817738 0.0044367313 -1.6065717
1.1758223 0.0055738539 -1.5984983
1.1561314 0.0065559894 -1.6014577
1.1500703 0.0063676238 -1.6046541
1.1704588 -0.0022798479 -1.6003107
1.1403093 0.00099432468 -1.6017104
1.1787814 -0.0077912509 -1.6019021
1.1735114 0.01247181 -1.6168242
1.1790473 0.0048315674 -1.6116506
1.1694114 0.0043858886 -1.616645
1.1528347 0.0058606118 -1.6082307
1.1444125 0.0030404031 -1.6117692
1.130663 0.0088487267 -1.6082114
1.1462392 0.0017217845 -1.6073903
1.1953306 0.011321157 -1.6225485
1.1822097 0.0095069855 -1.6254104
1.1580954 0.010887399 -1.6231236
1.1449658 0.013373151 -1.6178149
1.1361635 0.013007671 -1.6225674
1.1840361 0.0016815364 -1.6242198
1.1670125 0.0070540905 -1.6221201
1.1467108 0.005805701 -1.6214807
1.1672176 -0.0016758591 -1.6182449
1.1416639 0.017166659 -1.6369231
1.1910071 0.010280102 -1.6338936
1.1709526 0.015114918 -1.6348621
1.1509951 0.017493561 -1.6309894
1.1376462 0.012408644 -1.6312407
1.1876888 0.0033348799 -1.6351987
1.1480008 0.0069946051 -1.6289645
1.1914883 0.016585961 -1.6398977
1.1717573 0.020984948 -1.6439905
1.1677886 0.01758562 -1.6407413
1.1355102 0.019924238 -1.6373265
1.1974128 0.014032051 -1.6446887
1.1836849 0.0064506382 -1.6431079
1.1779989 0.0087978393 -1.6453148
1.1618154 0.016130745 -1.6395603
1.185111 -0.0001257956 -1.6419464
1.179962 0.0032994002 -1.6401402
1.1876457 0.021850824 -1.6572469
1.1685177 0.01988548 -1.653044
1.1505016 0.023384869 -1.6547434
1.1471643 0.021325603 -1.6512791
1.1425393 0.016552314 -1.6466607
1.1839298 0.0084011853 -1.6524857
1.1646984 0.0080307871 -1.6471652
1.1523328 0.0098423809 -1.6489087
1.1954522 0.02773492 -1.667043
1.1933699 0.018770561 -1.6619331
1.1688395 0.022118732 -1.6615744
1.1600193 0.017685771 -1.6638253
1.1551775 0.014903009 -1.6633552
1.147994 0.015678585 -1.6644295
1.1825625 0.011247322 -1.6602279
1.1729504 0.0049709827 -1.6576782
1.1646541 0.022528425 -1.6670461
1.1441996 0.027736425 -1.6696911
1.1801708 0.013467506 -1.6697726
1.166659 0.012790143 -1.6656407
1.1892076 0.010559857 -1.6688942
1.1486826 0.01153028 -1.6725671
1.1922232 0.03225483 -1.6851779
1.158165 0.029643521 -1.6799909
1.1485443 0.031642511 -1.6858734
1.1979527 0.02450493 -1.680547
1.1893265 0.02350904 -1.6791775
1.1820525 0.02333881 -1.6791922
1.1649467 0.021858662 -1.679354
1.1818018 0.016104341 -1.6790442
1.1686198 0.017549515 -1.6841164
1.1587658 0.018857226 -1.6805506
1.1799606 0.032380506 -1.6919453
1.1572181 0.028983325 -1.6929209
1.1539729 0.034172639 -1.6915766
1.1798338 0.023364246 -1.6873177
1.1487756 0.025852948 -1.6951098
1.1859785 0.015079752 -1.6870291
1.1764119 0.018533826 -1.6870596
1.1541829 0.015689239 -1.686923
1.1436801 0.016673803 -1.6918724
1.1889943 0.036774725 -1.7033129
1.1852833 0.028247565 -1.6964219
1.1839533 0.029788092 -1.7007647
1.1935811 0.021176189 -1.7005858
1.1826315 0.020757988 -1.6997718
1.1726527 0.023600131 -1.7043465
1.1705804 0.022308841 -1.702592
1.1596832 0.019848198 -1.7012789
1.1876532 0.012968436 -1.7000966
1.1993792 0.040521666 -1.7163029
1.1892743 0.038880959 -1.7151663
1.1590372 0.035827562 -1.7082177
1.1904219 0.025125414 -1.7113111
1.1621112 0.033126965 -1.708341
1.1523373 0.029778033 -1.7121787
1.1973144 0.016910642 -1.7111185
1.1697409 0.020933568 -1.7113434
1.1351595 0.023575202 -1.7057248
1.1857653 0.041294619 -1.7214479
1.1843892 0.034858376 -1.7196032
1.1670041 0.037270635 -1.7237611
1.2052255 0.026223585 -1.7243842
1.1953057 0.03045772 -1.7196916
1.1688938 0.028666481 -1.7216336
1.1579121 0.030056298 -1.7173839
1.1267254 0.030387044 -1.7193755
1.1952057 0.022933632 -1.7215796
1.1677593 0.018726304 -1.7164426
1.1699508 0.042736784 -1.7341903
1.186335 0.040423006 -1.7330017
1.1766735 0.037375942 -1.7301385
1.1536688 0.034959972 -1.7309614
1.186668 0.029521316 -1.7292601
1.1625003 0.022754773 -1.7303195
1.1564692 0.02383624 -1.7312738
1.2030082 0.044664636 -1.7384934
1.1825364 0.045814529 -1.7395829
1.1718972 0.041414306 -1.739181
1.1593561 0.044881806 -1.7419536
1.1563437 0.043738171 -1.7439533
1.1483015 0.043772802 -1.7418957
1.1342434 0.043653369 -1.7435476
1.1089485 0.040487781 -1.7418878
1.1878763 0.033765018 -1.7371794
1.1686605 0.03644833 -1.7407422
1.1598576 0.034778714 -1.7357162
1.1482782 0.034002796 -1.739626
1.1310087 0.034237966 -1.7353293
1.1944388 0.027829513 -1.7405468
1.179908 0.023580492 -1.7350665
1.1640949 0.025842577 -1.7387545
1.1548162 0.029829845 -1.7434334
1.1393456 0.030989587 -1.737121
1.1146233 0.029919639 -1.7391192
1.2088016 0.018776461 -1.7355818
1.1703832 0.047767028 -1.7528802
1.1641476 0.048359469 -1.7522331
1.152262 0.040644437 -1.7466981
1.1491677 0.042816326 -1.7511011
1.1309181 0.04168953 -1.7503878
1.0921532 0.047410294 -1.7525253
1.1612833 0.038726732 -1.7468247
1.1447608 0.038201511 -1.7470914
1.1352921 0.038088888 -1.751283
1.0979658 0.037291154 -1.7497822
1.190805 0.026022375 -1.7476772
1.1593144 0.027983785 -1.7490987
1.1355987 0.048993841 -1.7618067
1.1141557 0.048384935 -1.761417
1.1456797 0.046283424 -1.7599901
1.1277927 0.045077875 -1.7587166
1.1212384 0.042553663 -1.7595731
1.1645273 0.030872822 -1.7574443
1.1472905 0.036795035 -1.7563757
1.1335094 0.034239441 -1.7587833
1.1050012 0.037806332 -1.7565914
1.111075 0.051850677 -1.7701596
1.0882603 0.051972806 -1.7691294
1.1172279 0.041490212 -1.7709109
1.1104299 0.039648324 -1.7709669
1.0995604 0.037912771 -1.7682604
1.0957358 0.042958111 -1.7685839
1.0899214 0.044045717 -1.767858
1.0656399 0.040576145 -1.7648364
1.127517 0.033105463 -1.7646281
1.1155035 0.036467001 -1.7654681
1.1073821 0.052894786 -1.7757297
1.0888793 0.048837572 -1.7761592
1.0813079 0.049187958 -1.779061
1.0751886 0.05241105 -1.7806332
1.069796 0.049915448 -1.7757725
1.0556471 0.047243074 -1.778248
1.0907897 0.040509 -1.7734072
1.0755072 0.044377759 -1.7769765
1.0655264 0.04296191 -1.7807335
1.0665089 0.056622297 -1.7878182
1.0631597 0.056398466 -1.7878128
1.0888679 0.04636775 -1.7867771
1.0699642 0.051432803 -1.7877951
1.0370561 0.052015513 -1.7847135
1.0757009 0.05433856 -1.7964852
1.0705507 0.053042293 -1.8003746
1.0623764 0.057733983 -1.8002527
1.0499302 0.055576012 -1.7989365
1.0893664 0.042989254 -1.7946039
1.0724242 0.04869324 -1.794291
1.0583293 0.051152974 -1.7950516
1.0483528 0.04806602 -1.795382
1.0360118 0.050648645 -1.7990904
1.0605732 0.05944787 -1.8074731
1.056496 0.055286884 -1.8052109
1.0469584 0.055978715 -1.8077183
1.0397413 0.054395542 -1.8081375
1.03783 0.055062264 -1.8162241
1.0351945 0.058235988 -1.8148931
1.0552261 0.061591774 -1.823439
1.0415864 0.058763176 -1.823635
1.0270299 0.062015444 -1.8291304
1.0246372 0.064836115 -1.8391446
1.0503762 0.063853204 -1.8395811
1.0377505 0.063258886 -1.8399959
1.0329244 0.067479551 -1.8492646
1.0204234 0.068127394 -1.8486086
1.0179772 0.072649121 -1.8654114
