# .PCD v0.7 - Point Cloud Data file format
VERSION 0.7
FIELDS x y z
SIZE 4 4 4
TYPE F F F
COUNT 1 1 1
WIDTH 1343
HEIGHT 1
VIEWPOINT 0 0 0 1 0 0 0
POINTS 1343
DATA ascii
-0.8439647 -0.38403144 -0.87243575
-0.85746145 -0.38079172 -0.87560517
-0.86378992 -0.38450116 -0.87707341
-0.87271225 -0.38301766 -0.87223214
-0.8854897 -0.38028246 -0.87382925
-0.85494149 -0.38544685 -0.8716231
-0.85841548 -0.3883948 -0.871315
-0.86613786 -0.38718092 -0.87596452
-0.87280619 -0.38989481 -0.87131619
-0.88175654 -0.38673738 -0.87256914
-0.88959599 -0.3930352 -0.87131751
-0.85326368 -0.40222394 -0.87215036
-0.86052501 -0.40234578 -0.87309176
-0.87404907 -0.40170479 -0.87125951
-0.88107955 -0.39496279 -0.87099743
-0.88971525 -0.40318471 -0.87306297
-0.86249763 -0.40500098 -0.86763448
-0.88059503 -0.40439779 -0.87277478
-0.91246301 -0.21730289 -0.9103474
-0.87973785 -0.22381902 -0.90435815
-0.885948 -0.22152735 -0.90680283
-0.89125592 -0.22372004 -0.90608269
-0.90075755 -0.22576077 -0.90534782
-0.91279536 -0.22158904 -0.90899819
-0.88092613 -0.22783393 -0.90537101
-0.88464844 -0.22870879 -0.90446162
-0.89377445 -0.23098958 -0.90110338
-0.89835656 -0.23121926 -0.90755504
-0.90733141 -0.2320683 -0.90415972
-0.93093938 -0.23334071 -0.90775132
-0.87960786 -0.24479768 -0.89963603
-0.88628489 -0.24139142 -0.90422642
-0.89053905 -0.24526575 -0.9041087
-0.90039676 -0.23899235 -0.90128022
-0.90296549 -0.23893829 -0.902219
-0.91353011 -0.24185309 -0.9031322
-0.91740203 -0.2414932 -0.90169775
-0.92720276 -0.23742211 -0.90656716
-0.88276088 -0.24886969 -0.90097469
-0.899131 -0.24967259 -0.9028641
-0.90830374 -0.25131226 -0.89958918
-0.91174424 -0.25274241 -0.90467465
-0.91874713 -0.25208986 -0.90117192
-0.90629011 -0.25833228 -0.90265429
-0.91038698 -0.25942141 -0.90039492
-0.92117393 -0.26151574 -0.90303516
-0.93537289 -0.26120377 -0.90183079
-0.93590987 -0.26006961 -0.90181518
-0.94456267 -0.26190126 -0.90455252
-0.89788806 -0.26924801 -0.8960979
-0.90457964 -0.26816559 -0.89918214
-0.91294795 -0.27160209 -0.8997556
-0.91960174 -0.26805538 -0.89928389
-0.92495584 -0.27255762 -0.90157712
-0.94391888 -0.27088428 -0.8993305
-0.90153116 -0.28124177 -0.90276945
-0.90672553 -0.27570873 -0.89632815
-0.9151215 -0.28263515 -0.89935642
-0.92110825 -0.27972823 -0.89950413
-0.92641753 -0.28230065 -0.89486992
-0.93643677 -0.27712393 -0.90237337
-0.88229942 -0.29213607 -0.8969714
-0.89943862 -0.28988755 -0.89429444
-0.9054088 -0.28604209 -0.89638281
-0.91231501 -0.28805894 -0.8994633
-0.93495959 -0.2880601 -0.89466393
-0.88655865 -0.29952085 -0.89335829
-0.89914823 -0.29938924 -0.89844084
-0.90630466 -0.29887789 -0.89633131
-0.91168988 -0.29676685 -0.89638287
-0.91669005 -0.29652929 -0.8959403
-0.93659437 -0.30081236 -0.89116967
-0.88852471 -0.30280048 -0.89319628
-0.89080453 -0.3038553 -0.89366585
-0.89959037 -0.30527782 -0.89617974
-0.90694076 -0.30865285 -0.8973968
-0.9116807 -0.307033 -0.89439154
-0.92949069 -0.30244827 -0.89764923
-0.87766773 -0.3155635 -0.89162338
-0.88594115 -0.31772238 -0.89539641
-0.88937759 -0.31653017 -0.89644748
-0.89998114 -0.31588405 -0.89380562
-0.91100013 -0.31726807 -0.8972882
-0.9190141 -0.31570384 -0.89677447
-0.88173503 -0.3264364 -0.89478832
-0.88579184 -0.32688689 -0.89269328
-0.8926394 -0.32465124 -0.88987142
-0.89720792 -0.32742539 -0.89410591
-0.90674543 -0.3244918 -0.89571244
-0.88159174 -0.33295327 -0.89164066
-0.88654816 -0.3359932 -0.88914311
-0.89224929 -0.3337934 -0.89123577
-0.89770019 -0.33971453 -0.89256597
-0.90529174 -0.33319134 -0.88964111
-0.8751471 -0.34737629 -0.89052022
-0.87737578 -0.34508047 -0.88919753
-0.8839463 -0.3474066 -0.89088541
-0.89487112 -0.34214151 -0.8924011
-0.89837551 -0.34432414 -0.88949943
-0.85026318 -0.35522276 -0.88594788
-0.85664254 -0.35848728 -0.89001191
-0.86566007 -0.35841212 -0.8891961
-0.8850919 -0.35404786 -0.88780683
-0.89309955 -0.35326731 -0.88715476
-0.89709592 -0.3500174 -0.88383228
-0.90573245 -0.35551935 -0.88987797
-0.91370034 -0.35257059 -0.89232266
-0.86188465 -0.36474437 -0.88304174
-0.86370558 -0.36149704 -0.88444167
-0.87116754 -0.36141175 -0.89133537
-0.87932611 -0.36471611 -0.89096075
-0.88692278 -0.36463955 -0.88873166
-0.89308149 -0.36263847 -0.88878119
-0.90478069 -0.35855949 -0.89072299
-0.85173243 -0.37452999 -0.88573706
-0.86937076 -0.36851597 -0.88471901
-0.87748867 -0.36889637 -0.885876
-0.88733447 -0.37117898 -0.8829363
-0.89000553 -0.37365118 -0.88621336
-0.89806318 -0.36760518 -0.88378233
-0.8611443 -0.37734276 -0.8835609
-0.86740702 -0.38059384 -0.88627511
-0.87034518 -0.3819086 -0.88553965
-0.87827915 -0.3797096 -0.88455975
-0.88422811 -0.38175774 -0.88812447
-0.88993359 -0.37968403 -0.88614398
-0.89758575 -0.37976176 -0.88189191
-0.86133736 -0.39434674 -0.88598603
-0.86575496 -0.39532718 -0.88116962
-0.87133026 -0.39085668 -0.8805362
-0.88111323 -0.38985696 -0.88252461
-0.8928985 -0.38978884 -0.88484788
-0.8537429 -0.39685088 -0.88306415
-0.86054981 -0.39949399 -0.88427985
-0.86301559 -0.39728373 -0.88303179
-0.87158823 -0.40058714 -0.87908614
-0.87684846 -0.40174696 -0.87803978
-0.89106786 -0.39750957 -0.87957281
-0.88512588 -0.4082931 -0.8811931
-0.8972429 -0.40737408 -0.88122451
-0.92364615 -0.21565661 -0.91318572
-0.93535703 -0.21906811 -0.91779041
-0.88670021 -0.22121036 -0.91594875
-0.89048427 -0.22641887 -0.91279101
-0.89963472 -0.22491568 -0.91729754
-0.90473247 -0.22474869 -0.91675258
-0.91228169 -0.22460775 -0.91551042
-0.91999429 -0.22249083 -0.91238582
-0.92730176 -0.22298342 -0.91811013
-0.89024955 -0.23647515 -0.91421014
-0.89803439 -0.23240384 -0.91699684
-0.90937203 -0.23553625 -0.91058552
-0.91806674 -0.23453602 -0.91387534
-0.89369464 -0.24014759 -0.91526401
-0.91117483 -0.24454874 -0.91635007
-0.91820449 -0.24039619 -0.91287518
-0.92505485 -0.24243346 -0.91471457
-0.89775944 -0.251214 -0.90866375
-0.90434271 -0.24817719 -0.91416305
-0.91362762 -0.25314087 -0.90932864
-0.93215626 -0.25335568 -0.91305721
-0.9380877 -0.25132352 -0.91392946
-0.94746089 -0.2544654 -0.90857488
-0.91279966 -0.26523867 -0.90964913
-0.92212075 -0.26430488 -0.91432363
-0.9268285 -0.26082969 -0.90808105
-0.93409246 -0.26572055 -0.90931368
-0.93822545 -0.25920549 -0.91110575
-0.94363266 -0.25730777 -0.9135893
-0.89238089 -0.26963606 -0.90507299
-0.89644992 -0.27021289 -0.90563887
-0.91232014 -0.27020717 -0.90663773
-0.92003846 -0.27441287 -0.90725553
-0.9249984 -0.27393615 -0.90418184
-0.93453091 -0.27224877 -0.91225457
-0.88873947 -0.28470284 -0.90666229
-0.90001065 -0.28010124 -0.90898079
-0.90927279 -0.28288001 -0.90268499
-0.91881269 -0.27917427 -0.90958738
-0.92666137 -0.28054705 -0.90489239
-0.9322409 -0.27891833 -0.90885305
-0.93770385 -0.28173578 -0.90724486
-0.95087725 -0.28211057 -0.90610617
-0.89231443 -0.28545994 -0.90753025
-0.90661579 -0.28856292 -0.90629524
-0.91310734 -0.29075593 -0.90806061
-0.91964555 -0.29012346 -0.90760952
-0.92664695 -0.28789836 -0.90719908
-0.95324677 -0.28577948 -0.90207875
-0.89529425 -0.30382892 -0.90745354
-0.89868832 -0.29920667 -0.9031437
-0.90573901 -0.29827559 -0.90797508
-0.91324013 -0.29839617 -0.90593928
-0.92050034 -0.29851848 -0.90794444
-0.92456573 -0.29949537 -0.90517354
-0.93650627 -0.29651988 -0.90805715
-0.88501292 -0.30946827 -0.90076035
-0.89420336 -0.30576605 -0.90907526
-0.89872193 -0.30491871 -0.90837669
-0.90548015 -0.30980736 -0.9014743
-0.91529673 -0.30664152 -0.90765733
-0.91646141 -0.3111569 -0.90782279
-0.89413768 -0.31361702 -0.90395653
-0.89671159 -0.31688303 -0.90308851
-0.9061507 -0.31821907 -0.90262234
-0.91268355 -0.3169806 -0.90221179
-0.92123288 -0.31295359 -0.90292412
-0.87407213 -0.32745928 -0.89929652
-0.88388485 -0.32577634 -0.90451729
-0.89330846 -0.32593584 -0.90166903
-0.89968169 -0.32802373 -0.90434217
-0.90669996 -0.32758409 -0.90083408
-0.91072637 -0.32868141 -0.90361667
-0.88201135 -0.34003848 -0.89526469
-0.88253373 -0.33434945 -0.89744866
-0.89264679 -0.33503985 -0.89765596
-0.90199012 -0.33990109 -0.90183616
-0.90515536 -0.33258116 -0.90044743
-0.92473537 -0.33529487 -0.89883864
-0.87922049 -0.34640706 -0.89946616
-0.8847791 -0.34490189 -0.89767927
-0.89294153 -0.34452283 -0.89986211
-0.90023583 -0.34670031 -0.89856648
-0.87389237 -0.35611343 -0.8980878
-0.88089025 -0.35819742 -0.89963168
-0.88696027 -0.35420597 -0.89667076
-0.89110374 -0.35739607 -0.89833319
-0.89765221 -0.35295212 -0.89836764
-0.87844074 -0.3611266 -0.89628601
-0.88684636 -0.36375776 -0.89834261
-0.89326757 -0.3634823 -0.89784336
-0.89781773 -0.3624686 -0.89971936
-0.90534681 -0.36427259 -0.89720267
-0.90960294 -0.36879951 -0.89827853
-0.8602879 -0.37323368 -0.89342928
-0.87184465 -0.37494439 -0.8964929
-0.87616867 -0.37613434 -0.8952449
-0.88426214 -0.37153274 -0.89557886
-0.89014077 -0.37154704 -0.8954227
-0.89905334 -0.37352684 -0.89669508
-0.90276206 -0.37047583 -0.8963275
-0.87368357 -0.38659275 -0.8970108
-0.88181895 -0.38595966 -0.89096367
-0.89260733 -0.38071465 -0.8933202
-0.8987745 -0.38148487 -0.89202374
-0.86146736 -0.39453578 -0.89402145
-0.86835736 -0.39146942 -0.89419144
-0.87161011 -0.39301121 -0.89206278
-0.88930917 -0.39037248 -0.89541042
-0.89747995 -0.39311603 -0.88887388
-0.87971216 -0.39973184 -0.89060205
-0.88769799 -0.40275714 -0.89217609
-0.89543331 -0.40006518 -0.88787031
-0.90532702 -0.39994717 -0.89241219
-0.88751388 -0.40630776 -0.88760179
-0.90738267 -0.21530654 -0.92582893
-0.90933973 -0.21236043 -0.92443669
-0.915874 -0.21910931 -0.92470664
-0.92577374 -0.21751477 -0.92487526
-0.93348646 -0.21525142 -0.92709404
-0.93950087 -0.21653098 -0.92374754
-0.95394498 -0.21185595 -0.92232746
-0.90228426 -0.22323437 -0.92217678
-0.91101825 -0.22683039 -0.92492509
-0.92695379 -0.22229947 -0.92570335
-0.93467057 -0.22544867 -0.92596638
-0.94009686 -0.22373542 -0.92359281
-0.95290554 -0.22088766 -0.92542398
-0.90293032 -0.2366149 -0.92163348
-0.9176718 -0.23729306 -0.9220587
-0.93078882 -0.23530686 -0.92709988
-0.94151521 -0.23868448 -0.91941673
-0.94549251 -0.23714411 -0.92146641
-0.90771919 -0.24415886 -0.92157334
-0.92319185 -0.2468707 -0.92574161
-0.93346399 -0.24203642 -0.92295432
-0.94724113 -0.24254271 -0.92453623
-0.96011585 -0.24022835 -0.92636919
-0.90332907 -0.24878545 -0.92091644
-0.91453516 -0.25458926 -0.9187156
-0.91992557 -0.24998602 -0.91763163
-0.93071556 -0.25320184 -0.92223388
-0.94226235 -0.25182554 -0.92206877
-0.90095639 -0.26314193 -0.91575325
-0.90373063 -0.2617771 -0.91527146
-0.91136253 -0.26514167 -0.91703004
-0.91962451 -0.26359677 -0.92047298
-0.92367154 -0.26016513 -0.91816545
-0.93343216 -0.26378405 -0.91682601
-0.94041651 -0.26036155 -0.91911024
-0.94801533 -0.26302564 -0.91804683
-0.95506185 -0.26330173 -0.91839027
-0.91512352 -0.27508649 -0.91945368
-0.92040485 -0.27051461 -0.91433978
-0.93339872 -0.27318028 -0.91690254
-0.93799895 -0.27046025 -0.91599107
-0.9435913 -0.27661914 -0.92068648
-0.95155489 -0.26760894 -0.92052788
-0.9708147 -0.2682029 -0.9140296
-0.90718466 -0.27879107 -0.91675466
-0.91521239 -0.27894083 -0.92045742
-0.91843987 -0.28234801 -0.91537488
-0.92721844 -0.27872044 -0.91685426
-0.93117577 -0.28022021 -0.91566712
-0.94173729 -0.2828393 -0.91981447
-0.94618058 -0.27980825 -0.92123276
-0.95173991 -0.27971655 -0.91758299
-0.9656381 -0.28371018 -0.91924328
-0.8982203 -0.29252881 -0.9169271
-0.91221619 -0.29203713 -0.9182955
-0.92075121 -0.28584841 -0.91242182
-0.92498004 -0.29132193 -0.9155457
-0.93277913 -0.2899819 -0.91409117
-0.9412784 -0.28627333 -0.91741133
-0.90396488 -0.29640496 -0.91510034
-0.9155364 -0.30273166 -0.91638041
-0.92173225 -0.29676557 -0.91344583
-0.92669314 -0.29929113 -0.91737723
-0.93265039 -0.29782492 -0.91579586
-0.89190519 -0.30899578 -0.91068631
-0.90132815 -0.31092289 -0.91592675
-0.90687436 -0.31113183 -0.91684681
-0.91239631 -0.30955386 -0.91325927
-0.91804463 -0.31018221 -0.91437435
-0.9265635 -0.31021073 -0.91181749
-0.93237793 -0.31160504 -0.91252768
-0.89309376 -0.31963149 -0.90966702
-0.90016323 -0.31925592 -0.91182721
-0.91128916 -0.32003099 -0.91322327
-0.92101866 -0.32346255 -0.91424
-0.88773406 -0.33203244 -0.90896392
-0.90039015 -0.33119786 -0.90772921
-0.90723264 -0.32783759 -0.90961194
-0.91148329 -0.32558501 -0.91429919
-0.91685772 -0.32595098 -0.91287774
-0.93131524 -0.33224985 -0.91263878
-0.89384043 -0.34048313 -0.90698087
-0.89920396 -0.33859789 -0.91018921
-0.90314943 -0.33757114 -0.90806985
-0.91830766 -0.33868244 -0.91205209
-0.89161205 -0.34398383 -0.90719241
-0.90038794 -0.34440452 -0.90666616
-0.90576321 -0.34529191 -0.90775484
-0.91349351 -0.34800982 -0.90708387
-0.9181571 -0.3486672 -0.90595847
-0.88147432 -0.35562822 -0.90580642
-0.89215231 -0.35738409 -0.90963483
-0.89765775 -0.3555764 -0.90750939
-0.91261852 -0.35194182 -0.90576023
-0.91767073 -0.3572607 -0.90323448
-0.88533032 -0.36924618 -0.90764618
-0.89229566 -0.36456645 -0.90737736
-0.90614468 -0.36429864 -0.9084633
-0.91297102 -0.36237192 -0.90881485
-0.91883487 -0.36470479 -0.90837741
-0.87647396 -0.37058622 -0.90484625
-0.8853631 -0.37549406 -0.90196168
-0.89369017 -0.37545717 -0.90261757
-0.90083086 -0.37712362 -0.90501207
-0.90384668 -0.37614465 -0.90752888
-0.91307825 -0.37320149 -0.90815926
-0.91940129 -0.37269789 -0.90749472
-0.87276471 -0.38719571 -0.90231138
-0.89187247 -0.3834649 -0.90170145
-0.89938867 -0.383425 -0.90096694
-0.91498137 -0.38691086 -0.90168309
-0.87875783 -0.39153355 -0.90063739
-0.8885439 -0.39256942 -0.90260589
-0.89291942 -0.39664453 -0.90502065
-0.90486395 -0.39034945 -0.90116626
-0.91068816 -0.39132828 -0.8967877
-0.91999912 -0.38997519 -0.8967464
-0.86894333 -0.40186316 -0.9024291
-0.89333963 -0.40391326 -0.90090436
-0.90478933 -0.40543026 -0.89872897
-0.91882253 -0.40462276 -0.89575082
-0.90950334 -0.40949148 -0.90353364
-0.91136611 -0.421289 -0.89390069
-0.91846442 -0.20774414 -0.93712127
-0.94675106 -0.20934808 -0.93577284
-0.96110868 -0.20952846 -0.93767351
-0.96937615 -0.20605052 -0.93870431
-0.9886381 -0.20924956 -0.94000727
-0.90929121 -0.22060901 -0.93384159
-0.91988844 -0.21527815 -0.93994248
-0.92466897 -0.21310464 -0.93280917
-0.9301194 -0.21931659 -0.93879253
-0.94016093 -0.21743447 -0.93311644
-0.943524 -0.21982282 -0.93435782
-0.95795697 -0.21952114 -0.93347615
-0.99076927 -0.22100213 -0.93729061
-0.90416801 -0.22764444 -0.93066627
-0.91499496 -0.22663818 -0.93073785
-0.91781801 -0.22397617 -0.93317419
-0.9251442 -0.224687 -0.9304167
-0.93596017 -0.22928476 -0.9287523
-0.94461769 -0.2243849 -0.93409169
-0.95170385 -0.22814745 -0.93551898
-0.89798594 -0.23555893 -0.92992556
-0.9126156 -0.23845986 -0.9288125
-0.91860151 -0.23421973 -0.93059433
-0.92613137 -0.2367498 -0.93365771
-0.93214446 -0.23248795 -0.93343616
-0.93964744 -0.23728296 -0.93312693
-0.96180153 -0.23204742 -0.9287011
-0.90990096 -0.24582741 -0.93377316
-0.92137593 -0.24955866 -0.93110245
-0.94021654 -0.24778923 -0.92880791
-0.94483697 -0.24602878 -0.93208385
-0.95690978 -0.24767959 -0.93310469
-0.96753919 -0.24460775 -0.92903852
-0.92078853 -0.25232625 -0.92773449
-0.92461002 -0.25714934 -0.93093479
-0.94564426 -0.25416827 -0.92706406
-0.9569481 -0.25696218 -0.92769963
-0.91735816 -0.26748574 -0.92934543
-0.92720681 -0.26273933 -0.92880303
-0.93169439 -0.26439196 -0.93117356
-0.93957651 -0.26340458 -0.92998344
-0.94848979 -0.26672044 -0.92942446
-0.95210934 -0.26505083 -0.92813921
-0.9578585 -0.26075661 -0.92973441
-0.97402948 -0.26482272 -0.93079269
-0.9187935 -0.2706207 -0.92384708
-0.93406916 -0.27428675 -0.9261933
-0.93876237 -0.27262777 -0.92776114
-0.94902098 -0.26995772 -0.92287642
-0.91398787 -0.28437403 -0.92892581
-0.92575914 -0.28230888 -0.92440277
-0.93580222 -0.28118843 -0.9232735
-0.94524509 -0.28227782 -0.92615706
-0.96365482 -0.27955073 -0.92699683
-0.91226649 -0.29474467 -0.92061466
-0.92175925 -0.29473424 -0.92039442
-0.92471445 -0.29028779 -0.92410272
-0.93184936 -0.29081395 -0.92339408
-0.94066978 -0.29281887 -0.92633975
-0.90674061 -0.30599412 -0.92328775
-0.91888899 -0.30098021 -0.921781
-0.92527044 -0.29700744 -0.92552972
-0.93568218 -0.29991543 -0.92160147
-0.94795084 -0.29697287 -0.92318678
-0.96046144 -0.29921746 -0.92445707
-0.8998546 -0.30709204 -0.92014217
-0.91440165 -0.30784845 -0.92220819
-0.9181419 -0.30900335 -0.92266053
-0.92564893 -0.31196165 -0.92059118
-0.93013948 -0.31064481 -0.92324805
-0.93965262 -0.30938256 -0.92316175
-0.88810581 -0.32027626 -0.91900045
-0.90592647 -0.32114112 -0.92221546
-0.91051775 -0.31908908 -0.92055905
-0.92361498 -0.3231923 -0.92368644
-0.90649784 -0.330553 -0.92041671
-0.9126631 -0.32806474 -0.91955078
-0.92015672 -0.33037657 -0.92011935
-0.92679292 -0.32726413 -0.91656816
-0.89195257 -0.33678615 -0.92206019
-0.90207279 -0.33818448 -0.91587257
-0.90543145 -0.3382394 -0.91887462
-0.91097939 -0.34025884 -0.91808462
-0.91898811 -0.33993271 -0.91955853
-0.90527046 -0.34907904 -0.91281241
-0.91690433 -0.3481912 -0.91953903
-0.92770159 -0.34561327 -0.92065662
-0.89793402 -0.35417354 -0.91490418
-0.90361601 -0.35889915 -0.91985404
-0.91509771 -0.35327274 -0.9126507
-0.92028964 -0.3536486 -0.92017233
-0.88642639 -0.36733842 -0.91597301
-0.90222818 -0.36383975 -0.91310585
-0.90725291 -0.36762431 -0.91151857
-0.91347933 -0.36399952 -0.91579437
-0.88954443 -0.37428826 -0.9135558
-0.90121591 -0.37608078 -0.9131251
-0.90483743 -0.37446326 -0.91428488
-0.9116078 -0.37896499 -0.91149783
-0.88043278 -0.38513076 -0.91026247
-0.88715583 -0.3852925 -0.91426778
-0.8903631 -0.38531482 -0.91315138
-0.89740926 -0.38527828 -0.91345125
-0.90848589 -0.3891423 -0.91308397
-0.92184973 -0.38648558 -0.9127121
-0.92689103 -0.38687313 -0.91022921
-0.89769012 -0.39357036 -0.90788186
-0.91020322 -0.39695221 -0.90917844
-0.92548305 -0.39368176 -0.90915346
-0.88544518 -0.4065094 -0.90833855
-0.89294058 -0.39983749 -0.90897059
-0.91049486 -0.40124133 -0.9090181
-0.92040145 -0.40146714 -0.909078
-0.93243742 -0.40681815 -0.91249144
-0.93954217 -0.20266593 -0.94920689
-0.9769094 -0.202494 -0.94443458
-0.99620205 -0.20078321 -0.95005018
-0.90621972 -0.20746759 -0.94193715
-0.9236989 -0.20755745 -0.94726187
-0.93280703 -0.21140976 -0.94853336
-0.93907207 -0.21136928 -0.9501096
-0.94990999 -0.20582181 -0.9413349
-0.95974535 -0.20981096 -0.94848359
-0.96750492 -0.21167386 -0.94852591
-0.97785658 -0.21055828 -0.94531888
-0.91421646 -0.21984683 -0.9464041
-0.91629815 -0.21798365 -0.94550639
-0.9251495 -0.22054921 -0.94004637
-0.93335497 -0.21897367 -0.94729942
-0.94083041 -0.21399267 -0.94257432
-0.94846076 -0.21985592 -0.94465679
-0.94962013 -0.21777652 -0.94363385
-0.95863104 -0.22170612 -0.94140983
-0.96591014 -0.22072382 -0.94594359
-0.97136199 -0.21793507 -0.94141829
-0.98157495 -0.2168493 -0.94004613
-0.91266841 -0.22874041 -0.94270718
-0.91927719 -0.22737484 -0.93996274
-0.92214298 -0.22810452 -0.94223654
-0.93748224 -0.23221368 -0.93980098
-0.948708 -0.22653131 -0.93960458
-0.955374 -0.22947186 -0.93795037
-0.95587641 -0.22481886 -0.94368219
-0.9835037 -0.22477983 -0.94523215
-0.90499294 -0.23293355 -0.94159037
-0.91085291 -0.23825572 -0.93877393
-0.92660743 -0.24073139 -0.94418007
-0.93162018 -0.23490493 -0.94284379
-0.9435789 -0.23895818 -0.94247723
-0.95365578 -0.23662572 -0.94098848
-0.95557433 -0.23369516 -0.94317329
-0.96528447 -0.24023405 -0.94167161
-0.97669345 -0.23277479 -0.94318163
-0.98580641 -0.23686145 -0.94175828
-0.92690951 -0.24707043 -0.94307077
-0.94679582 -0.243157 -0.94098961
-0.95187527 -0.24493361 -0.93959332
-0.93017006 -0.25216901 -0.93711644
-0.93895084 -0.25475115 -0.93981987
-0.94590127 -0.25459862 -0.93698484
-0.95215636 -0.25513622 -0.93679726
-0.96563607 -0.25435632 -0.94071603
-0.9713738 -0.2593388 -0.94004273
-0.93423033 -0.26775545 -0.94063526
-0.93767822 -0.26627445 -0.94169712
-0.94318634 -0.26392013 -0.93648809
-0.95201808 -0.26331174 -0.93750829
-0.95905322 -0.26854688 -0.93731737
-0.96605486 -0.26805693 -0.93254447
-0.97394466 -0.26175499 -0.93755186
-0.92747396 -0.27622908 -0.93936151
-0.93172127 -0.27754599 -0.93593442
-0.9406637 -0.27309251 -0.93843663
-0.94396722 -0.2746048 -0.93510187
-0.95284617 -0.27454364 -0.93562603
-0.93067938 -0.28302127 -0.93258244
-0.93784988 -0.28318182 -0.93199503
-0.94472247 -0.28419656 -0.93518716
-0.95062214 -0.28565401 -0.93735969
-0.9589529 -0.28237268 -0.93906915
-0.96885288 -0.28033 -0.93600637
-0.91983622 -0.29244572 -0.9313277
-0.92413038 -0.29547495 -0.93147993
-0.93350577 -0.29184824 -0.93434453
-0.93833512 -0.29339558 -0.93192321
-0.94601244 -0.29042917 -0.93447733
-0.95670444 -0.28849742 -0.93182904
-0.92048514 -0.30293673 -0.93185127
-0.92610949 -0.30404669 -0.93014079
-0.93264401 -0.30477935 -0.92929149
-0.94012672 -0.30176342 -0.93230039
-0.94495803 -0.30294472 -0.93298483
-0.95051938 -0.30158225 -0.93406701
-0.91085631 -0.30862221 -0.93122196
-0.92499679 -0.30931687 -0.93190974
-0.93188751 -0.31015527 -0.92854452
-0.93687963 -0.3145054 -0.93373859
-0.95528489 -0.31472474 -0.92967075
-0.91324657 -0.31733656 -0.9304859
-0.91696239 -0.31781828 -0.93163067
-0.92520148 -0.32349581 -0.92791706
-0.93165731 -0.32147136 -0.93126559
-0.94116861 -0.31862381 -0.93463874
-0.90507245 -0.33157161 -0.92961723
-0.91306543 -0.32632753 -0.93037492
-0.91804183 -0.32687432 -0.9296363
-0.92628396 -0.32953715 -0.93005234
-0.93771583 -0.32860541 -0.92891246
-0.90138751 -0.34177026 -0.92632979
-0.9077059 -0.34012964 -0.92633635
-0.91244799 -0.33696723 -0.92549109
-0.92094511 -0.33947164 -0.93122095
-0.9262076 -0.34285682 -0.92831051
-0.89917421 -0.35037717 -0.9235431
-0.90776414 -0.35307705 -0.92229664
-0.91367382 -0.34878913 -0.92513078
-0.91856068 -0.34731263 -0.92361283
-0.92663306 -0.3500669 -0.92556536
-0.94383234 -0.34905076 -0.92870319
-0.89903134 -0.3611885 -0.92379558
-0.90664554 -0.35847431 -0.9249897
-0.91218829 -0.35853916 -0.92588824
-0.91773194 -0.35856256 -0.92442697
-0.92369986 -0.36034912 -0.92692685
-0.89501876 -0.36568859 -0.92356807
-0.90404254 -0.36855716 -0.92038041
-0.91207522 -0.36882246 -0.9246546
-0.91724592 -0.36449599 -0.92667574
-0.92285424 -0.36673725 -0.9241991
-0.93271983 -0.36644763 -0.92214149
-0.89286613 -0.37922952 -0.92380446
-0.90197897 -0.38121736 -0.91831481
-0.90519798 -0.3743937 -0.91863966
-0.91248667 -0.37817943 -0.92142373
-0.91782898 -0.37879789 -0.92340541
-0.92840278 -0.38091245 -0.92443609
-0.89560419 -0.38947943 -0.9217965
-0.89903241 -0.38847041 -0.92284942
-0.90561366 -0.38521203 -0.9201808
-0.91802657 -0.38590884 -0.9248029
-0.9284488 -0.38618273 -0.92063534
-0.93451494 -0.38453537 -0.9245885
-0.87824845 -0.39456028 -0.9167729
-0.88699543 -0.39385641 -0.92111766
-0.8995077 -0.39612013 -0.91817802
-0.9116084 -0.39591211 -0.92116588
-0.89383 -0.40416813 -0.917395
-0.90146756 -0.40587536 -0.917301
-0.90770411 -0.40173966 -0.92052615
-0.91870296 -0.40786123 -0.91532588
-0.93442297 -0.40490419 -0.91867101
-0.94350129 -0.20492807 -0.9559356
-0.96056271 -0.20256203 -0.95439565
-0.9712407 -0.20258221 -0.95658195
-0.97792876 -0.20267919 -0.95599288
-0.99103892 -0.20398861 -0.95775217
-0.99721509 -0.20096526 -0.95283437
-0.93079948 -0.20922789 -0.95238769
-0.93990606 -0.20938185 -0.95595437
-0.95449877 -0.21171223 -0.9515205
-0.96799719 -0.2082265 -0.9557777
-0.97297299 -0.21080145 -0.95611769
-0.97899806 -0.20724061 -0.9518165
-0.98430157 -0.20683312 -0.95449102
-0.91950053 -0.21859607 -0.95125586
-0.93230301 -0.22110346 -0.95311582
-0.94715095 -0.22315696 -0.95345771
-0.95811868 -0.21789622 -0.9542681
-0.96846664 -0.21840198 -0.95677525
-0.97303516 -0.22052044 -0.95311481
-0.97813416 -0.21949354 -0.95449972
-0.99176878 -0.21682417 -0.95525515
-0.92741734 -0.22664997 -0.95209277
-0.9347012 -0.22774369 -0.95594913
-0.93733275 -0.22897021 -0.95000184
-0.94443643 -0.23118845 -0.95025754
-0.96020412 -0.22901623 -0.95377672
-0.96524924 -0.22693533 -0.9499504
-0.97357196 -0.2287067 -0.9517228
-0.98039335 -0.22622229 -0.95627469
-0.92074585 -0.23501951 -0.94805324
-0.93114036 -0.23854995 -0.94943327
-0.94676948 -0.24183095 -0.95198488
-0.95391971 -0.23747939 -0.95111138
-0.96318001 -0.23602271 -0.9523505
-0.97043544 -0.23840714 -0.95023525
-0.97870302 -0.23947561 -0.95159787
-0.94246018 -0.24931541 -0.94952565
-0.95326787 -0.2492418 -0.94774473
-0.96014637 -0.24673858 -0.94993532
-0.96904248 -0.24802536 -0.94816625
-0.97236812 -0.24889864 -0.94812471
-0.9809348 -0.24422273 -0.95039475
-0.94852704 -0.25320667 -0.94909471
-0.95231408 -0.25533655 -0.95006382
-0.95913827 -0.25894541 -0.94886094
-0.96415061 -0.257415 -0.94944912
-0.9691996 -0.25595835 -0.95247793
-0.98204446 -0.25336447 -0.9523595
-0.94602913 -0.26922631 -0.94483888
-0.95143557 -0.26662934 -0.94354016
-0.95830947 -0.27029493 -0.94757426
-0.96593577 -0.26545393 -0.94707465
-0.97588086 -0.26858005 -0.95069337
-0.93422502 -0.27195597 -0.94329476
-0.93908125 -0.27588403 -0.94462103
-0.94537842 -0.27896756 -0.94339401
-0.9589833 -0.27253002 -0.94581664
-0.96633232 -0.27574113 -0.9462809
-0.92594713 -0.28576988 -0.94592041
-0.93273205 -0.28577164 -0.94257534
-0.94004256 -0.28699884 -0.94113231
-0.94769537 -0.28782338 -0.94357377
-0.95223093 -0.2875455 -0.94637817
-0.957874 -0.28511721 -0.94648618
-0.96540499 -0.28949311 -0.94742745
-0.92759049 -0.29180729 -0.94311583
-0.94137901 -0.29131877 -0.94452232
-0.9462561 -0.29316211 -0.94155532
-0.95212108 -0.29079452 -0.94456708
-0.95959294 -0.29744577 -0.93852961
-0.91570908 -0.30553466 -0.93986738
-0.9265582 -0.30120754 -0.94054353
-0.93175393 -0.303101 -0.94201452
-0.94016916 -0.30505869 -0.93984509
-0.9451952 -0.302674 -0.94097751
-0.95379466 -0.29958886 -0.94436932
-0.9205907 -0.31646049 -0.9361065
-0.93425202 -0.31228065 -0.94083267
-0.93769205 -0.31689107 -0.93960273
-0.94554108 -0.31680679 -0.93961602
-0.953767 -0.31332958 -0.94063288
-0.91976899 -0.31969064 -0.9422363
-0.92427921 -0.3219676 -0.93912154
-0.93125695 -0.32266361 -0.93897241
-0.94825172 -0.3261416 -0.9426716
-0.91759557 -0.33196461 -0.9343763
-0.92654282 -0.33106062 -0.9402163
-0.93102503 -0.33036134 -0.93778509
-0.94347394 -0.33540726 -0.93613708
-0.95010823 -0.33023196 -0.93488443
-0.90862542 -0.33905834 -0.93837911
-0.92038769 -0.34421295 -0.93586498
-0.9252283 -0.33892143 -0.93755972
-0.93159521 -0.34096509 -0.93573117
-0.94493157 -0.34573925 -0.94009823
-0.90682167 -0.34691882 -0.93365455
-0.91122031 -0.34705073 -0.93267757
-0.91861588 -0.35392851 -0.93868786
-0.92338032 -0.34999245 -0.9373585
-0.93344957 -0.35061979 -0.93603259
-0.94508427 -0.3520548 -0.93099737
-0.91084021 -0.3634665 -0.93723702
-0.92608827 -0.36034083 -0.93459702
-0.93361825 -0.35884854 -0.93610144
-0.93934584 -0.36338124 -0.93603826
-0.89820653 -0.37179923 -0.9289133
-0.90696746 -0.37039089 -0.93025494
-0.91290557 -0.37233144 -0.92863905
-0.92174131 -0.36569905 -0.92996889
-0.93802112 -0.37148637 -0.93631142
-0.89944923 -0.380867 -0.93006194
-0.90710503 -0.38143533 -0.93324494
-0.91124517 -0.37762094 -0.93367517
-0.91938812 -0.38037339 -0.93019444
-0.92823339 -0.3807781 -0.92947662
-0.93038654 -0.37756935 -0.9349848
-0.94144821 -0.37419596 -0.93317533
-0.90081233 -0.39111277 -0.93244731
-0.90375125 -0.3875283 -0.93148756
-0.92924488 -0.39025128 -0.92552686
-0.9380517 -0.38974333 -0.9342944
-0.94405299 -0.38826925 -0.93193692
-0.92321849 -0.39655584 -0.92860419
-0.91021448 -0.40419585 -0.92503268
-0.92344052 -0.40461957 -0.93168718
-0.93429065 -0.4069775 -0.92279863
-0.9965421 -0.19452375 -0.96620041
-1.0028832 -0.19468586 -0.96365613
-0.97132915 -0.20010111 -0.96502143
-0.97726619 -0.20160542 -0.96554667
-1.0087868 -0.20078546 -0.96545845
-0.93859267 -0.21045014 -0.96094036
-0.94572133 -0.20829654 -0.96272677
-0.95948738 -0.20949328 -0.96284789
-0.96671581 -0.20908917 -0.96209812
-0.97308123 -0.21327335 -0.96616316
-0.97989857 -0.21298124 -0.96394926
-0.99212879 -0.2078283 -0.96685129
-0.99920368 -0.20816045 -0.96544081
-0.93917543 -0.21733159 -0.96373409
-0.96146995 -0.21711883 -0.95954716
-0.96403348 -0.22024657 -0.96165502
-0.97270149 -0.22000411 -0.96094829
-0.97629672 -0.21917698 -0.96131629
-0.98603225 -0.21961245 -0.963153
-0.92572826 -0.23379737 -0.95987487
-0.95259982 -0.23077413 -0.95958382
-0.96571904 -0.23242125 -0.96315998
-0.97165871 -0.23234852 -0.96006262
-0.98163748 -0.23046657 -0.9606393
-0.9873817 -0.23304637 -0.95915079
-0.99055821 -0.22578064 -0.95940304
-0.94997764 -0.23833081 -0.96161085
-0.96494222 -0.24039018 -0.95689964
-0.9726938 -0.23946467 -0.96114272
-0.97566563 -0.23820433 -0.95800388
-0.99831522 -0.23712787 -0.9571057
-0.94663525 -0.25057173 -0.96346992
-0.95996439 -0.24904847 -0.95880115
-0.97715855 -0.24486727 -0.95789063
-0.98531681 -0.24975488 -0.96249539
-0.94685078 -0.25984937 -0.9526732
-0.9550038 -0.26095891 -0.95596522
-0.95619881 -0.25968727 -0.95518494
-0.96879655 -0.25370115 -0.95688051
-0.97218633 -0.25537938 -0.95621938
-0.97588599 -0.258856 -0.95696324
-0.98561543 -0.26015711 -0.95438373
-0.94583017 -0.26792324 -0.9587329
-0.95452243 -0.26530603 -0.95741993
-0.95843273 -0.26985002 -0.95190144
-0.96632683 -0.26695132 -0.95777714
-0.97738421 -0.26954061 -0.95735693
-0.98343372 -0.26454574 -0.96041203
-0.94720012 -0.27501243 -0.95079327
-0.95184702 -0.27615452 -0.95653927
-0.96129245 -0.27643469 -0.95171005
-0.96392912 -0.27793401 -0.95318896
-0.97072184 -0.27788335 -0.95153308
-0.9799282 -0.2764613 -0.95848793
-0.93741733 -0.2895501 -0.95138401
-0.95555389 -0.2865946 -0.95141512
-0.95611143 -0.2864508 -0.95806563
-0.97264814 -0.28448087 -0.95632368
-0.92371798 -0.29895344 -0.94867039
-0.93703949 -0.29760236 -0.9497267
-0.94443178 -0.2961483 -0.95061511
-0.95211279 -0.29871172 -0.95493335
-0.96097851 -0.2914612 -0.95185024
-0.96396726 -0.29299831 -0.95205575
-0.97136629 -0.29790998 -0.95410085
-0.92750961 -0.30510145 -0.95053804
-0.93198127 -0.30817291 -0.94646943
-0.9408353 -0.30416679 -0.95049733
-0.94508123 -0.30435541 -0.94963598
-0.95096153 -0.30132961 -0.95112127
-0.96603733 -0.30423737 -0.94961053
-0.98587197 -0.30104667 -0.94685048
-0.92113447 -0.31428364 -0.94837105
-0.92776704 -0.31777528 -0.95174992
-0.93267566 -0.31483454 -0.94574749
-0.93922073 -0.3150422 -0.95142919
-0.94762677 -0.31480646 -0.95019859
-0.96058774 -0.31862187 -0.95229113
-0.96734506 -0.31186926 -0.95193505
-0.93192106 -0.32198739 -0.94754404
-0.93713933 -0.32246041 -0.94778985
-0.94776261 -0.32405898 -0.95090652
-0.95332301 -0.32685181 -0.95164752
-0.9600932 -0.32234955 -0.94804078
-0.92583859 -0.33577815 -0.94587219
-0.93294239 -0.3333469 -0.95044529
-0.93969488 -0.33289087 -0.94682693
-0.96067572 -0.33546379 -0.94444203
-0.91430086 -0.3429369 -0.94280821
-0.92770123 -0.34175384 -0.94544858
-0.93501264 -0.34548151 -0.9487583
-0.93822283 -0.33951038 -0.94660503
-0.94372874 -0.34026271 -0.94585878
-0.91747701 -0.3557567 -0.94672757
-0.92637211 -0.35482681 -0.94418156
-0.93304431 -0.35182381 -0.94680798
-0.93900943 -0.35159284 -0.94014156
-0.9453004 -0.3504377 -0.94757992
-0.95476192 -0.34727722 -0.94538218
-0.96755385 -0.35479936 -0.94770211
-0.90155512 -0.36261612 -0.94006956
-0.91140991 -0.35885143 -0.94036525
-0.91995937 -0.36094648 -0.94626802
-0.92590976 -0.36423424 -0.93934757
-0.93133992 -0.36017561 -0.94285822
-0.94084036 -0.35822701 -0.94143319
-0.94274837 -0.36377257 -0.94539618
-0.95097727 -0.36020064 -0.94697022
-0.90784287 -0.36844963 -0.93795335
-0.92069066 -0.37430927 -0.94610357
-0.92554688 -0.37244719 -0.93901628
-0.93209314 -0.3680535 -0.94130534
-0.95132869 -0.36685276 -0.94193894
-0.91487515 -0.380193 -0.94088674
-0.9270156 -0.38204968 -0.93804336
-0.93062568 -0.37682247 -0.94139129
-0.93656319 -0.38143963 -0.94269121
-0.94575095 -0.38066995 -0.94112498
-0.90842819 -0.38581744 -0.93649578
-0.92421854 -0.3864159 -0.94052899
-0.93241256 -0.38579369 -0.94181848
-0.93951124 -0.38744283 -0.94172674
-0.91510218 -0.39780384 -0.93391657
-0.91720349 -0.39468724 -0.93806827
-0.92797101 -0.3970845 -0.94293892
-0.93967283 -0.39953631 -0.93776703
-0.94586575 -0.39675751 -0.93843001
-0.94932473 -0.40745392 -0.93208098
-0.97242773 -0.19485688 -0.97615969
-0.9766252 -0.19604602 -0.97269493
-0.98239487 -0.19700603 -0.97916371
-1.0013405 -0.19750515 -0.97174305
-1.0128142 -0.19345623 -0.97855806
-0.98045611 -0.20471892 -0.96990252
-0.98455805 -0.20292114 -0.96993542
-0.9924643 -0.20373695 -0.97436905
-1.0057557 -0.20315424 -0.97285283
-0.96404898 -0.21123877 -0.97328389
-0.97082925 -0.21261862 -0.97273493
-0.97762418 -0.21168244 -0.97529209
-0.98567528 -0.21141535 -0.97470838
-0.99102277 -0.21239865 -0.97209114
-0.99668014 -0.21368131 -0.97674054
-0.95659542 -0.22295292 -0.96909499
-0.96930438 -0.2246805 -0.97359014
-0.97889769 -0.22347423 -0.97208482
-0.98758364 -0.22442505 -0.96960092
-0.99457997 -0.22281973 -0.97281712
-0.96844125 -0.23139246 -0.96929747
-0.97119743 -0.23287693 -0.96856344
-0.97909266 -0.23123339 -0.96971029
-0.99827254 -0.23088318 -0.97239387
-0.9544059 -0.24213368 -0.96946931
-0.96479064 -0.2438643 -0.96898347
-0.96989691 -0.24177064 -0.96772224
-0.98095399 -0.23856005 -0.97054005
-0.98378485 -0.24051437 -0.97304714
-0.96660137 -0.2504608 -0.96733868
-0.97402054 -0.24950114 -0.9714061
-0.97967154 -0.25024918 -0.96723032
-0.98237884 -0.25067794 -0.97022569
-0.99681026 -0.25466993 -0.96660948
-0.95416701 -0.25983208 -0.96419573
-0.95919734 -0.25863111 -0.96700346
-0.96240681 -0.26058143 -0.97025263
-0.96990377 -0.25747964 -0.96453333
-0.97572237 -0.25913966 -0.96304846
-0.98733926 -0.25669736 -0.97030401
-0.95354772 -0.26894113 -0.96455389
-0.95554221 -0.26605389 -0.9626866
-0.96472973 -0.2695525 -0.96594054
-0.97110254 -0.26722854 -0.96507025
-0.97754818 -0.26512748 -0.96546727
-0.98573565 -0.26741803 -0.96718848
-0.94293302 -0.28061467 -0.96005183
-0.95315176 -0.27700666 -0.96104294
-0.95907378 -0.27831811 -0.96756548
-0.96507424 -0.27393848 -0.96333706
-0.97069234 -0.27495676 -0.96752298
-0.97955555 -0.27778095 -0.96364129
-0.94520521 -0.28745532 -0.96152085
-0.95057642 -0.28696123 -0.96386588
-0.95982617 -0.2837792 -0.95991492
-0.96319139 -0.28769299 -0.96284908
-0.97250712 -0.28852531 -0.96398568
-0.94672114 -0.2940346 -0.95823151
-0.95392597 -0.29435998 -0.96465313
-0.95903814 -0.29427961 -0.96139663
-0.96689099 -0.2924571 -0.95798326
-0.97691017 -0.29331249 -0.96599877
-0.93513602 -0.30281574 -0.9613561
-0.93878806 -0.30754709 -0.95695442
-0.95973188 -0.30752617 -0.95939785
-0.97120041 -0.30942285 -0.96295625
-0.97935617 -0.30521089 -0.95864296
-0.92326242 -0.3170138 -0.95877808
-0.93773031 -0.31652677 -0.9564451
-0.95343769 -0.31398544 -0.95974386
-0.96663761 -0.31254297 -0.95856482
-0.94431072 -0.32510266 -0.95809656
-0.95216382 -0.32457826 -0.95688832
-0.96145952 -0.32462394 -0.9561798
-0.97443449 -0.32170218 -0.95944291
-0.93254972 -0.33524659 -0.95772129
-0.94104493 -0.33286953 -0.95415431
-0.94483948 -0.33514899 -0.9559626
-0.95403773 -0.33411604 -0.9547829
-0.95918274 -0.33573431 -0.96035314
-0.96712041 -0.3350535 -0.95889246
-0.9733398 -0.33214459 -0.95935154
-0.92328638 -0.34232146 -0.95143783
-0.93879932 -0.34396505 -0.95485604
-0.94584757 -0.34411839 -0.95349663
-0.95554179 -0.34431225 -0.95489013
-0.96798152 -0.3435356 -0.95715111
-0.92513734 -0.35451531 -0.95304447
-0.93167168 -0.35429019 -0.95546365
-0.9376983 -0.35354173 -0.95575809
-0.94790751 -0.35425112 -0.9549672
-0.95198125 -0.35596997 -0.95256573
-0.96357757 -0.35085282 -0.95021325
-0.9064222 -0.36631292 -0.95011437
-0.91507781 -0.3653878 -0.955446
-0.91593951 -0.36651063 -0.94758445
-0.93222809 -0.3617301 -0.95191842
-0.93948895 -0.36174321 -0.9509725
-0.94597179 -0.36031488 -0.94993508
-0.94942397 -0.36422515 -0.95277143
-0.96237439 -0.35773897 -0.95390105
-0.91915423 -0.3709906 -0.95070297
-0.93225664 -0.36910674 -0.95401692
-0.94784898 -0.37385786 -0.95116949
-0.95308608 -0.37369439 -0.9490664
-0.90397316 -0.37993908 -0.94642162
-0.91202545 -0.38147277 -0.95039767
-0.92495513 -0.37703153 -0.94988436
-0.93448901 -0.37801841 -0.95043057
-0.94092584 -0.38090944 -0.95231175
-0.94697875 -0.38110542 -0.94988167
-0.95116895 -0.38105628 -0.94916761
-0.93353927 -0.38690484 -0.94921601
-0.9416495 -0.39141646 -0.95181841
-0.9279924 -0.40215543 -0.94748962
-0.93700683 -0.39832923 -0.94409251
-0.93784279 -0.40561116 -0.94414824
-0.97278976 -0.19024725 -0.99040008
-0.97966647 -0.19049145 -0.98800987
-1.004467 -0.18860915 -0.98612291
-0.9797315 -0.19518085 -0.98445749
-0.98327565 -0.19534492 -0.98230302
-0.99008697 -0.19252416 -0.98189008
-0.99793637 -0.19534686 -0.9837451
-1.0067923 -0.19703716 -0.98630798
-1.0092603 -0.19639391 -0.98281163
-0.96726471 -0.20681074 -0.98831993
-0.97236365 -0.206136 -0.98108888
-0.98582751 -0.20726737 -0.98395348
-0.99201512 -0.20641798 -0.98529911
-0.99883598 -0.203539 -0.98298281
-1.0042171 -0.20558132 -0.98276454
-1.0204618 -0.20347662 -0.98738718
-0.97235465 -0.21158579 -0.97952241
-0.9785285 -0.21234429 -0.98438907
-0.98543841 -0.21042626 -0.98543537
-0.99060225 -0.21844062 -0.98081875
-0.99861854 -0.21060565 -0.98449838
-1.0057211 -0.21289292 -0.98425078
-1.0172095 -0.20972015 -0.97876209
-0.96607888 -0.2255955 -0.97680461
-0.97397697 -0.22394256 -0.98552638
-0.97841144 -0.22375436 -0.98441392
-0.99024308 -0.22460854 -0.9805721
-1.0003817 -0.22013855 -0.97766399
-0.97806829 -0.22986704 -0.9786436
-0.9861272 -0.23206396 -0.98086005
-0.99475056 -0.23693341 -0.9821201
-0.97208065 -0.24107338 -0.97862756
-0.9778927 -0.24178012 -0.97862858
-0.98794246 -0.24054347 -0.97600102
-0.99401712 -0.24418819 -0.9737637
-1.0013796 -0.24142647 -0.97752863
-0.96178544 -0.25470132 -0.97825402
-0.9645381 -0.2542358 -0.97527766
-0.9785617 -0.25381202 -0.97599602
-0.98367375 -0.25468224 -0.98108196
-0.99285996 -0.24785209 -0.97900736
-0.96133983 -0.26161972 -0.97821003
-0.96441066 -0.25960448 -0.97395587
-0.97014773 -0.26197085 -0.97900367
-0.97849327 -0.26006609 -0.97727394
-0.98501992 -0.2609027 -0.97782892
-0.99388945 -0.26225862 -0.97889894
-0.96507663 -0.27041063 -0.97500306
-0.9735316 -0.27050209 -0.9778952
-0.97898328 -0.2717005 -0.97673112
-0.95898765 -0.27623218 -0.97137904
-0.96395808 -0.27861446 -0.97275853
-0.9709487 -0.28120226 -0.97047752
-0.97814012 -0.28109193 -0.97386009
-0.99573982 -0.27618793 -0.97560835
-1.0043825 -0.27613848 -0.96869642
-0.95299309 -0.28536057 -0.97165787
-0.95813507 -0.28730643 -0.97461337
-0.96561426 -0.29088768 -0.97287953
-0.97010577 -0.28907698 -0.97474635
-0.97642416 -0.28850025 -0.96720892
-0.99544412 -0.29011059 -0.96879578
-0.9996528 -0.29255646 -0.97376865
-0.93960148 -0.29757345 -0.96742171
-0.94276249 -0.30053002 -0.97217417
-0.95537913 -0.29717386 -0.96771848
-0.95831239 -0.30218565 -0.96594077
-0.96694982 -0.29992384 -0.97173363
-0.9734714 -0.29432797 -0.97323632
-0.97967613 -0.30189347 -0.97076547
-0.98333704 -0.29839128 -0.96989655
-0.95702952 -0.30688199 -0.96660721
-0.96318257 -0.31106085 -0.96922404
-0.9711417 -0.30850673 -0.97119766
-0.97618675 -0.30764586 -0.96814001
-0.9395107 -0.32006383 -0.96444285
-0.95377421 -0.31873757 -0.96595222
-0.95917583 -0.31802791 -0.96907198
-0.97581649 -0.32044643 -0.96516204
-0.98310208 -0.31343636 -0.96848977
-0.95304662 -0.32569394 -0.96350521
-0.95997185 -0.32726413 -0.96912652
-0.96778333 -0.32711431 -0.96492559
-0.97535372 -0.32354689 -0.96943206
-0.93953282 -0.33647829 -0.96927297
-0.94524616 -0.33742446 -0.96446055
-0.95009387 -0.33343995 -0.96870589
-0.9584018 -0.33794451 -0.96799403
-0.96784693 -0.337372 -0.96675408
-0.97278476 -0.33452398 -0.96089423
-0.94651532 -0.34671688 -0.96669507
-0.95089006 -0.34644687 -0.96189725
-0.96003985 -0.34532389 -0.96632659
-0.96688884 -0.34734517 -0.96464622
-0.97478968 -0.34601343 -0.96589136
-0.93186647 -0.35188395 -0.9649871
-0.93746716 -0.35757962 -0.96071374
-0.94572693 -0.35724205 -0.96280533
-0.95221108 -0.35527045 -0.96384794
-0.96746314 -0.35038131 -0.9650839
-0.91750377 -0.36043376 -0.9660238
-0.92373347 -0.36446267 -0.96077752
-0.94023377 -0.36816284 -0.9617312
-0.94451773 -0.36506981 -0.95958072
-0.95738351 -0.36663088 -0.96005893
-0.96364397 -0.36458421 -0.965334
-0.91267872 -0.37501889 -0.96416432
-0.92846501 -0.37197918 -0.95713151
-0.93335134 -0.37434828 -0.96116406
-0.9378795 -0.37757951 -0.95991755
-0.95403725 -0.37548012 -0.95896435
-0.9120698 -0.37800011 -0.95605266
-0.92819273 -0.38167506 -0.96056104
-0.94601667 -0.37934551 -0.95803422
-0.95088512 -0.38033485 -0.96120131
-0.95615208 -0.37844014 -0.96096295
-0.92736948 -0.39480314 -0.95362049
-0.94647032 -0.38782883 -0.95476991
-0.94169265 -0.39595258 -0.95493102
-0.94452232 -0.39781103 -0.95359409
-0.95121992 -0.39611647 -0.95493913
-0.99168885 -0.18964577 -0.9929651
-0.99613655 -0.19186206 -0.99579155
-1.004791 -0.19035709 -0.99923033
-1.012558 -0.18816628 -0.99520123
-1.0201056 -0.18899834 -0.99832422
-1.0354241 -0.18468294 -0.99879193
-0.99138343 -0.1958241 -0.99095577
-0.99945068 -0.19414553 -0.99345756
-1.0053186 -0.19659768 -0.99483222
-1.0144973 -0.19412795 -0.99503517
-0.96639264 -0.20681691 -0.99024129
-0.98379952 -0.20885585 -0.99076152
-0.99183333 -0.20582509 -0.99352252
-1.0000807 -0.20702137 -0.99327016
-1.0073335 -0.20152542 -0.98867297
-0.97871286 -0.21869631 -0.9889881
-0.98436606 -0.22016633 -0.99495524
-0.99232996 -0.21433195 -0.9880656
-1.0048373 -0.21448395 -0.98795271
-1.0141641 -0.217308 -0.9885909
-0.97347808 -0.22512619 -0.99151009
-0.98420465 -0.2246187 -0.99262697
-0.98977548 -0.22067931 -0.99226463
-0.99815971 -0.22397178 -0.9890781
-1.0044419 -0.22612594 -0.98790133
-1.0127102 -0.22237916 -0.98917031
-1.0279361 -0.22436641 -0.99050039
-0.97839224 -0.23870423 -0.98920095
-0.98461944 -0.2347441 -0.98827821
-0.99206507 -0.23579481 -0.99263144
-0.99552339 -0.23195642 -0.99118406
-1.0063961 -0.23055005 -0.9858914
-1.0114052 -0.23181963 -0.9876399
-0.96656066 -0.24673051 -0.99000871
-0.97288978 -0.24485755 -0.98399889
-0.98027539 -0.24301007 -0.98735207
-0.98735964 -0.24603364 -0.98673534
-0.9930594 -0.24166644 -0.989039
-0.99795437 -0.2418232 -0.98893559
-1.002474 -0.24677855 -0.98760319
-1.0175108 -0.24246727 -0.98924118
-0.97208446 -0.25142813 -0.98783422
-0.97894436 -0.25727832 -0.98710179
-0.98456424 -0.24911319 -0.98471296
-0.99629468 -0.2561644 -0.98414409
-1.0031494 -0.25578311 -0.9871574
-0.9629364 -0.26449051 -0.98405969
-0.96871352 -0.26183385 -0.98577023
-0.97820973 -0.26350382 -0.98648745
-0.98710489 -0.26346421 -0.98617005
-0.99055272 -0.25898439 -0.98814023
-1.0016723 -0.25757545 -0.98513782
-1.0032822 -0.26147398 -0.98851043
-0.96762913 -0.26936302 -0.9882201
-0.97145766 -0.27217287 -0.98292434
-0.97873753 -0.27117258 -0.98721731
-0.99074 -0.26824254 -0.98738688
-1.0009571 -0.26959312 -0.98174357
-1.00708 -0.27241829 -0.98614132
-0.96616995 -0.28237987 -0.98376924
-0.97268891 -0.28112322 -0.98463225
-0.97634614 -0.28121132 -0.98691893
-0.994048 -0.28049725 -0.97896391
-1.0008663 -0.28291363 -0.98170239
-0.96353126 -0.28626138 -0.98448038
-0.97125679 -0.28969216 -0.97888988
-0.97817105 -0.28988212 -0.98105681
-0.98497951 -0.29068255 -0.97777438
-0.99315321 -0.28926703 -0.98261756
-0.94755077 -0.29566967 -0.97687757
-0.95913559 -0.30347449 -0.97792488
-0.96287674 -0.30119836 -0.98106456
-0.97236532 -0.29914129 -0.97953928
-0.98013204 -0.30276686 -0.97907972
-0.98369104 -0.30255181 -0.97886884
-0.95176089 -0.31202921 -0.98029107
-0.96710247 -0.30725771 -0.97736108
-0.97191924 -0.31028515 -0.97627807
-0.97772807 -0.30876106 -0.97907192
-0.94785947 -0.31635016 -0.97802788
-0.95513189 -0.32060784 -0.97691149
-0.95969915 -0.32209381 -0.97811425
-0.9642145 -0.31702471 -0.98163891
-0.97304738 -0.31856421 -0.97514272
-0.97874159 -0.31600803 -0.97744393
-0.95906425 -0.32798806 -0.97614837
-0.9673568 -0.32774109 -0.97894764
-0.9750194 -0.32665604 -0.9802947
-0.97756284 -0.32873598 -0.97436893
-0.98338592 -0.33078867 -0.97896063
-0.94406027 -0.33990139 -0.97921515
-0.95045477 -0.33530769 -0.97266096
-0.96491385 -0.33745119 -0.97166324
-0.97076577 -0.33589223 -0.97079176
-0.98186076 -0.33920729 -0.97613901
-0.98487502 -0.33528775 -0.97685415
-0.93959099 -0.34956884 -0.97594428
-0.94529748 -0.35017169 -0.97189355
-0.95612973 -0.34316909 -0.97607219
-0.96472508 -0.34599054 -0.97137612
-0.97110987 -0.3446742 -0.97723734
-0.97751111 -0.34257621 -0.97731608
-0.98276573 -0.34553048 -0.97154021
-0.94543058 -0.35538065 -0.97061628
-0.95468289 -0.35652938 -0.97445089
-0.9583773 -0.35550082 -0.97281224
-0.97482294 -0.35890847 -0.96944845
-0.97730017 -0.35690725 -0.97294241
-0.92756462 -0.36394936 -0.973333
-0.94553131 -0.36591655 -0.96979874
-0.95173478 -0.35971713 -0.96789038
-0.95589715 -0.36349526 -0.97060984
-0.96683168 -0.3605082 -0.96913952
-0.97435576 -0.36763123 -0.96853739
-0.94061267 -0.37788025 -0.96935636
-0.94665718 -0.37444532 -0.97298789
-0.95299107 -0.3721759 -0.97191763
-0.9585641 -0.37377197 -0.96736866
-0.92665398 -0.3830826 -0.96937507
-0.93839222 -0.38348377 -0.97126889
-0.95192385 -0.38243988 -0.96910626
-0.95866734 -0.37970388 -0.96956658
-0.93767536 -0.39055336 -0.96346045
-0.94757438 -0.38917735 -0.96694732
-0.94956893 -0.39359194 -0.96610361
-0.96252149 -0.38841692 -0.96583968
-0.96310502 -0.39435998 -0.97099125
-0.97573858 -0.39713341 -0.96760595
-0.96587867 -0.39850453 -0.96931183
-0.97665203 -0.40539634 -0.96509898
-0.96566892 -0.40750387 -0.96083325
-0.97919142 -0.18728469 -1.0038264
-0.99236012 -0.18373236 -1.0019386
-0.99734944 -0.18936363 -1.0050368
-1.0035481 -0.18925217 -1.0082886
-1.0093207 -0.18876956 -1.0045152
-0.99802887 -0.19521548 -1.0034107
-1.0056332 -0.20140013 -0.99896699
-1.0095727 -0.1974055 -1.0057523
-1.0189265 -0.19470388 -1.0034522
-0.98462361 -0.20744771 -0.99968612
-0.99784881 -0.20867753 -0.99939156
-1.0059531 -0.20773032 -1.0015892
-1.0107871 -0.20738855 -1.0014949
-1.0221269 -0.21011429 -0.99984002
-1.035401 -0.20380904 -1.0021358
-1.0430888 -0.20515402 -1.0012035
-0.98299211 -0.21876508 -1.0034041
-0.99330336 -0.21927607 -0.99914026
-0.99971598 -0.21603385 -1.002695
-0.98062342 -0.22140676 -0.99840409
-0.99204028 -0.22602347 -0.99950719
-1.0139383 -0.22510698 -1.0021144
-0.98617458 -0.23591566 -0.99983865
-0.99008679 -0.23784605 -0.99819368
-1.0009753 -0.23766744 -1.0016705
-1.0023311 -0.23885983 -1.0017643
-1.0144913 -0.23113719 -1.0019112
-0.97441441 -0.24484968 -0.99935079
-0.97923225 -0.24588886 -0.99878979
-0.99121761 -0.24660416 -0.99594384
-0.99681658 -0.2492768 -0.99678093
-1.0069284 -0.24868655 -0.99340606
-1.021418 -0.24256989 -0.99485976
-1.0229477 -0.24043655 -0.99620247
-0.97716385 -0.25076413 -0.99567258
-0.98729092 -0.2556757 -0.99447954
-0.98972577 -0.25598067 -0.99382651
-0.99880725 -0.25610328 -0.9948566
-1.0041867 -0.24985841 -0.99499965
-1.0123889 -0.25731167 -0.99590451
-0.96767354 -0.2640754 -0.99578601
-0.97083753 -0.26259834 -0.99345827
-0.98635972 -0.26169533 -0.99254382
-1.004236 -0.26311582 -0.99637097
-1.0286068 -0.2635482 -0.9980247
-0.97371793 -0.27712655 -0.99408269
-0.98520875 -0.2711899 -0.99384987
-0.99120975 -0.27090234 -0.99075949
-0.99826515 -0.27647269 -0.99496877
-1.0116149 -0.27067614 -0.99736202
-0.96603173 -0.28258601 -0.99242669
-0.97622573 -0.28197312 -0.98756993
-0.98475498 -0.28129545 -0.99383426
-0.99355829 -0.2828598 -0.98969525
-0.99592108 -0.28568658 -0.98627716
-1.0087007 -0.27953118 -0.99061716
-1.0104941 -0.27706403 -0.99026895
-0.97841179 -0.28973481 -0.98927301
-0.98513991 -0.29074979 -0.98847467
-0.99992758 -0.28985026 -0.99232155
-0.96731001 -0.30144763 -0.98849314
-0.97230649 -0.29968327 -0.98998332
-0.97894591 -0.29614517 -0.9885428
-0.98623252 -0.29963332 -0.99042493
-0.99230677 -0.30111289 -0.9879685
-1.0024089 -0.29979616 -0.99247634
-0.9681378 -0.31267607 -0.99123043
-0.97139353 -0.31082961 -0.99136913
-0.98517019 -0.31044707 -0.98764682
-0.99014455 -0.31486255 -0.99014366
-0.9548611 -0.31546307 -0.98621756
-0.96647865 -0.31799787 -0.98544925
-0.97710043 -0.31916693 -0.98984689
-0.98554075 -0.31894565 -0.990376
-0.9917863 -0.32141137 -0.98976612
-0.94291151 -0.32975203 -0.98362303
-0.95211136 -0.3312729 -0.98555589
-0.95766455 -0.33072016 -0.98664039
-0.96832043 -0.33298045 -0.98410726
-0.97361195 -0.32930911 -0.98503846
-0.97857583 -0.32476422 -0.98914069
-0.99019295 -0.32539234 -0.983913
-0.95550311 -0.33394462 -0.981933
-0.96556246 -0.33671102 -0.98129141
-0.97109979 -0.33973968 -0.98426408
-0.9862048 -0.3378678 -0.98388469
-0.94731539 -0.34725374 -0.98690146
-0.95216858 -0.34910083 -0.98255479
-0.96095097 -0.34697771 -0.98405749
-0.96355438 -0.34701908 -0.98188192
-0.97347593 -0.34444529 -0.98103839
