# .PCD v0.7 - Point Cloud Data file format
VERSION 0.7
FIELDS x y z
SIZE 4 4 4
TYPE F F F
COUNT 1 1 1
WIDTH 126
HEIGHT 1
VIEWPOINT 0 0 0 1 0 0 0
POINTS 126
DATA ascii
-0.079960048 -0.055420056 -1.0515153
-0.085461348 -0.056921877 -1.052745
-0.091446787 -0.059004933 -1.0510859
-0.097556084 -0.057981871 -1.0487427
-0.10298389 -0.058861144 -1.0520204
-0.085563667 -0.067031927 -1.0523436
-0.091145173 -0.066245243 -1.0470811
-0.099377401 -0.068422429 -1.0506549
-0.10375594 -0.066410474 -1.0520487
-0.071036138 -0.05169221 -1.0612043
-0.065494843 -0.061280325 -1.0628985
-0.070407234 -0.059666939 -1.0611918
-0.078200355 -0.06173975 -1.0603783
-0.085263617 -0.059627414 -1.0587476
-0.0917392 -0.060005173 -1.058998
-0.098412141 -0.059762053 -1.0581877
-0.10466612 -0.05924803 -1.0586317
-0.11059808 -0.060343042 -1.0578666
-0.073130675 -0.068454571 -1.0580821
-0.079757176 -0.068845294 -1.0609097
-0.086049803 -0.067849822 -1.0571519
-0.092020191 -0.069178656 -1.057461
-0.098487653 -0.069054499 -1.0572411
-0.10379659 -0.067691766 -1.0555992
-0.11054189 -0.065239474 -1.0609556
-0.06599196 -0.049830243 -1.0687741
-0.070558392 -0.05038254 -1.0703247
-0.077904329 -0.05090034 -1.0694391
-0.083853342 -0.051977597 -1.0682572
-0.091067612 -0.0517774 -1.06461
-0.11187594 -0.052147858 -1.0645624
-0.11859789 -0.051333025 -1.0688974
-0.07045842 -0.059941925 -1.069131
-0.079003856 -0.060771406 -1.0690833
-0.084315747 -0.060397826 -1.0664792
-0.090688772 -0.060441382 -1.0636265
-0.11259238 -0.060618035 -1.06668
-0.11751918 -0.059898667 -1.0699106
-0.067022868 -0.068764657 -1.0680857
-0.072932415 -0.067314431 -1.0659522
-0.078820385 -0.070022538 -1.0678455
-0.084398374 -0.069663763 -1.0655885
-0.090495043 -0.070490956 -1.0637513
-0.066350102 -0.054194853 -1.0793639
-0.071226925 -0.052560903 -1.0794996
-0.077052623 -0.052785277 -1.0774926
-0.08195693 -0.055012465 -1.0743519
-0.12033547 -0.05278378 -1.0766908
-0.12292103 -0.052763343 -1.079134
-0.06594526 -0.063432015 -1.0782363
-0.071313404 -0.062264383 -1.0780712
-0.077765368 -0.062149405 -1.0760306
-0.082325391 -0.062825464 -1.0734019
-0.11972945 -0.062004924 -1.0752395
-0.12219117 -0.061812371 -1.0777501
-0.11955404 -0.048000731 -1.0875164
-0.065124184 -0.053853691 -1.0882809
-0.072022252 -0.054084457 -1.0886285
-0.076015212 -0.054845817 -1.0872439
-0.12390571 -0.054372795 -1.0869033
-0.065624908 -0.063384242 -1.0862191
-0.071525656 -0.062927119 -1.0875084
-0.076559015 -0.063777417 -1.085729
-0.059699491 -0.049623996 -1.0952877
-0.065283604 -0.046955146 -1.0984619
-0.070403948 -0.046552837 -1.0980123
-0.077346146 -0.046270922 -1.0973136
-0.08159215 -0.048132941 -1.1016512
-0.12032319 -0.046567507 -1.0983838
-0.1237178 -0.046168171 -1.0971984
-0.065668494 -0.056346856 -1.0972906
-0.070961587 -0.056705095 -1.0969748
-0.076853648 -0.055569664 -1.0975211
-0.12059397 -0.056231044 -1.0954897
-0.12384433 -0.054949701 -1.0967889
-0.059632022 -0.067153946 -1.0921946
-0.065608196 -0.064802736 -1.0960578
-0.071114935 -0.06539312 -1.0952793
-0.076604202 -0.064631879 -1.0961795
-0.065562084 -0.04697258 -1.1063015
-0.070090152 -0.048513159 -1.1069276
-0.077449791 -0.047998875 -1.1076981
-0.082234539 -0.047041722 -1.1082352
-0.11331084 -0.043224804 -1.1113449
-0.11880592 -0.046785608 -1.1071522
-0.1236034 -0.047276281 -1.1065006
-0.065062091 -0.05694665 -1.1054255
-0.07016357 -0.056903392 -1.107479
-0.078114212 -0.05775021 -1.1065239
-0.082005434 -0.055980332 -1.1077315
-0.11965584 -0.056971416 -1.1062058
-0.12399948 -0.056930654 -1.1049532
-0.072135955 -0.040608719 -1.1171061
-0.077214547 -0.040413938 -1.1188797
-0.064651981 -0.050988786 -1.1155032
-0.071404174 -0.049547687 -1.1167948
-0.077181816 -0.049451999 -1.117238
-0.082934327 -0.048895717 -1.1174195
-0.090341099 -0.048718378 -1.1198521
-0.1057033 -0.048158489 -1.1184081
-0.1117876 -0.048420578 -1.1175537
-0.11713413 -0.048997901 -1.1152478
-0.12249216 -0.049049981 -1.1146957
-0.066417031 -0.057656892 -1.1143121
-0.070728973 -0.059020191 -1.1157751
-0.076535106 -0.059015848 -1.116084
-0.082128465 -0.058613352 -1.1169477
-0.079242483 -0.040195912 -1.1242458
-0.084258735 -0.04110349 -1.1247509
-0.090298317 -0.040723652 -1.1254851
-0.097027853 -0.040835172 -1.1265436
-0.10402641 -0.041109599 -1.1251338
-0.11035348 -0.041811772 -1.1240349
-0.11692671 -0.040126935 -1.1241635
-0.072487287 -0.050316729 -1.1228222
-0.077938825 -0.0508615 -1.1245137
-0.08423318 -0.050288208 -1.1256641
-0.090613596 -0.049660183 -1.1267346
-0.097346917 -0.04941041 -1.1275591
-0.1042385 -0.049957633 -1.1247705
-0.11013146 -0.050817609 -1.1232703
-0.12068053 -0.047219604 -1.1212696
-0.092047364 -0.046196029 -1.1323696
-0.089779943 -0.053854853 -1.1329463
-0.096206881 -0.053304054 -1.1316262
-0.10464388 -0.05293712 -1.1305462
