# .PCD v0.7 - Point Cloud Data file format
VERSION 0.7
FIELDS x y z
SIZE 4 4 4
TYPE F F F
COUNT 1 1 1
WIDTH 485
HEIGHT 1
VIEWPOINT 0 0 0 1 0 0 0
POINTS 485
DATA ascii
1.180348 -0.097775236 -1.5975381
1.170133 -0.096209496 -1.606746
1.1765597 -0.092669562 -1.6149594
1.166521 -0.092116281 -1.6160004
1.143048 -0.091206208 -1.6205177
1.1685455 -0.091438949 -1.6254358
1.1552511 -0.090728611 -1.6287926
1.1476099 -0.090299696 -1.6238086
1.1717907 -0.085246816 -1.6379339
1.1644419 -0.084355295 -1.6418802
1.1424866 -0.082533404 -1.6371055
1.1792252 -0.090874478 -1.6385765
1.1727715 -0.087563887 -1.6323805
1.1608146 -0.090975136 -1.6351147
1.1853734 -0.084533378 -1.644123
1.1682156 -0.087824956 -1.6452483
1.145032 -0.082741678 -1.6440657
1.1349707 -0.074875608 -1.6591109
1.1889017 -0.082229853 -1.6525261
1.1828132 -0.084577829 -1.6555717
1.1630768 -0.072798967 -1.6717296
1.2073236 -0.07871303 -1.6680608
1.1851177 -0.077798977 -1.6706179
1.1828799 -0.079648063 -1.6627424
1.1547855 -0.074128196 -1.6639799
1.1479307 -0.081714541 -1.668426
1.1756064 -0.083315745 -1.6656103
1.166248 -0.084550411 -1.6632632
1.1803865 -0.074762717 -1.6813618
1.1385858 -0.070891827 -1.6764348
1.193454 -0.084231973 -1.6789753
1.1830615 -0.078098372 -1.6748006
1.1655961 -0.077972546 -1.6807817
1.2031846 -0.073862314 -1.6857135
1.1813339 -0.073368132 -1.6887097
1.1659882 -0.068554699 -1.68997
1.1414219 -0.073772088 -1.6815335
1.1677676 -0.078093901 -1.6855838
1.1422009 -0.066908076 -1.6937587
1.1806988 -0.071411759 -1.6969622
1.1469979 -0.069556057 -1.6960864
1.189606 -0.079045698 -1.6966718
1.1990458 -0.069011569 -1.7033663
1.1943537 -0.066408649 -1.7032514
1.1688997 -0.064310417 -1.7082105
1.1458161 -0.062924311 -1.7110827
1.1405976 -0.061768323 -1.7089231
1.1874182 -0.057630196 -1.7206252
1.1949068 -0.064160883 -1.7210189
1.1993269 -0.071578696 -1.7172772
1.1920485 -0.072342977 -1.7130754
1.185758 -0.073859379 -1.7143681
1.1577924 -0.071194991 -1.7112125
1.2015369 -0.058958426 -1.7308887
1.1718113 -0.060066149 -1.7264507
1.1477834 -0.058260754 -1.7258916
1.1903068 -0.068474159 -1.7243342
1.145264 -0.065442622 -1.7268344
1.1602607 -0.052115962 -1.741201
1.1516734 -0.053393692 -1.7378306
1.1872146 -0.059193149 -1.7365597
1.1882344 -0.067876652 -1.731312
1.1819099 -0.068673074 -1.7320646
1.1878647 -0.049953669 -1.7437068
1.1834224 -0.051024973 -1.7431053
1.1723773 -0.051219061 -1.7499026
1.1689975 -0.050422519 -1.748418
1.1668866 -0.058658853 -1.7487929
1.136202 -0.060864627 -1.7417542
1.2029485 -0.067053944 -1.7490946
1.1769572 -0.066613913 -1.7428395
1.1810901 -0.045312658 -1.7599313
1.1488773 -0.044284984 -1.7557236
1.1462541 -0.051824182 -1.7543293
1.1409906 -0.053917244 -1.7569352
1.1340539 -0.05669409 -1.7559328
1.1991233 -0.066806257 -1.7562327
1.1780618 -0.063486785 -1.7497609
1.1701581 -0.048743591 -1.765938
1.1450838 -0.049599454 -1.7696823
1.1342542 -0.044820949 -1.7657452
1.1288478 -0.043596864 -1.7652086
1.1196383 -0.042980269 -1.7676413
1.1146843 -0.04625088 -1.7668952
1.1806064 -0.058943987 -1.7677853
1.1652724 -0.056901008 -1.768068
1.1566615 -0.050972998 -1.7630545
1.1418389 -0.052715987 -1.7688253
1.1852796 -0.058624446 -1.7618743
1.1757678 -0.061589122 -1.7618874
1.1663517 -0.058864668 -1.7617406
1.1411037 -0.036703944 -1.7757001
1.122349 -0.035792902 -1.7746694
1.1160749 -0.03767617 -1.7770444
1.1080408 -0.035573289 -1.7791729
1.0957373 -0.035406336 -1.7775582
1.1679195 -0.050336018 -1.7744588
1.145736 -0.044542342 -1.777819
1.1352295 -0.045058534 -1.7753031
1.1184193 -0.049108222 -1.7716101
1.110844 -0.041889116 -1.7740566
1.0992938 -0.041052774 -1.7774687
1.1593915 -0.056841046 -1.7697016
1.1002315 -0.029888719 -1.7900578
1.0694962 -0.030476272 -1.7816317
1.1076044 -0.041475534 -1.7855788
1.0941371 -0.034395367 -1.7854738
1.0941343 -0.047007233 -1.7839222
1.1131454 -0.033051804 -1.7945461
1.0788058 -0.028554603 -1.7977241
1.070444 -0.030434072 -1.7945635
1.0660183 -0.027203918 -1.7977558
1.0966125 -0.04231146 -1.7899848
1.0740737 -0.03648293 -1.7939715
1.1212825 -0.045082405 -1.7942536
1.0935599 -0.024138868 -1.8044238
1.0609181 -0.021628127 -1.8075607
1.0662659 -0.029438153 -1.8066347
1.0547826 -0.026075959 -1.806757
1.0873357 -0.040684357 -1.8060186
1.0793923 -0.038517475 -1.8060908
1.076355 -0.036209017 -1.804508
1.0797461 -0.021893471 -1.8164318
1.0745468 -0.022632748 -1.814292
1.0516503 -0.025039792 -1.8137355
1.04696 -0.019357175 -1.8161652
1.0394489 -0.018531784 -1.8182425
1.0731431 -0.035301387 -1.8174154
1.0664668 -0.03067641 -1.8170048
1.0552932 -0.035421774 -1.8103309
1.0443759 -0.032012507 -1.8127885
1.0740516 -0.036337122 -1.8093488
1.058356 -0.015396073 -1.8252237
1.0400196 -0.01496163 -1.8276892
1.0438186 -0.025195271 -1.8210639
1.0379063 -0.024992064 -1.8245858
1.0354955 -0.027810365 -1.8245769
1.073714 -0.03175047 -1.8275142
1.0651622 -0.033290997 -1.8238575
1.0580145 -0.031455055 -1.8273785
1.0315262 -0.018064648 -1.8362308
1.0644615 -0.025853813 -1.8323961
1.0495533 -0.02395457 -1.8322785
1.0402344 -0.02099824 -1.8382009
1.0349573 -0.026642084 -1.8340676
1.027005 -0.020935148 -1.837244
1.0538077 -0.012089685 -1.8485441
1.0252371 -0.011229172 -1.8477273
1.0069528 -0.011063606 -1.846236
1.0491812 -0.017622426 -1.8443352
1.016479 -0.016806573 -1.8430519
1.0599923 -0.023987487 -1.8402824
1.0486435 -0.025900319 -1.8424491
1.0356717 -0.022246137 -1.8427503
1.0374218 -0.0047769845 -1.8583901
1.0347629 -0.0093502104 -1.8532361
1.0093851 -0.010177046 -1.8548961
0.9987824 -0.0044292808 -1.8584862
1.0457184 -0.018223628 -1.8517519
1.0350074 -0.018576264 -1.8552051
1.0258236 -0.013958797 -1.8493296
1.0232038 -0.014413655 -1.8555593
1.0204943 0.0002181828 -1.8661941
1.0163652 -0.0028383732 -1.861868
1.0445327 -0.013150275 -1.8591307
1.0351511 -0.010281608 -1.8605363
1.0287621 -0.012186781 -1.8603351
1.0203959 -0.0058448315 -1.8598312
1.0162548 -0.0070007443 -1.8619547
1.0133895 -0.017703712 -1.8576182
1.0340425 -0.0055976808 -1.8782922
1.0200682 -0.0013944805 -1.8774567
1.0127723 0.0020039082 -1.8783906
1.006862 -0.00015071034 -1.8744167
0.99071282 0.0021181703 -1.8705686
1.0330663 -0.012604177 -1.872475
1.0261587 -0.011622936 -1.8766388
1.0236106 -0.0096822977 -1.8731388
1.013386 -0.0065799654 -1.8697983
1.0027652 -0.010226518 -1.8702265
1.0173994 0.0047608912 -1.8831179
0.99757499 0.0066102147 -1.8866968
1.0141881 -0.003840059 -1.8840077
1.0066915 -0.0017544329 -1.8850293
1.0146683 -0.0089578032 -1.8827226
1.0201148 0.0019471645 -1.8898915
1.0150471 0.0071241856 -1.8990215
1.0081764 0.0063779652 -1.8922025
0.99943322 0.0063702762 -1.8928319
0.98672283 -0.0063862801 -1.8930545
1.0135618 0.011483043 -1.9010619
1.0066254 0.0098526776 -1.9041554
0.99721366 0.0092817545 -1.9017205
1.0117408 0.0026933551 -1.9030851
0.99404627 0.0015036762 -1.899528
0.97760946 0.0020439625 -1.906147
1.0125452 -0.0030929744 -1.8996483
0.98353887 -0.0014231801 -1.903586
1.0096974 0.016012013 -1.9175438
1.0127215 0.011680603 -1.9163873
1.0054488 0.01284048 -1.9151254
0.98822439 0.014366835 -1.911741
0.9837054 0.0087394118 -1.9116573
1.0176659 0.0030168295 -1.9104357
1.0099248 0.0026542842 -1.9163978
0.99426568 -0.0016772151 -1.9120344
1.0194681 -0.0070018768 -1.9094503
0.99996763 0.017680109 -1.9274263
0.98691285 0.017970264 -1.9279567
0.98136711 0.022006303 -1.9250098
0.97347879 0.015880495 -1.9236033
1.0065227 0.014744967 -1.9244835
1.0018002 0.010703444 -1.9196142
0.99370939 0.0079654455 -1.9264666
1.0085485 -0.00039148331 -1.9170927
1.003469 0.00021660328 -1.9187827
0.98527902 0.0019983649 -1.9191192
0.98150772 0.0055486262 -1.920666
0.97074342 0.025743902 -1.9375551
0.99182212 0.021276921 -1.929956
0.99960458 0.0047455728 -1.9352645
0.97684848 0.0085307658 -1.9307846
0.99386674 0.0018128455 -1.9294751
0.98959458 0.025222421 -1.944948
0.98122716 0.028923988 -1.9474858
0.99840117 0.021373004 -1.9444807
0.98896539 0.015464038 -1.9439926
0.96852273 0.014977932 -1.9422913
0.98819876 0.0061488748 -1.9395982
0.98293364 0.028650701 -1.9533901
0.97701263 0.024458438 -1.9569025
0.95942211 0.022039682 -1.9547217
0.97490346 0.015437722 -1.9541135
1.0022353 0.0064323545 -1.9524882
0.99396187 0.0074484944 -1.9489739
0.99556267 0.03038612 -1.9631937
0.98965383 0.030437768 -1.9646828
0.95076084 0.028425336 -1.9660461
0.98844033 0.026922971 -1.9616396
0.97889251 0.028260589 -1.9615741
0.98723811 0.014787495 -1.9617095
0.97284436 0.012410909 -1.9635172
0.97632968 0.037558973 -1.9753808
0.99121571 0.031057566 -1.9775257
0.97879446 0.031798214 -1.9725136
0.97668314 0.034172773 -1.9732271
0.97248662 0.020370752 -1.9722579
0.96434957 0.024129003 -1.9677318
0.98755294 0.014919251 -1.9743334
0.98349506 0.012979388 -1.9668816
0.9749195 0.042014837 -1.9858854
0.96870029 0.035688758 -1.9849974
0.99423993 0.034127831 -1.9834708
0.98711503 0.030824453 -1.985919
0.96751475 0.027617007 -1.9828995
0.9644959 0.029436022 -1.9865084
0.99569559 0.019316792 -1.9844332
0.98285347 0.019160241 -1.9852878
0.97505349 0.022005171 -1.985477
1.0038961 0.011248261 -1.9758661
0.98499775 0.015307128 -1.9792461
0.98345041 0.016007125 -1.9830351
0.96825212 0.044496238 -1.9929894
0.98675698 0.039044827 -1.9930614
0.97679818 0.039052963 -1.9894425
0.96908897 0.025979072 -1.9876139
1.0000031 0.015810758 -1.99247
0.97057813 0.023471862 -1.9909441
0.97306567 0.045031309 -2.0042562
0.96544826 0.04588896 -2.001581
0.99037558 0.038656771 -1.9999524
0.98344368 0.035854727 -2.0024953
0.9687438 0.036540955 -2.001966
0.99213833 0.023482382 -2.001442
0.98176926 0.023740619 -2.0026515
0.97473294 0.026358515 -2.002718
0.97067994 0.031104982 -1.9980674
0.98313349 0.021215379 -1.9990638
0.98651123 0.043185711 -2.0164344
0.98211169 0.044467986 -2.0119929
0.9741773 0.046652585 -2.0098531
0.96795958 0.043240249 -2.010937
0.96305454 0.037208259 -2.008847
0.95832026 0.039445162 -2.0134053
0.97556752 0.028597206 -2.0113916
0.96683705 0.026506901 -2.0071335
0.98087239 0.048178792 -2.0276287
0.97882938 0.050459266 -2.0258398
0.96744066 0.054073632 -2.0207124
0.96108311 0.053599834 -2.0201561
0.98043728 0.045584381 -2.0270932
0.97220939 0.044206679 -2.0180635
0.97193545 0.048316926 -2.0228052
0.95553607 0.043230623 -2.0194905
0.97441238 0.03071183 -2.0199594
0.96118969 0.036594629 -2.0190787
0.95091778 0.029634446 -2.0243268
0.98048389 0.027855694 -2.0188441
0.96164668 0.059191614 -2.0334463
0.97962439 0.050690621 -2.0336921
0.96623266 0.055012792 -2.0354805
0.96222126 0.050997615 -2.0291085
0.96084005 0.043118417 -2.0291917
0.9586603 0.046673477 -2.034462
0.97531348 0.031253189 -2.030653
0.96742684 0.03545779 -2.0303071
0.95661736 0.032515705 -2.0337913
0.96772563 0.059273601 -2.0423429
0.95241982 0.057684362 -2.040024
0.97665936 0.052483559 -2.0436752
0.96335989 0.046791673 -2.0449781
0.99459863 0.045410812 -2.041034
0.98807591 0.04355979 -2.0440366
0.96948105 0.038357884 -2.0440867
0.98772669 0.029544443 -2.0398355
0.97409183 0.035065144 -2.0372007
0.95404196 0.033077329 -2.0392985
0.99051559 0.064714164 -2.0587649
0.9706738 0.064758241 -2.0561314
0.96662486 0.059574753 -2.0524304
0.95654827 0.062255979 -2.0553534
0.98178333 0.050487697 -2.0475531
0.97334278 0.038269371 -2.0500636
0.96635067 0.040004611 -2.0475433
0.95893109 0.040435642 -2.0501761
0.97579944 0.034503639 -2.0499299
0.94438332 0.068469256 -2.0669401
0.97947502 0.055010349 -2.06479
0.97402489 0.055975229 -2.0609412
0.96937329 0.060256451 -2.0605311
0.99070567 0.049973369 -2.0576377
0.96587974 0.050464958 -2.0607643
0.96527445 0.044551432 -2.0647793
0.94915241 0.047195107 -2.0609465
0.97330922 0.041715145 -2.0627577
0.98406965 0.033873737 -2.0545738
0.99308729 0.070448428 -2.0729935
0.96701699 0.064136714 -2.0693803
0.95787799 0.067141175 -2.0714886
0.93941993 0.053881049 -2.0715258
0.99651307 0.046273172 -2.0693843
0.97345072 0.043771833 -2.0716832
0.98100972 0.038156897 -2.0717587
0.97883093 0.03715533 -2.0703018
0.95557415 0.071020216 -2.0800354
0.94610173 0.072640508 -2.0831327
0.98021287 0.060667992 -2.0851116
0.97716671 0.05953294 -2.082027
0.96666074 0.06610617 -2.0785749
0.99889797 0.052263349 -2.0827379
0.98147559 0.057900757 -2.0852132
0.96839947 0.054138213 -2.076551
0.97370422 0.046310037 -2.0798302
0.99005717 0.037760139 -2.0781193
0.98919427 0.075010926 -2.0895975
0.98311806 0.074849904 -2.0921652
0.96879625 0.069386691 -2.0960338
0.96634257 0.070428163 -2.0956919
0.95596361 0.075549722 -2.0968649
0.98386747 0.058715522 -2.0871897
0.97091931 0.057811469 -2.0923374
0.99278647 0.051379234 -2.0862105
0.96209848 0.053377211 -2.0904691
0.94113839 0.058052301 -2.0877185
0.97580945 0.045735985 -2.0891125
0.95934123 0.074485093 -2.1052439
0.99497581 0.05686003 -2.0994658
0.98905981 0.056485355 -2.1030364
0.97485852 0.064055532 -2.0992639
0.96223283 0.063916564 -2.1026628
0.96887457 0.048071444 -2.1016407
0.9960373 0.078301907 -2.1122804
0.97941935 0.079917789 -2.1088653
0.96949786 0.08176294 -2.1137414
0.96602428 0.074750125 -2.1128089
0.95635301 0.080079287 -2.1136942
0.9905706 0.061327726 -2.1115689
0.96249068 0.057939172 -2.1074193
0.95434344 0.059795648 -2.1098614
0.97072732 0.049834967 -2.1094613
0.99249971 0.081470042 -2.1256957
0.96107155 0.078685313 -2.1215489
0.98481506 0.066357642 -2.1247771
0.97792763 0.068409711 -2.1224325
0.99105376 0.061456621 -2.116194
0.98533314 0.061591417 -2.1198623
0.972489 0.056831837 -2.1234069
0.98753804 0.048774958 -2.1144953
0.96656626 0.052594095 -2.1188774
0.99596161 0.081492186 -2.1285725
0.98779136 0.082905322 -2.1347017
0.96570599 0.079072118 -2.129926
0.95621771 0.073550224 -2.1284628
0.98999935 0.065094084 -2.1303396
0.98520994 0.066832006 -2.1281457
0.96764284 0.061582237 -2.1322663
0.98644578 0.053389311 -2.1319876
0.97488934 0.060094744 -2.131047
1.0056883 0.080001116 -2.1406639
0.99020487 0.086658716 -2.1448925
0.97441763 0.080602854 -2.1440349
0.96858585 0.082384408 -2.1371799
0.98248953 0.07091409 -2.1421428
0.95870417 0.077174813 -2.1440399
0.99882448 0.06356281 -2.1392267
0.97216839 0.061185181 -2.1406484
0.96247673 0.057016253 -2.1386266
1.0010142 0.08433494 -2.1516585
0.97738034 0.081163943 -2.154381
0.99111217 0.073979229 -2.1462142
0.98162585 0.071029067 -2.1452827
0.99381793 0.064461648 -2.1459818
0.97528434 0.064689666 -2.1481194
0.96938509 0.065811515 -2.1486845
0.98535365 0.058003753 -2.1494796
0.99629468 0.08593747 -2.160934
0.98979574 0.090123087 -2.1632016
1.0017366 0.084632427 -2.1575181
0.99001998 0.078593552 -2.1637065
0.97616005 0.084832162 -2.1604528
0.99006289 0.069606483 -2.162936
1.0069575 0.066024572 -2.1627676
0.99933511 0.067220449 -2.1567023
0.96497965 0.060664982 -2.1543069
0.99623734 0.089694977 -2.1704419
0.97705978 0.085517287 -2.1716223
0.99321502 0.082461655 -2.1679935
1.0077142 0.06627658 -2.168062
0.99258751 0.073283702 -2.1681771
0.97112751 0.070040852 -2.1651025
0.98413122 0.062887311 -2.1661742
0.99631846 0.094099402 -2.1832614
1.0096623 0.087242752 -2.178019
0.99127042 0.085148901 -2.1831944
0.97790229 0.089061469 -2.1768711
1.0029879 0.070966542 -2.1805954
1.0001787 0.064511031 -2.1793113
1.0059603 0.092232108 -2.1950433
0.99912989 0.092439711 -2.1898139
0.97964466 0.093290776 -2.1932888
1.0227046 0.085141182 -2.1933064
1.0049282 0.08901611 -2.1875677
0.97673929 0.089870632 -2.1888633
1.0088136 0.069379449 -2.1834683
0.98418266 0.06972155 -2.1854103
0.99401093 0.091718107 -2.2023861
1.0042634 0.074724704 -2.1978295
0.98335516 0.071926981 -2.2001109
1.0162379 0.068741471 -2.1945932
1.0111755 0.070335776 -2.1994262
0.99809331 0.067028105 -2.1947036
1.0177152 0.089873016 -2.2072208
1.0066024 0.096662462 -2.2098091
1.0003084 0.085626841 -2.2071064
1.0122256 0.073443741 -2.2117052
0.99841303 0.073793083 -2.2113624
1.0314052 0.087771446 -2.2202339
1.0086069 0.09479183 -2.2168338
1.0009927 0.089844346 -2.2219126
1.0132558 0.078130186 -2.2214479
1.0245302 0.071228504 -2.2175467
1.0009803 0.073835313 -2.2139554
1.0054767 0.099173337 -2.2344134
1.0268886 0.09162429 -2.2283356
1.0175161 0.09081018 -2.2302535
1.0068084 0.094155222 -2.2270474
0.99920797 0.090275764 -2.2247295
1.0200459 0.073343307 -2.226763
1.0152798 0.075987875 -2.2283597
1.0170438 0.099264771 -2.2367632
0.99810761 0.094924629 -2.2423525
1.0268458 0.092129618 -2.2348654
1.0207571 0.075136423 -2.2362933
1.0123993 0.078216374 -2.237704
1.014665 0.10392585 -2.254528
1.0354692 0.093242556 -2.2524526
1.0195558 0.095877171 -2.2495542
1.0402323 0.090443969 -2.2475727
1.0336277 0.074527383 -2.2439384
1.025906 0.089829028 -2.2559087
1.0265067 0.077647477 -2.2589622
1.0143487 0.080851078 -2.2563477
1.0202199 0.10132116 -2.2695363
1.0210751 0.099449217 -2.2637899
1.0159352 0.08434242 -2.2685385
