# .PCD v0.7 - Point Cloud Data file format
VERSION 0.7
FIELDS x y z
SIZE 4 4 4
TYPE F F F
COUNT 1 1 1
WIDTH 648
HEIGHT 1
VIEWPOINT 0 0 0 1 0 0 0
POINTS 648
DATA ascii
0.029843867 -0.23392178 -0.63196081
0.024115197 -0.24387988 -0.62986416
0.036407992 -0.23836094 -0.63841879
0.030946091 -0.23833941 -0.63613969
0.026183128 -0.23817036 -0.63615549
0.036431797 -0.24746124 -0.637362
0.030809604 -0.24763075 -0.63681245
0.026377041 -0.2474204 -0.63471115
0.036480945 -0.25303239 -0.6382519
0.030282253 -0.25451797 -0.6372804
0.026907487 -0.25401911 -0.63419539
0.026052162 -0.26264089 -0.63682967
0.039548181 -0.23106186 -0.64530116
0.033983633 -0.23351359 -0.64180845
0.022160474 -0.23091362 -0.64511865
0.017821129 -0.22935981 -0.64754552
0.01272741 -0.22851677 -0.65113819
0.043956436 -0.23831879 -0.64746737
0.038070086 -0.23933744 -0.64495486
0.031019887 -0.23981681 -0.64114308
0.023625489 -0.23854157 -0.64512926
0.019072156 -0.24002975 -0.64747143
0.042324256 -0.24829569 -0.64654845
0.037603837 -0.24805528 -0.64413244
0.031271666 -0.24912691 -0.64016616
0.024373453 -0.24823469 -0.64551699
0.020328961 -0.24807766 -0.64620376
0.042028561 -0.25578833 -0.64717555
0.036525071 -0.2576746 -0.64354402
0.030978253 -0.2572158 -0.64065117
0.025328018 -0.25701386 -0.64444613
0.035861153 -0.26719552 -0.64375991
0.03067611 -0.26715863 -0.64225358
0.025504608 -0.26768276 -0.64363277
0.035268519 -0.27741101 -0.64397454
0.031165751 -0.27625346 -0.64334607
0.031105971 -0.28193173 -0.64356148
0.05518296 -0.23258427 -0.65975946
0.049993146 -0.23082396 -0.65765589
0.045649532 -0.2317366 -0.6552555
0.015410829 -0.23201472 -0.65243334
0.010808957 -0.23152551 -0.65810633
0.0068244468 -0.23287915 -0.65894151
0.055150632 -0.23775464 -0.6590246
0.050164048 -0.23947836 -0.65659785
0.044196371 -0.23968062 -0.65462381
0.040607397 -0.24070302 -0.65093076
0.022067556 -0.24157387 -0.64974928
0.016776884 -0.23946463 -0.65214968
0.01185274 -0.2384935 -0.65543771
0.045158163 -0.24869058 -0.65175557
0.039506424 -0.25109744 -0.64959019
0.022166822 -0.24770787 -0.65173095
0.016371991 -0.24592774 -0.65093857
0.050978273 -0.25960022 -0.65214461
0.043816812 -0.26093376 -0.65106535
0.038733292 -0.26028138 -0.64959145
0.02514749 -0.26019046 -0.64883935
0.043345764 -0.26922488 -0.6520282
0.037413482 -0.26930532 -0.64902043
0.033207167 -0.27172327 -0.64684558
0.025047123 -0.26778403 -0.64953047
0.041896418 -0.27742472 -0.65238476
0.037166089 -0.27750406 -0.64901024
0.030371826 -0.27906823 -0.64692223
0.02528416 -0.27714053 -0.6509583
0.041231222 -0.28482336 -0.65239286
0.036478937 -0.28576174 -0.64856821
0.030424567 -0.28636876 -0.64717835
0.02566443 -0.28643078 -0.65085047
0.019398432 -0.28905675 -0.65207165
0.036336765 -0.29710171 -0.64982373
0.031412873 -0.29651999 -0.64861447
0.03588897 -0.30413875 -0.64773399
0.033830374 -0.30666953 -0.64935422
0.0083794147 -0.22374213 -0.66201401
0.0036870926 -0.22255641 -0.66705012
-0.00069808401 -0.22130486 -0.66846937
0.061961167 -0.23203361 -0.67009211
0.057423174 -0.23232545 -0.66682577
0.052313708 -0.23356804 -0.66436356
0.0091124643 -0.23291332 -0.66262704
0.0052338503 -0.23164873 -0.66609991
0.056278683 -0.23924175 -0.66643214
0.050509721 -0.24100408 -0.66371971
0.04649223 -0.24456257 -0.65927619
0.010949626 -0.23918192 -0.6608873
0.0044596158 -0.23853314 -0.66621262
0.044875748 -0.26832494 -0.65713018
0.044612452 -0.28044376 -0.65846711
0.039785482 -0.28054523 -0.65578997
0.023682237 -0.28198415 -0.65552104
0.043921627 -0.28892708 -0.65654397
0.039234392 -0.29044813 -0.65528464
0.027501509 -0.28787816 -0.65655023
0.024894325 -0.28946096 -0.65536553
0.011070048 -0.29180521 -0.6591419
0.042333055 -0.297548 -0.65720236
0.0389979 -0.29854608 -0.65426826
0.027909089 -0.29831702 -0.65584248
0.024469342 -0.2969119 -0.65520269
0.043044634 -0.30558017 -0.65800321
0.037135288 -0.30688971 -0.65368819
0.030548815 -0.3068676 -0.6526264
0.024936849 -0.30697286 -0.65655798
0.0023737554 -0.2275874 -0.6711632
-0.0022282004 -0.22493079 -0.67537838
-0.0083001228 -0.21994421 -0.6774537
0.063814215 -0.23429877 -0.67790812
0.058975548 -0.23448542 -0.67277819
0.002997146 -0.23477124 -0.6714105
-0.001177541 -0.2331717 -0.67460829
0.058363967 -0.24085569 -0.6723699
0.054226287 -0.24310619 -0.66949177
0.0034822659 -0.23904821 -0.67230034
0.00031969417 -0.23895879 -0.6754126
0.046088576 -0.29748857 -0.66216922
0.023919979 -0.29557231 -0.66126049
0.020421797 -0.29762462 -0.66141897
-0.0093667051 -0.21786144 -0.68331832
-0.014072293 -0.21583411 -0.68524224
0.071277775 -0.22657639 -0.68707931
0.067363448 -0.22716583 -0.68475157
-0.0049498593 -0.22902982 -0.68197894
-0.0094682556 -0.22647867 -0.68534988
-0.013405502 -0.22610572 -0.68674248
0.075318791 -0.23286146 -0.68935394
0.070488624 -0.23390114 -0.68482113
0.0660742 -0.23466715 -0.68348908
0.06090153 -0.23237541 -0.68079859
-0.0038911821 -0.23481303 -0.68091023
-0.0080162762 -0.23396122 -0.68452674
-0.0050053168 -0.23916975 -0.67892373
-0.01685109 -0.21730149 -0.69343489
-0.021432642 -0.21621412 -0.69674271
0.082852148 -0.22475089 -0.70038491
0.078350902 -0.22687548 -0.69672811
0.07360442 -0.22676776 -0.69314146
-0.012305889 -0.22637296 -0.69217485
-0.016291536 -0.22661209 -0.69436109
-0.019526144 -0.23012626 -0.69718403
0.077953681 -0.23397279 -0.69617653
0.072582632 -0.23472032 -0.69207782
-0.011354999 -0.23441416 -0.69098073
-0.014805791 -0.23475477 -0.69425875
-0.02349408 -0.21995395 -0.70472479
-0.028126406 -0.2167215 -0.70498836
0.090185449 -0.22717591 -0.70865476
0.08440911 -0.22787814 -0.70518863
0.079878435 -0.22911805 -0.70227057
-0.017448131 -0.2287935 -0.69970441
-0.022358434 -0.22779089 -0.70293176
-0.02815862 -0.22453067 -0.70820355
0.083222046 -0.2356585 -0.69946313
-0.031359494 -0.20956306 -0.7124911
-0.035185527 -0.2100226 -0.71548861
-0.041604176 -0.20922706 -0.71632028
0.097082868 -0.22303768 -0.71914548
0.092691943 -0.22056726 -0.71665215
-0.029624842 -0.22049171 -0.71253645
-0.034561723 -0.22014217 -0.71509075
0.095995814 -0.22982439 -0.71902746
0.091531172 -0.22850932 -0.71577132
0.087230511 -0.2287406 -0.71188301
-0.025146849 -0.22612479 -0.70804727
-0.029038982 -0.22830242 -0.71071374
-0.033162877 -0.2256937 -0.71630156
-0.037273262 -0.21467146 -0.72205514
-0.041282102 -0.2113508 -0.72490746
0.10454008 -0.22309431 -0.72783983
0.099405333 -0.22221006 -0.725501
0.094895728 -0.22275513 -0.72264785
-0.035947625 -0.22138317 -0.72186935
-0.041891243 -0.22016667 -0.72666466
0.098679624 -0.22980124 -0.72378945
0.094629511 -0.22946335 -0.7224111
-0.036400292 -0.22694837 -0.72063017
-0.049548998 -0.2044251 -0.7347737
-0.043516181 -0.21506001 -0.73096234
-0.046835624 -0.21338281 -0.73422927
0.11012287 -0.223665 -0.73671556
0.10580594 -0.22221103 -0.73382169
0.10168704 -0.22279254 -0.73062485
-0.042226728 -0.22115684 -0.73081905
-0.046767876 -0.22161445 -0.73637813
0.098368436 -0.22820246 -0.73059916
-0.050051026 -0.20879865 -0.73918152
-0.056620233 -0.20565175 -0.74389428
-0.059952572 -0.20234299 -0.74811882
0.11317204 -0.21630839 -0.74500316
0.10937578 -0.21886587 -0.74150038
-0.050662886 -0.21588203 -0.74273491
-0.054796517 -0.21413869 -0.74441123
0.11306261 -0.22288024 -0.74442607
0.10787774 -0.22427598 -0.74010259
-0.04882779 -0.22235525 -0.74101979
-0.054486573 -0.22280729 -0.74507856
-0.062562414 -0.20599316 -0.7519747
-0.068218 -0.20220986 -0.75551248
0.12518048 -0.21667233 -0.75848114
0.12006941 -0.21677907 -0.753959
0.11424147 -0.21944401 -0.75104046
-0.05686954 -0.21548751 -0.75009471
-0.060623921 -0.21660608 -0.75375742
0.1182579 -0.22219044 -0.75019962
0.11504407 -0.22201103 -0.74965018
-0.054727979 -0.223388 -0.74773133
-0.069090128 -0.19801177 -0.76230484
-0.074306041 -0.19791366 -0.76581538
-0.064838849 -0.21006206 -0.75916487
-0.068577737 -0.2069329 -0.76346791
0.13257262 -0.21524632 -0.76600486
0.12671649 -0.21605656 -0.76317912
0.12291472 -0.2186182 -0.76024401
-0.063137867 -0.21749689 -0.75857991
-0.067435257 -0.21543382 -0.76453626
-0.07541354 -0.19953242 -0.77052176
-0.080472253 -0.19968781 -0.77414703
-0.069441736 -0.20981807 -0.76742566
-0.074118964 -0.20840225 -0.77093118
-0.080418177 -0.20985144 -0.77312696
0.13345847 -0.21708965 -0.7739585
-0.07047531 -0.21592413 -0.76908684
-0.073588058 -0.21761003 -0.77191502
-0.10003854 -0.19439508 -0.78450561
-0.082673334 -0.20005304 -0.78126872
-0.087490723 -0.20018202 -0.7803359
0.14706846 -0.21073902 -0.78718328
0.14160644 -0.2110849 -0.78372759
-0.077257574 -0.21225432 -0.78126043
-0.080185093 -0.21050268 -0.78067797
-0.087323718 -0.20874396 -0.78504181
-0.076334305 -0.21785702 -0.77894419
-0.080477901 -0.21704228 -0.78205353
-0.089708276 -0.19332716 -0.78854948
-0.094828628 -0.19244908 -0.79463315
-0.085346624 -0.20380288 -0.78695261
-0.089354113 -0.20215112 -0.79020292
-0.094406977 -0.20046711 -0.79556042
0.15232639 -0.21039188 -0.79573888
0.14782573 -0.21006927 -0.79219127
-0.08464101 -0.21094188 -0.78685755
-0.088066056 -0.21050549 -0.79071587
-0.085450597 -0.21652308 -0.78590482
-0.087707892 -0.21631305 -0.7890898
-0.098301686 -0.19180134 -0.80024332
-0.10145377 -0.19277498 -0.80137426
-0.11414485 -0.19589561 -0.80074191
-0.095582575 -0.20259599 -0.79982245
-0.10013457 -0.20379838 -0.80293179
-0.091222361 -0.21119173 -0.79630262
-0.09587577 -0.21041372 -0.80101937
-0.1003788 -0.21032435 -0.80356944
-0.091657996 -0.21740156 -0.7974475
-0.10445831 -0.18643662 -0.80887496
-0.10875725 -0.18620139 -0.81322342
-0.12072685 -0.18536234 -0.8138929
-0.10169708 -0.19666338 -0.80837584
-0.10586789 -0.1933699 -0.81189668
-0.11538029 -0.19604577 -0.81083167
-0.096919708 -0.20783247 -0.80496204
-0.10175793 -0.20498575 -0.81032258
-0.10869429 -0.20696774 -0.80670089
0.16121787 -0.21141347 -0.80934769
-0.10118475 -0.21197453 -0.80839717
-0.10629235 -0.21303685 -0.81252283
-0.11111066 -0.18670508 -0.81759101
-0.11488455 -0.18672074 -0.82235712
-0.12437382 -0.18621281 -0.81992728
-0.12940162 -0.18372497 -0.82410157
-0.10983148 -0.19616242 -0.818165
-0.11362703 -0.19683293 -0.82224357
0.1695147 -0.2053909 -0.82229811
-0.10448838 -0.20660844 -0.81584769
-0.10901605 -0.20546296 -0.8184275
-0.11445641 -0.20809354 -0.82241356
-0.10300978 -0.21140124 -0.81639755
-0.10754717 -0.2118575 -0.81725055
-0.11684623 -0.1891838 -0.82622504
-0.12106474 -0.18843174 -0.8302272
-0.12953185 -0.18835063 -0.82957733
-0.13392577 -0.18666473 -0.83303624
-0.11641984 -0.1985539 -0.82875425
-0.12102784 -0.19746019 -0.83070707
-0.12880392 -0.19566195 -0.82880872
-0.10812457 -0.20719683 -0.8250668
-0.11587968 -0.20681357 -0.82745504
-0.12137053 -0.20834202 -0.82901043
-0.11030141 -0.21287668 -0.82541418
-0.12869515 -0.17952926 -0.83972579
-0.1352382 -0.1802454 -0.83993453
-0.14161694 -0.18024203 -0.84197789
-0.12345508 -0.19015926 -0.83649272
-0.12777175 -0.18775143 -0.83991933
-0.13571362 -0.18959358 -0.83982801
-0.12199559 -0.19936274 -0.83760679
-0.12758954 -0.20013079 -0.84260583
-0.1356234 -0.19994038 -0.84076673
-0.12299197 -0.20580983 -0.83744419
-0.13169745 -0.18436313 -0.84710515
-0.13577858 -0.18091635 -0.85071003
-0.14253262 -0.18427274 -0.84775358
-0.14834876 -0.18073335 -0.85115463
-0.15248238 -0.18058629 -0.85220009
-0.12961514 -0.19359243 -0.8471384
-0.13437338 -0.18884984 -0.85105115
-0.14478712 -0.18892951 -0.85215551
-0.14673601 -0.18920298 -0.85287529
-0.12975284 -0.20032419 -0.84691995
-0.13681769 -0.19862302 -0.84636819
-0.1411323 -0.19833112 -0.84803122
-0.14836296 -0.17470016 -0.86238825
-0.13795555 -0.18629092 -0.85601813
-0.14132714 -0.18188852 -0.85794145
-0.15012026 -0.18107107 -0.85908335
-0.15389775 -0.18201566 -0.85969025
-0.13583018 -0.19444245 -0.85685587
-0.14157481 -0.19069441 -0.86087042
-0.14985894 -0.19007626 -0.85725319
-0.15354465 -0.19189781 -0.85925174
-0.13638797 -0.19949377 -0.85608667
-0.14259532 -0.19856268 -0.85653639
-0.14941245 -0.19826926 -0.85698497
-0.14865725 -0.17543904 -0.86761206
-0.15404467 -0.1752267 -0.8708508
-0.16266055 -0.17472102 -0.86986452
-0.14799041 -0.1839567 -0.86822212
-0.15571785 -0.1847083 -0.86577451
-0.16079648 -0.18380909 -0.86954284
-0.14211628 -0.19542798 -0.86488956
-0.14840597 -0.19257838 -0.86632985
-0.15516552 -0.1933725 -0.86711502
-0.16027121 -0.19422606 -0.87024271
-0.13728049 -0.20621572 -0.86658514
-0.1421783 -0.19960661 -0.86344242
-0.14920151 -0.20214021 -0.86583334
-0.15592495 -0.1765462 -0.87784237
-0.16168572 -0.17516944 -0.87968731
-0.16890891 -0.17487544 -0.87999344
-0.14909086 -0.18622845 -0.87599719
-0.15471277 -0.18594879 -0.87836611
-0.16298996 -0.18512636 -0.87694526
-0.16787572 -0.18309604 -0.8802222
-0.14865758 -0.19367003 -0.87526858
-0.15431035 -0.19399984 -0.87889785
-0.16178092 -0.19287875 -0.8747285
-0.16645359 -0.19569841 -0.87836671
-0.16340809 -0.20099029 -0.87925285
-0.16333769 -0.17011946 -0.88683933
-0.16763765 -0.16803408 -0.89002186
-0.16208778 -0.1790956 -0.88663757
-0.16757102 -0.17568654 -0.89045125
-0.17511927 -0.17734596 -0.88842803
-0.18175143 -0.17350432 -0.89223462
-0.16191532 -0.18676245 -0.8891027
-0.16986622 -0.18762304 -0.88632971
-0.17614968 -0.18437432 -0.89130557
-0.15466022 -0.19737545 -0.8813138
-0.16047332 -0.19451328 -0.88529122
-0.16800284 -0.1938796 -0.88292021
-0.17022611 -0.17199366 -0.89673465
-0.17526321 -0.16832235 -0.89947778
-0.18252714 -0.16831288 -0.89801866
-0.1866032 -0.16839029 -0.90138257
-0.16911528 -0.17899905 -0.89544648
-0.17512903 -0.17627344 -0.89856809
-0.1806073 -0.17723694 -0.89761376
-0.18639733 -0.17464489 -0.90083718
-0.16312222 -0.18847835 -0.89248657
-0.16801251 -0.18820655 -0.89883178
-0.1749206 -0.18890633 -0.89247948
-0.17952743 -0.18790704 -0.89759594
-0.17907432 -0.19512413 -0.89689052
-0.17798847 -0.17114329 -0.90390831
-0.18224353 -0.16950613 -0.91038263
-0.18950118 -0.1691266 -0.90783536
-0.19284324 -0.17087367 -0.90811342
-0.17094666 -0.18209326 -0.90357697
-0.17597699 -0.17729768 -0.90387321
-0.18422426 -0.17993173 -0.90250051
-0.18794177 -0.17902426 -0.90712851
-0.17325668 -0.18886679 -0.90555239
-0.18201123 -0.18719971 -0.9057942
-0.18812315 -0.1637015 -0.91774762
-0.1952159 -0.16175227 -0.91825378
-0.18395299 -0.17183113 -0.91516054
-0.18804792 -0.17316428 -0.91856819
-0.19488847 -0.17197569 -0.91598159
-0.19987309 -0.16971141 -0.91919911
-0.17758617 -0.18361805 -0.91119498
-0.18430845 -0.178018 -0.91996193
-0.19077083 -0.18077455 -0.91274196
-0.1946597 -0.18317112 -0.91877943
-0.17761102 -0.19069771 -0.91014099
-0.19515295 -0.16406983 -0.92721051
-0.20301636 -0.16472927 -0.92502207
-0.20725593 -0.16240658 -0.92780221
-0.18893239 -0.17347123 -0.92443717
-0.19518813 -0.17330763 -0.92490089
-0.20279273 -0.17426535 -0.92784864
-0.20750216 -0.16931656 -0.92932385
-0.18201888 -0.18048251 -0.92075765
-0.18771338 -0.18106329 -0.92339206
-0.19727696 -0.18146893 -0.92269957
-0.20062755 -0.18276221 -0.92503506
-0.17684916 -0.18750685 -0.91979784
-0.18199147 -0.18756935 -0.91975534
-0.19735472 -0.16704452 -0.93393755
-0.2022365 -0.164132 -0.93723929
-0.20910721 -0.16477007 -0.93526733
-0.21357809 -0.16553894 -0.93903136
-0.19659951 -0.17424828 -0.93313283
-0.20480801 -0.17047754 -0.93738294
-0.20846665 -0.17423561 -0.93608582
-0.21192092 -0.17036667 -0.93747079
-0.19710048 -0.18055889 -0.93568778
-0.20283577 -0.18588653 -0.93184054
-0.20707588 -0.18204346 -0.93506944
-0.20949739 -0.15608481 -0.94648272
-0.21591929 -0.15773807 -0.94704521
-0.22174545 -0.15772212 -0.94848251
-0.22742672 -0.15684351 -0.95024526
-0.20877156 -0.16433415 -0.94653869
-0.2165464 -0.1659233 -0.94547564
-0.22114968 -0.16557001 -0.94829565
-0.20240395 -0.17591235 -0.94454503
-0.20945814 -0.17695171 -0.94183123
-0.21472263 -0.17576413 -0.94505388
-0.21979651 -0.17297959 -0.94827187
-0.20922418 -0.18261707 -0.94194919
-0.21364002 -0.1834656 -0.94257373
-0.21497262 -0.15820195 -0.95546842
-0.22099115 -0.15676093 -0.95531368
-0.22758347 -0.15718544 -0.95690197
-0.23278649 -0.1590981 -0.95797747
-0.20959121 -0.16833226 -0.95088249
-0.21351954 -0.16788457 -0.95481151
-0.22164454 -0.16627899 -0.95426452
-0.22522618 -0.16413414 -0.9544065
-0.20796798 -0.17783628 -0.95152634
-0.21534483 -0.17578195 -0.95396614
-0.22057691 -0.17723578 -0.95497823
-0.21593834 -0.18334189 -0.9504382
-0.22781795 -0.15120739 -0.9665885
-0.22135 -0.16121022 -0.96275008
-0.22717635 -0.1592719 -0.96652937
-0.23421189 -0.15794988 -0.9664619
-0.22165819 -0.16908829 -0.96165395
-0.22807734 -0.16950564 -0.96565861
-0.2330676 -0.16767639 -0.96876687
-0.21382056 -0.17788577 -0.95925015
-0.22344656 -0.17530052 -0.960235
-0.22678757 -0.17821309 -0.96336526
-0.22884481 -0.15383251 -0.97278875
-0.23425621 -0.15138261 -0.97745377
-0.24197812 -0.15071483 -0.97542495
-0.24507199 -0.14780597 -0.98044604
-0.2289995 -0.16259032 -0.97416174
-0.23504858 -0.16084316 -0.97649103
-0.24003857 -0.16092367 -0.97639579
-0.22193031 -0.17247257 -0.97198749
-0.23101264 -0.16917174 -0.97383034
-0.23614717 -0.16950141 -0.97297806
-0.24026231 -0.16764268 -0.97726166
-0.22414805 -0.17624567 -0.97396982
-0.23038119 -0.17713384 -0.97610605
-0.23226757 -0.17568678 -0.96968555
-0.23792562 -0.15387926 -0.98500913
-0.24277122 -0.15346818 -0.98450607
-0.24841373 -0.15295036 -0.98515123
-0.25339872 -0.14923066 -0.98945981
-0.23640329 -0.16401401 -0.98305362
-0.24277556 -0.16323942 -0.98301101
-0.2461191 -0.16296139 -0.98479033
-0.2306851 -0.17081656 -0.98170143
-0.24220484 -0.17113183 -0.98128778
-0.24544178 -0.17008768 -0.98460853
-0.23144805 -0.17891897 -0.98367053
-0.23694389 -0.17887162 -0.98357916
-0.24410427 -0.17646039 -0.98275137
-0.24552453 -0.17820024 -0.98472035
-0.25600785 -0.14452286 -0.99426293
-0.25965106 -0.14503448 -0.99784559
-0.243047 -0.15658951 -0.98976791
-0.24730961 -0.15278928 -0.99313021
-0.25400001 -0.15363967 -0.99420506
-0.25862801 -0.15337652 -0.99823701
-0.2422175 -0.16373937 -0.99178475
-0.25016639 -0.1634149 -0.99054027
-0.25341579 -0.16250506 -0.99500149
-0.23838398 -0.17237464 -0.99083769
-0.24810275 -0.17160624 -0.9904989
-0.25254074 -0.17023873 -0.99456531
-0.24934511 -0.17808726 -0.99104476
-0.25481406 -0.14550717 -1.0053436
-0.26268324 -0.14597908 -1.0036258
-0.26709718 -0.14449805 -1.0077763
-0.25012225 -0.155953 -1.0007489
-0.25426951 -0.15590259 -1.0036048
-0.26126325 -0.15443456 -1.0038818
-0.24789312 -0.16290958 -1.0009785
-0.2557829 -0.16441686 -1.0012977
-0.26075327 -0.16465892 -1.0048096
-0.24545892 -0.17341828 -0.99701983
-0.25548416 -0.17195152 -1.0004312
-0.26427498 -0.14027429 -1.0162421
-0.26140541 -0.14652212 -1.0122267
-0.2682735 -0.14746366 -1.0133379
-0.27277133 -0.14641166 -1.0166264
-0.25686172 -0.15496087 -1.011507
-0.26029921 -0.15528493 -1.013209
-0.26872587 -0.15647583 -1.0145462
-0.25336859 -0.16728145 -1.00753
-0.26336643 -0.16512552 -1.0097517
-0.26584545 -0.16175216 -1.0112964
-0.2595894 -0.17222375 -1.0078986
-0.26797017 -0.14132959 -1.0266157
-0.27590328 -0.13953963 -1.0233632
-0.28108951 -0.13947976 -1.0262185
-0.26278642 -0.15222941 -1.0185205
-0.26663753 -0.14631173 -1.020561
-0.2756148 -0.14893799 -1.0226408
-0.27929339 -0.14764681 -1.0264345
-0.26145464 -0.16104139 -1.0183365
-0.26779547 -0.1567048 -1.0242636
-0.27465275 -0.15801547 -1.0233999
-0.26980928 -0.16784027 -1.0199789
-0.27375227 -0.16352595 -1.022552
-0.27604663 -0.14102429 -1.0318576
-0.2832047 -0.14030948 -1.0315711
-0.2873852 -0.14023161 -1.0351455
-0.26885757 -0.14973742 -1.0287306
-0.27554834 -0.14891851 -1.033703
-0.28103465 -0.15005228 -1.0313648
-0.28544021 -0.14720778 -1.0343509
-0.26804578 -0.15787736 -1.027217
-0.27734533 -0.15862553 -1.0284259
-0.28136066 -0.15851125 -1.0322136
-0.2754733 -0.1671235 -1.0261965
-0.27952108 -0.1661064 -1.0316471
-0.28357723 -0.14066593 -1.0424347
-0.28936207 -0.14086886 -1.0418253
-0.29360417 -0.14018404 -1.0442421
-0.28191823 -0.15184626 -1.0407621
-0.28838912 -0.15013686 -1.0421547
-0.29236168 -0.14991896 -1.0443619
-0.27374938 -0.16319837 -1.0374082
-0.282693 -0.15913029 -1.0390106
-0.28719026 -0.15999529 -1.0407929
-0.29348499 -0.13240077 -1.0539396
-0.30113336 -0.13363169 -1.0533007
-0.30569297 -0.13420235 -1.0544914
-0.28699821 -0.14493698 -1.053472
-0.29528639 -0.1421399 -1.0510386
-0.30057707 -0.14255439 -1.0547236
-0.28573021 -0.14909911 -1.0472298
-0.29462928 -0.15149945 -1.0497015
-0.29882672 -0.15146488 -1.0543016
-0.29436916 -0.15846065 -1.0512422
-0.29595008 -0.13592322 -1.0620009
-0.3036592 -0.1361201 -1.0621156
-0.30752662 -0.13438439 -1.062969
-0.29653659 -0.14306152 -1.0611582
-0.30362955 -0.14413878 -1.0609022
-0.30717215 -0.14147565 -1.0647192
-0.28797328 -0.153584 -1.0557358
-0.29383346 -0.15070742 -1.0562961
-0.30160972 -0.152826 -1.059926
-0.30283606 -0.12885971 -1.0699872
-0.30844736 -0.12712178 -1.0742558
-0.31899533 -0.1266696 -1.0760524
-0.3039293 -0.13622262 -1.0716479
-0.30854025 -0.1356269 -1.0695683
-0.31374115 -0.13572146 -1.0727428
-0.30168647 -0.14520709 -1.0688578
-0.30835786 -0.14476329 -1.0687177
-0.31251594 -0.14480543 -1.0727661
-0.29717308 -0.15356094 -1.0672046
-0.30388987 -0.15415831 -1.0652083
-0.31303594 -0.12821074 -1.0817214
-0.32177135 -0.12873647 -1.0817873
-0.32627061 -0.12607381 -1.0853995
-0.33183521 -0.1286201 -1.0804037
-0.30916929 -0.13714689 -1.0779157
-0.31509355 -0.13789731 -1.0797704
-0.32057568 -0.13689572 -1.0824493
-0.30717766 -0.14540543 -1.0785834
-0.31561306 -0.14654739 -1.078778
-0.31895345 -0.14573523 -1.0825179
-0.32086417 -0.13125953 -1.0910714
-0.32812327 -0.12965754 -1.0909625
-0.33189344 -0.12837222 -1.0955307
-0.31434354 -0.13810378 -1.0870039
-0.32274491 -0.1389654 -1.0885586
-0.3267794 -0.13825406 -1.0908848
-0.33043069 -0.122534 -1.1029229
-0.33535963 -0.12093377 -1.1013013
-0.34038302 -0.11936527 -1.1049696
-0.32928821 -0.13181776 -1.101542
-0.33515337 -0.12981072 -1.101182
-0.34011078 -0.12901767 -1.1021762
-0.32376102 -0.14084218 -1.0975479
-0.32904065 -0.14069492 -1.0975446
-0.33316562 -0.13902619 -1.1016396
-0.33456808 -0.12267657 -1.1074884
-0.34142357 -0.12338692 -1.1100959
-0.34633127 -0.12069815 -1.1128633
-0.334719 -0.13328388 -1.1080365
-0.34068969 -0.1318343 -1.1101946
-0.34531397 -0.13290739 -1.113842
-0.34291202 -0.12488808 -1.1176435
-0.34873104 -0.12340288 -1.1195302
-0.35373908 -0.12270822 -1.123338
-0.34263656 -0.13371973 -1.1178288
-0.34753582 -0.13329203 -1.1200378
-0.3510848 -0.11685767 -1.1276734
-0.35550484 -0.11402021 -1.1289365
-0.36069748 -0.11479027 -1.1321288
-0.36500716 -0.11329485 -1.1324714
-0.35064742 -0.12670836 -1.1279094
-0.35468009 -0.12467217 -1.1289824
-0.35916105 -0.1246236 -1.1316935
-0.36142561 -0.11828647 -1.1385946
-0.36667624 -0.11662291 -1.1400986
-0.36462346 -0.12215187 -1.1421286
-0.37454063 -0.10910687 -1.1508995
-0.36349827 -0.12143001 -1.147884
-0.36870438 -0.11655034 -1.1469518
-0.37394172 -0.1165575 -1.151073
-0.37889865 -0.11439396 -1.1543607
-0.37028322 -0.1120331 -1.1556785
-0.37485409 -0.11060205 -1.1580307
-0.3807357 -0.1104437 -1.1582671
-0.38935184 -0.10970251 -1.163083
-0.37335575 -0.11944903 -1.157958
-0.37750623 -0.11222227 -1.1696173
-0.3826907 -0.11238328 -1.1685538
-0.38870224 -0.11117141 -1.171513
-0.39153403 -0.11246917 -1.1724836
-0.39489636 -0.1045204 -1.1787398
-0.39975351 -0.10287044 -1.1820064
-0.39656684 -0.11009455 -1.1766765
-0.39693093 -0.10600591 -1.1902018
-0.40169483 -0.10440598 -1.191843
-0.40673214 -0.10197372 -1.1899529
-0.40426999 -0.10551991 -1.1964086
-0.40953872 -0.096994452 -1.2064908
-0.41520563 -0.098671257 -1.2106873
