# .PCD v0.7 - Point Cloud Data file format
VERSION 0.7
FIELDS x y z
SIZE 4 4 4
TYPE F F F
COUNT 1 1 1
WIDTH 475
HEIGHT 1
VIEWPOINT 0 0 0 1 0 0 0
POINTS 475
DATA ascii
-0.81904525 -0.10620232 -1.8182964
-0.80054033 -0.06403932 -1.8312132
-0.80023748 -0.071667477 -1.8360666
-0.8018353 -0.073381454 -1.8357005
-0.81769621 -0.087655947 -1.830214
-0.81060165 -0.1028399 -1.8318048
-0.79077411 -0.057229161 -1.8424407
-0.7983979 -0.077365518 -1.8388406
-0.805529 -0.081317186 -1.8394051
-0.79378086 -0.092428461 -1.8418063
-0.80501556 -0.1010033 -1.8354656
-0.81525099 -0.10222144 -1.8354557
-0.78113991 -0.05050911 -1.853524
-0.79378152 -0.070531338 -1.8520089
-0.79642493 -0.074011698 -1.8528172
-0.79306388 -0.095628381 -1.8440889
-0.8007018 -0.095701367 -1.8432055
-0.79587466 -0.11008552 -1.8470061
-0.77634752 -0.058505759 -1.8632282
-0.79171878 -0.088687703 -1.8561876
-0.78607273 -0.10292567 -1.8582023
-0.76649362 -0.050992966 -1.8760154
-0.7689122 -0.055376008 -1.8741808
-0.7696467 -0.067424983 -1.8725955
-0.79597533 -0.069986567 -1.8711249
-0.78144437 -0.082129836 -1.8689613
-0.78795248 -0.10380189 -1.8609142
-0.76315874 -0.058609575 -1.8788562
-0.77501792 -0.060746074 -1.8768979
-0.77643156 -0.065199614 -1.8817515
-0.76558375 -0.077713907 -1.8805128
-0.77102822 -0.075196594 -1.8781295
-0.77685839 -0.097091362 -1.871907
-0.75853676 -0.047331378 -1.8910065
-0.76169246 -0.059648231 -1.8908993
-0.75659275 -0.067557007 -1.8919719
-0.76215321 -0.067997739 -1.8872303
-0.74177217 -0.03621608 -1.9080418
-0.75333315 -0.041309148 -1.8991939
-0.74899089 -0.062837571 -1.9011505
-0.74224883 -0.052322835 -1.9104578
-0.75696021 -0.0566715 -1.9065474
-0.75433052 -0.061792463 -1.907645
-0.75013918 -0.077246264 -1.9095621
-0.72791332 -0.032228589 -1.9236128
-0.73455268 -0.048151195 -1.9187949
-0.74087602 -0.05425927 -1.9183025
-0.74781162 -0.059245333 -1.9168669
-0.72546118 -0.033995181 -1.9288422
-0.72895151 -0.049112007 -1.9316139
-0.72810662 -0.054047212 -1.9307214
-0.73537254 -0.05300568 -1.9294769
-0.73279971 -0.067570597 -1.9300704
-0.74747807 -0.074055314 -1.9255316
-0.74328667 -0.08950913 -1.9274487
-0.7209636 -0.04489854 -1.944321
-0.72708368 -0.047009215 -1.9405192
-0.72242457 -0.061314031 -1.9402544
-0.74481702 -0.07086435 -1.9415011
-0.7297079 -0.082846135 -1.9352205
-0.73909521 -0.10496296 -1.9293656
-0.71542311 -0.041596398 -1.9534798
-0.72116619 -0.06110698 -1.9452212
-0.72075123 -0.066572264 -1.9480424
-0.73314625 -0.099650428 -1.9412462
-0.70361912 -0.035766914 -1.9637824
-0.72097468 -0.047739074 -1.9620556
-0.71495754 -0.056460321 -1.9603851
-0.71180081 -0.072129667 -1.9574375
-0.72348601 -0.094436765 -1.9533446
-0.73224264 -0.1172258 -1.9472523
-0.72805119 -0.13267966 -1.9491695
-0.6915943 -0.029228717 -1.9763925
-0.69442046 -0.033438802 -1.9732939
-0.70498538 -0.034865469 -1.9676074
-0.70895725 -0.040800646 -1.9670892
-0.71064657 -0.053113163 -1.9717133
-0.71640992 -0.074524969 -1.9631727
-0.72958171 -0.11403483 -1.9632219
-0.6863386 -0.026615798 -1.9871641
-0.69477206 -0.032505736 -1.9772958
-0.70104504 -0.032964453 -1.9787058
-0.69696403 -0.048010796 -1.9805723
-0.69536161 -0.054168567 -1.9768031
-0.72163254 -0.092562914 -1.9711297
-0.71259302 -0.11871156 -1.9727718
-0.72539014 -0.12948865 -1.9651388
-0.71848094 -0.14005548 -1.9656253
-0.7211988 -0.14494248 -1.9670559
-0.68060058 -0.02101782 -1.9932508
-0.6873281 -0.023098856 -1.9883705
-0.68643963 -0.042430893 -1.9881284
-0.69723994 -0.047336116 -1.9846473
-0.70597935 -0.050177291 -1.9871469
-0.71330613 -0.12326248 -1.9749382
-0.72104889 -0.17680711 -1.9718375
-0.66930228 -0.0032429397 -2.0027187
-0.67425728 -0.020405412 -2.0002146
-0.67426521 -0.029068053 -2.0023651
-0.67932224 -0.028070718 -2.004935
-0.68005651 -0.037919417 -1.9996046
-0.69254947 -0.044438154 -1.9977045
-0.68854558 -0.060816228 -1.9965477
-0.68433416 -0.06443119 -1.9992229
-0.71853763 -0.1417515 -1.9830256
-0.71434629 -0.15720531 -1.9849426
-0.68327284 -0.011346996 -2.0124221
-0.66634232 -0.020706445 -2.0143549
-0.67765158 -0.021179229 -2.0095224
-0.67138875 -0.033956811 -2.0146732
-0.67310923 -0.035536468 -2.0077808
-0.67560822 -0.043437913 -2.006556
-0.70016193 -0.1575685 -1.995841
-0.71015477 -0.17265914 -1.9868596
-0.66026956 -0.013792217 -2.0184143
-0.66551143 -0.010955751 -2.027936
-0.67673612 -0.011353701 -2.026479
-0.67582721 -0.024979383 -2.0202904
-0.66661549 -0.032709241 -2.0170264
-0.67243814 -0.032560617 -2.0167634
-0.67211324 -0.040346578 -2.0219114
-0.67019957 -0.052549481 -2.0198965
-0.6553309 -0.021182418 -2.0306354
-0.66164631 -0.021952003 -2.0283804
-0.66762072 -0.018959492 -2.0289562
-0.6841529 -0.021726519 -2.035223
-0.6546911 -0.030598164 -2.0316067
-0.65994281 -0.033206254 -2.0286417
-0.65791935 -0.037513435 -2.0278006
-0.66839921 -0.055713743 -2.0235324
-0.69553018 -0.16297287 -2.0123744
-0.65999478 -0.016563445 -2.0442581
-0.64870977 -0.023594737 -2.0393527
-0.66490418 -0.052622467 -2.038888
-0.68985808 -0.16814548 -2.0192962
-0.63823301 -0.0070600808 -2.0522597
-0.63886821 -0.01822874 -2.0520289
-0.64649749 -0.020271242 -2.0479164
-0.64218581 -0.02354902 -2.0494945
-0.64906996 -0.027743697 -2.0461972
-0.65630525 -0.031829059 -2.0458684
-0.65261579 -0.047094762 -2.0474787
-0.64892632 -0.062360451 -2.049089
-0.66119021 -0.067989618 -2.040509
-0.66608155 -0.10461545 -2.0350332
-0.63359886 0.0022378266 -2.0622485
-0.63177967 -0.0114007 -2.0652974
-0.63260067 -0.0155873 -2.0599027
-0.64552242 -0.020696431 -2.0555215
-0.65652287 -0.013492525 -2.0595121
-0.63912612 -0.024668455 -2.0627055
-0.64344883 -0.02488929 -2.0607879
-0.65283334 -0.028758198 -2.0611224
-0.66630208 -0.086034238 -2.0488591
-0.65059507 -0.094346136 -2.0537708
-0.66256338 -0.10150361 -2.0504909
-0.65738481 -0.10795926 -2.0456207
-0.66755342 -0.13861838 -2.0450888
-0.66808009 -0.14870907 -2.0407588
-0.61897588 0.0041542649 -2.0751777
-0.62825614 -0.00074774027 -2.0739458
-0.63065982 0.0010171533 -2.0742555
-0.64106822 -0.020440549 -2.0700457
-0.64638925 -0.02288267 -2.0720351
-0.62920332 -0.028624088 -2.0693719
-0.63999718 -0.031903803 -2.0648835
-0.63602114 -0.046563372 -2.0667024
-0.64914387 -0.044023871 -2.0627327
-0.64545441 -0.059289545 -2.0643432
-0.64304209 -0.066761568 -2.0597599
-0.64120036 -0.073791489 -2.0631344
-0.65398109 -0.080265462 -2.0574853
-0.650267 -0.095632628 -2.0591061
-0.65882456 -0.11697294 -2.0521226
-0.68494833 -0.15240583 -2.0472307
-0.67282957 -0.15740149 -2.0536227
-0.62477577 0.0029342473 -2.0855598
-0.61729276 -0.0044842362 -2.0832398
-0.61829686 -0.021402359 -2.0821002
-0.63259661 -0.019779682 -2.0776649
-0.62012821 -0.032925546 -2.0825384
-0.62523985 -0.027404636 -2.0801375
-0.63337606 -0.053754941 -2.0727119
-0.64958185 -0.10683161 -2.0626836
-0.65075672 -0.11982045 -2.0629213
-0.66401154 -0.13548554 -2.0606503
-0.65554869 -0.14454542 -2.0578361
-0.61280394 0.0061987638 -2.0921154
-0.61373901 -0.0060550272 -2.0940638
-0.61715382 -0.0066584349 -2.0906336
-0.61693877 -0.012966156 -2.0859785
-0.61664623 -0.028413802 -2.0881042
-0.64677215 -0.092541292 -2.0744617
-0.64305806 -0.1079085 -2.0760829
-0.65156764 -0.12933041 -2.069212
-0.66926372 -0.15424745 -2.0692897
-0.6060701 -0.0046439469 -2.1004839
-0.6108247 -0.0036305785 -2.1019113
-0.6065014 -0.010670602 -2.10078
-0.61353433 -0.0099548995 -2.1009364
-0.63724303 -0.017129391 -2.1022787
-0.6094594 -0.025821209 -2.0985973
-0.62117428 -0.02418682 -2.0950961
-0.61786562 -0.042404592 -2.096379
-0.614223 -0.054906085 -2.0983601
-0.62172872 -0.066804796 -2.0919232
-0.64188856 -0.11921827 -2.0796087
-0.6383428 -0.13488765 -2.0812736
-0.65670574 -0.14792627 -2.0778549
-0.59063768 0.020235807 -2.1133416
-0.59040636 0.011342973 -2.1148648
-0.59925377 0.012854248 -2.1086254
-0.60282367 0.0014075041 -2.1150148
-0.5966537 -0.0056107342 -2.1105409
-0.60226578 -0.0049898028 -2.1090171
-0.59924722 -0.015951604 -2.1121538
-0.62401575 -0.012119532 -2.1095777
-0.61213374 -0.025575221 -2.1030257
-0.6171087 -0.020969063 -2.1100543
-0.6075179 -0.040508121 -2.1041198
-0.64431065 -0.1416879 -2.0863013
-0.59026533 -0.001350373 -2.12061
-0.59747756 0.00024995208 -2.1237667
-0.60809213 -0.00031086802 -2.1160498
-0.60253739 -0.0041300058 -2.1180007
-0.60463923 -0.015569717 -2.1176708
-0.60118639 -0.030828565 -2.1192925
-0.60762125 -0.022736758 -2.1179473
-0.6042248 -0.038284123 -2.1190662
-0.6136331 -0.036328673 -2.1116865
-0.59734529 -0.041228503 -2.118793
-0.61015737 -0.051688299 -2.1133187
-0.6066817 -0.067047894 -2.1149507
-0.58333731 0.0157336 -2.13467
-0.59025675 0.0074734092 -2.1338294
-0.58086622 -9.7692013e-05 -2.1316545
-0.5839628 0.0028681159 -2.1293848
-0.5842694 -0.0094559789 -2.1315696
-0.58923382 -0.005251497 -2.1321843
-0.6006003 -0.01237303 -2.1325312
-0.59476143 -0.01775521 -2.1250443
-0.59493601 -0.016730487 -2.1253552
-0.59134126 -0.031603754 -2.1269243
-0.59138739 -0.033199936 -2.1261559
-0.60082829 -0.053831503 -2.1201854
-0.57795119 0.0071239173 -2.14257
-0.581361 0.010014355 -2.1398754
-0.5831269 -0.0021848083 -2.1371126
-0.59365284 0.00050923228 -2.1387556
-0.59027874 -0.014935464 -2.1398673
-0.58404422 -0.017284155 -2.1412427
-0.59714741 -0.027631909 -2.1341527
-0.59308004 -0.039071649 -2.133554
-0.59631574 -0.05099301 -2.135107
-0.6060918 -0.048470527 -2.1282771
-0.58933675 -0.056750536 -2.134541
-0.59878778 -0.076860204 -2.1285174
-0.60237789 -0.08751592 -2.1302309
-0.6116581 -0.085048407 -2.1239679
-0.60815942 -0.10051014 -2.1256108
-0.60466063 -0.11597185 -2.1272538
-0.57003081 0.014692336 -2.153435
-0.58372909 0.0061343312 -2.1463547
-0.58224642 -0.0023275316 -2.1451862
-0.57888812 -0.0093412399 -2.1473446
-0.5869047 -0.030380219 -2.1409791
-0.5835306 -0.045824915 -2.1420908
-0.59024173 -0.058149606 -2.1373954
-0.59291929 -0.06654042 -2.1362262
-0.55715942 0.024966091 -2.1608326
-0.56124896 0.015963048 -2.1614094
-0.57534802 0.010869652 -2.1588948
-0.56960243 0.0080570579 -2.1574774
-0.5664193 -0.0077144206 -2.1580501
-0.57101357 -0.0054198802 -2.1584868
-0.57114011 -0.021190345 -2.1526375
-0.58840674 -0.063701898 -2.1511476
-0.58501023 -0.079249263 -2.1522667
-0.59507489 -0.075971961 -2.1464999
-0.59159917 -0.091331571 -2.1481318
-0.59441626 -0.10030928 -2.146378
-0.60406673 -0.09727098 -2.1406689
-0.60744417 -0.10591318 -2.1393273
-0.600568 -0.11273266 -2.1423118
-0.59706914 -0.12819444 -2.143955
-0.60400206 -0.12166937 -2.1404617
-0.54898661 0.021766543 -2.173816
-0.55383033 0.0081120729 -2.1748576
-0.56319368 0.010938406 -2.1711724
-0.55787116 0.0074335337 -2.1686742
-0.56552184 -0.00064882636 -2.1701458
-0.55691725 -0.0084913671 -2.1707003
-0.57929701 -0.085470676 -2.155499
-0.59942895 -0.11879273 -2.1555836
-0.54879409 0.011330545 -2.1815724
-0.55534154 0.0023333728 -2.1801932
-0.56871235 -0.0044357479 -2.1762271
-0.57710129 -0.091958165 -2.1683075
-0.53643173 0.026973248 -2.1919658
-0.54120809 0.023298711 -2.1943746
-0.55300331 -0.0060611963 -2.1911583
-0.57370478 -0.10750556 -2.1694264
-0.59485584 -0.1159161 -2.1707056
-0.53079027 0.039055735 -2.2006094
-0.53298002 0.019672781 -2.1975119
-0.54375809 0.016533911 -2.200392
-0.52906919 0.02276805 -2.2119009
-0.52754557 0.012509197 -2.210325
-0.53564602 0.018069506 -2.2141016
-0.52335793 0.034765422 -2.2259352
-0.52507532 0.023792505 -2.2200222
-0.5260781 0.019817233 -2.2208667
-0.5216971 0.0084376335 -2.2206523
-0.50874573 0.03306815 -2.2324417
-0.51373988 0.03076306 -2.2328835
-0.50880551 0.023656458 -2.2317622
-0.51925439 0.014850914 -2.2318957
-0.5183953 -0.0053017735 -2.2253559
-0.51989084 0.00020879507 -2.2258499
-0.50681484 0.039555937 -2.2379408
-0.50248003 0.035597682 -2.2394106
-0.50816119 0.01657331 -2.2350593
-0.49424472 0.052797198 -2.2577322
-0.49336526 0.036968589 -2.2515001
-0.49861819 0.038654178 -2.2536194
-0.50632167 0.029723883 -2.2494433
-0.50020099 0.018670976 -2.248801
-0.50674504 0.02085799 -2.2470388
-0.50373709 0.01053068 -2.2463784
-0.49349937 0.031873107 -2.2568586
-0.50261879 0.025288463 -2.2596862
-0.49326161 0.018520415 -2.2578382
-0.50264543 0.02223295 -2.2630398
-0.49935237 0.010336637 -2.2607625
-0.47822961 0.044928193 -2.2720346
-0.48384938 0.035767883 -2.2668972
-0.48907396 0.039905638 -2.2710581
-0.4880746 0.026951194 -2.2667089
-0.48765734 0.014921576 -2.2666676
-0.49073532 0.0059505105 -2.2628813
-0.46771795 0.059958458 -2.2847116
-0.4745324 0.042064548 -2.2813933
-0.48351374 0.04168281 -2.2772818
-0.48135126 0.025206655 -2.2740662
-0.48755208 0.024357706 -2.2758307
-0.48311201 0.0070762336 -2.2777317
-0.47417969 0.042842418 -2.293328
-0.47988176 0.025486112 -2.2906566
-0.45769572 0.059920073 -2.3043199
-0.46727452 0.04103297 -2.2967038
-0.47490323 0.030044496 -2.3028605
-0.46496326 0.028255194 -2.2952919
-0.47521234 0.0082760155 -2.2923141
-0.44962087 0.063973635 -2.3152928
-0.45608836 0.053199112 -2.3093426
-0.46455717 0.049896121 -2.3061218
-0.45821416 0.04014048 -2.3059456
-0.47062343 0.041499019 -2.3067911
-0.47176194 0.014480621 -2.3034258
-0.44959599 0.060419828 -2.3231268
-0.45827419 0.052720845 -2.3195479
-0.44862008 0.043476582 -2.3198795
-0.45317125 0.037662625 -2.3198419
-0.46857873 0.032887846 -2.3163755
-0.4488712 0.022829175 -2.3207903
-0.45203289 0.021797359 -2.3206708
-0.46543744 0.017324001 -2.3169405
-0.44840056 0.07035616 -2.3312306
-0.42907503 0.061700493 -2.345845
-0.44139537 0.060925633 -2.3422551
-0.44330898 0.058292389 -2.3434453
-0.43830323 0.033570945 -2.3371177
-0.44574988 0.024622083 -2.3340969
-0.42737556 0.052928239 -2.3476007
-0.42455867 0.060385317 -2.3581524
-0.42285126 0.053358763 -2.3577356
-0.41257712 0.072129935 -2.3735478
-0.41011313 0.060815483 -2.370575
-0.42318058 0.049991548 -2.363816
-0.41752806 0.037127376 -2.3650665
-0.4217042 0.029350579 -2.3611753
-0.43214163 -0.025376201 -2.3610699
-0.39358169 0.094277829 -2.3868308
-0.39847007 0.084459484 -2.3861351
-0.40277964 0.069405675 -2.3794267
-0.40284455 0.060129851 -2.3835154
-0.41002643 0.047408879 -2.3774288
-0.41323897 0.029842645 -2.3738282
-0.38937724 0.086052835 -2.3925049
-0.39057767 0.074054569 -2.394516
-0.40081683 0.064911515 -2.3886831
-0.39782822 0.059770048 -2.3937118
-0.40270177 0.050893486 -2.3894985
-0.40872955 0.037238806 -2.3843596
-0.40804937 0.019938588 -2.3808312
-0.42430344 -0.032565504 -2.371887
-0.388955 0.083832264 -2.4014068
-0.40242451 0.081948161 -2.3972502
-0.39107618 0.066095173 -2.3958433
-0.39551869 0.063114643 -2.3957202
-0.39237341 0.055477351 -2.4005246
-0.39326659 0.035993367 -2.3997498
-0.40137944 0.023336291 -2.391072
-0.40276101 0.012066394 -2.3957772
-0.41661757 -0.029641479 -2.3839657
-0.3802267 0.091123194 -2.4128892
-0.38235158 0.076534629 -2.4083071
-0.39316916 0.071949124 -2.4055851
-0.39145011 0.06534335 -2.4078379
-0.38472363 0.050889164 -2.407748
-0.39094222 0.047715753 -2.4045677
-0.39194983 0.038078994 -2.405694
-0.39469108 0.031054229 -2.4061213
-0.40893176 -0.026717544 -2.3960445
-0.41525811 -0.037136108 -2.3962586
-0.37265682 0.079574376 -2.4192536
-0.37965241 0.083097309 -2.4180789
-0.39093018 0.077491969 -2.4167049
-0.37280834 0.06942156 -2.4232342
-0.37819511 0.068030417 -2.4192677
-0.38482025 0.075310647 -2.4159789
-0.37919649 0.065105647 -2.4153388
-0.39115569 0.041428357 -2.4115791
-0.39283362 -0.0056468546 -2.4118609
-0.40576321 -0.006043911 -2.4095943
-0.40525153 -0.023801744 -2.4063001
-0.36481273 0.078063965 -2.430613
-0.36978012 0.075484008 -2.432636
-0.37327528 0.074505329 -2.4285657
-0.38293943 0.074936986 -2.4310403
-0.37004787 0.057634413 -2.4274671
-0.38143915 0.04802382 -2.4240105
-0.38191432 0.038759857 -2.4250879
-0.38092744 0.030265957 -2.420716
-0.38140178 0.020671278 -2.4221117
-0.3856883 0.0044985414 -2.4209311
-0.35700274 0.1023902 -2.4419975
-0.3701587 0.10192376 -2.4402897
-0.35453013 0.091431767 -2.4438529
-0.36471543 0.080117464 -2.4386268
-0.37595546 0.077920705 -2.4396966
-0.36664644 0.072191805 -2.4364018
-0.36924005 0.065671295 -2.4347694
-0.36358598 0.057028085 -2.4369524
-0.39346281 0.032416195 -2.429389
-0.37279385 0.01787293 -2.435123
-0.38377592 0.012157738 -2.4347517
-0.38326043 -0.0057317615 -2.431433
-0.35819209 0.078548819 -2.4497547
-0.35742405 0.05979839 -2.4501197
-0.33852127 0.11498469 -2.4662228
-0.34680617 0.10324121 -2.4617882
-0.37285376 0.084038526 -2.4555655
-0.35913581 0.066245526 -2.4545054
-0.33529317 0.10939926 -2.4719613
-0.34877238 0.072793454 -2.4648316
-0.34882218 0.054405898 -2.4618475
-0.3276853 0.097186059 -2.483181
-0.33587074 0.084453553 -2.4785614
-0.34123841 0.078754067 -2.4795761
-0.34934536 0.085230231 -2.4773495
-0.36270124 0.084756732 -2.4756157
-0.34130359 0.060187846 -2.4768124
-0.35479158 0.060322046 -2.4759712
-0.34136879 0.041621655 -2.4740481
-0.32185847 0.09775126 -2.4946859
-0.33796543 0.091668993 -2.4878104
-0.32633185 0.084117562 -2.4890389
-0.33801556 0.073140651 -2.4848034
-0.31682613 0.096949965 -2.4996045
-0.30478096 0.10548952 -2.5135334
-0.31774661 0.1046741 -2.5097556
-0.31074959 0.098388195 -2.5141547
-0.31086668 0.079660922 -2.511493
-0.31321511 0.079078406 -2.5061915
