# .PCD v0.7 - Point Cloud Data file format
VERSION 0.7
FIELDS x y z
SIZE 4 4 4
TYPE F F F
COUNT 1 1 1
WIDTH 132
HEIGHT 1
VIEWPOINT 0 0 0 1 0 0 0
POINTS 132
DATA ascii
0.55664355 -0.11955906 0.48742279
0.56757325 -0.11573891 0.47588366
0.54285622 -0.11708883 0.47914276
0.57054305 -0.097556107 0.46074966
0.58516103 -0.11062419 0.46902591
0.56188506 -0.11260781 0.46332622
0.54839414 -0.11290152 0.46468902
0.56790262 -0.1247706 0.46485007
0.56475377 -0.13120538 0.46530992
0.53884679 -0.13113829 0.47216326
0.58367831 -0.094938017 0.4538886
0.5578481 -0.12675364 0.45629883
0.54438472 -0.12695096 0.45770949
0.57435381 -0.13400269 0.45685577
0.54654264 -0.12995681 0.45889753
0.58238268 -0.11049497 0.44230479
0.57103026 -0.10702936 0.44649014
0.56746095 -0.10839178 0.44877332
0.56924742 -0.11311305 0.44916582
0.57568353 -0.12738521 0.45377085
0.5725981 -0.12079416 0.45005235
0.60681623 -0.091619745 0.43093115
0.56759709 -0.093145072 0.43476364
0.6183756 -0.095135644 0.4350051
0.60480487 -0.097260863 0.43928188
0.58187526 -0.10323887 0.43504056
0.554524 -0.093653493 0.43604115
0.59551793 -0.10787691 0.4354437
0.54989177 -0.11057399 0.43687266
0.61935556 -0.12161195 0.43552807
0.57726699 -0.11684833 0.4356761
0.61407512 -0.12608561 0.43610784
0.5866133 -0.12356506 0.44223171
0.56342399 -0.12253758 0.44174597
0.58522481 -0.094354421 0.42422906
0.6217885 -0.10264073 0.42172158
0.57590055 -0.099922791 0.42216974
0.57176065 -0.096462965 0.42847228
0.56258178 -0.10069919 0.42442936
0.54926288 -0.10147555 0.42668891
0.60865319 -0.10525881 0.42858264
0.56755209 -0.10740057 0.42344016
0.55318266 -0.10626493 0.42482582
0.62731552 -0.12344655 0.42919186
0.60340506 -0.11646047 0.43048987
0.59053755 -0.11569779 0.43235713
0.58276594 -0.11808255 0.42562491
0.56279075 -0.11845098 0.43115169
0.58108711 -0.12605193 0.43072093
0.5718962 -0.12678844 0.43031999
0.58923042 -0.087294161 0.4141449
0.57625359 -0.087798864 0.41541296
0.55260932 -0.093602084 0.41368479
0.6187222 -0.098187596 0.41133338
0.58921945 -0.099146418 0.41991016
0.56525344 -0.1033342 0.42221382
0.63152295 -0.10837805 0.41899043
0.55747098 -0.11370692 0.41578075
0.5446831 -0.11370817 0.41477245
0.63782364 -0.11677753 0.41581523
0.59422237 -0.12343384 0.42385986
0.54895383 -0.11624199 0.41536394
0.54860634 -0.12600809 0.42538032
0.57859582 -0.092822611 0.40814722
0.56581587 -0.093900517 0.40877402
0.55380601 -0.093394615 0.4050867
0.54058135 -0.09380351 0.40735999
0.61173314 -0.10538437 0.40409684
0.57620901 -0.10194945 0.40417281
0.59826893 -0.10749291 0.40834007
0.59084034 -0.11518738 0.40918803
0.5755915 -0.11468921 0.41084477
0.56099844 -0.114389 0.41434824
0.5388329 -0.11082296 0.40633968
0.58058029 -0.12114763 0.4108392
0.55304539 -0.12080222 0.41341564
0.59064025 -0.12666292 0.41165903
0.57766712 -0.12677133 0.41416311
0.54399222 -0.1311741 0.41366723
0.6105293 -0.081509836 0.39375672
0.59347999 -0.092167884 0.3982667
0.58641565 -0.095861793 0.3982031
0.57314998 -0.097138643 0.40090257
0.6174925 -0.1034176 0.39504778
0.57915258 -0.10665134 0.39692822
0.56637275 -0.10772924 0.39755508
0.62463403 -0.11123606 0.4010289
0.60076755 -0.11100426 0.40164974
0.58015168 -0.10988948 0.39808729
0.55219263 -0.10873076 0.40212938
0.53723395 -0.11761412 0.39673698
0.59784889 -0.12273993 0.3966943
0.58408177 -0.12515688 0.4020772
0.55776411 -0.12793505 0.40294239
0.54515839 -0.1287227 0.40511101
0.61266512 -0.084908277 0.38889977
0.59997725 -0.085978433 0.38952208
0.58728933 -0.087048575 0.39014438
0.57541537 -0.087694414 0.38238487
0.56228966 -0.088100277 0.38464117
0.59760344 -0.096057639 0.38385782
0.58472168 -0.09655863 0.38511661
0.61007774 -0.10736707 0.38570398
0.60619652 -0.10658339 0.38500023
0.59297186 -0.1069923 0.38727352
0.58364093 -0.10890812 0.39018905
0.56652254 -0.10781012 0.39182013
0.62477726 -0.11852285 0.38820785
0.58914125 -0.11559533 0.39166459
0.57292217 -0.11184511 0.38949302
0.55843043 -0.11178558 0.39343327
0.61131316 -0.1206314 0.39245108
0.60499555 -0.087905057 0.37877843
0.60166675 -0.08688271 0.37787226
0.59409302 -0.089769259 0.37723345
0.60053009 -0.099707559 0.37838393
0.58784223 -0.10077772 0.37900624
0.61271906 -0.10801449 0.38139468
0.54367906 -0.12587474 0.3856771
0.60590613 -0.090757035 0.36511764
0.574911 -0.10240791 0.37147394
0.61377084 -0.11236655 0.36662346
0.59271932 -0.10379001 0.36787936
0.6058622 -0.10470173 0.35404104
0.59307414 -0.10519909 0.35529068
0.59694326 -0.10860378 0.35022813
0.58434641 -0.10966625 0.35084599
0.58606404 -0.11280681 0.34095958
0.58267766 -0.11169371 0.34061247
0.57258856 -0.11364007 0.34181508
0.56200731 -0.1165155 0.34208348
0.5489403 -0.11777326 0.34474254
