# .PCD v0.7 - Point Cloud Data file format
VERSION 0.7
FIELDS x y z
SIZE 4 4 4
TYPE F F F
COUNT 1 1 1
WIDTH 879
HEIGHT 1
VIEWPOINT 0 0 0 1 0 0 0
POINTS 879
DATA ascii
1.1423799 -0.10699019 0.18653882
1.1451288 -0.1039672 0.17830312
1.148702 -0.080125257 0.16565047
1.1457679 -0.08209452 0.17104436
1.1465822 -0.10357763 0.1652946
1.1501417 -0.12811682 0.17001447
1.1585997 -0.078583948 0.16109297
1.1438957 -0.084097862 0.15322901
1.1512948 -0.090226285 0.15488888
1.137935 -0.092318475 0.15909918
1.1612443 -0.11041635 0.16024981
1.1477801 -0.11252489 0.16449305
1.1437907 -0.12003548 0.16633853
1.131274 -0.12505099 0.16636942
1.1154039 -0.12139932 0.16676342
1.1547452 -0.068266407 0.14541595
1.1740596 -0.077850953 0.15137234
1.1573744 -0.08194679 0.14772227
1.1432432 -0.083119243 0.14575522
1.1473747 -0.09606272 0.15378331
1.1294777 -0.10181323 0.14708112
1.1241586 -0.10953934 0.1517541
1.14736 -0.12777191 0.15284729
1.1368946 -0.12407844 0.15031818
1.1282356 -0.11788875 0.15681203
1.1505796 -0.13600579 0.152116
1.1424525 -0.13610376 0.15437397
1.1491868 -0.1439326 0.15817152
1.1642138 -0.069801375 0.13440563
1.1594948 -0.070138209 0.13394657
1.1982802 -0.076620236 0.13376108
1.1862285 -0.073597655 0.1385249
1.1557549 -0.080153152 0.13484797
1.1543316 -0.083278492 0.13394964
1.185041 -0.099280566 0.14218462
1.1564344 -0.097511075 0.13606766
1.1429563 -0.099662155 0.1415744
1.1642377 -0.10326282 0.13912319
1.1276913 -0.10235777 0.14507666
1.1410674 -0.1143782 0.14686063
1.1608243 -0.12566338 0.14860407
1.1511699 -0.12080869 0.14316574
1.1237419 -0.12466805 0.14019871
1.1258854 -0.1340306 0.14472017
1.1247082 -0.14055556 0.14636618
1.2316602 -0.063809223 0.1209626
1.1577255 -0.061536588 0.12469815
1.1599622 -0.07484483 0.12526101
1.2365317 -0.076622605 0.12669243
1.1978092 -0.075493529 0.13120206
1.1830893 -0.090817735 0.12675227
1.1495495 -0.088270091 0.12960653
1.1444385 -0.089627728 0.13182384
1.1699128 -0.095359996 0.13056092
1.1402029 -0.099391676 0.13416943
1.2224026 -0.1029378 0.13487834
1.2151316 -0.10477431 0.12804788
1.1964375 -0.11193959 0.1281153
1.1687231 -0.10338287 0.13380124
1.2162936 -0.12115142 0.1289745
1.1829026 -0.11676554 0.13428459
1.1800004 -0.11619345 0.13591079
1.1738683 -0.13880186 0.13271506
1.1518807 -0.13621897 0.13526452
1.1150575 -0.13656154 0.13738367
1.1604041 -0.1409104 0.1369583
1.1546812 -0.14946792 0.13532284
1.14694 -0.14301896 0.14120154
1.1338286 -0.14048803 0.13863473
1.1482095 -0.15228367 0.13992222
1.1411142 -0.15217204 0.14240938
1.1328994 -0.17210172 0.13776371
1.142975 -0.18129598 0.13909355
1.2522737 -0.075327329 0.11849619
1.20623 -0.071543604 0.1158603
1.2317226 -0.08004345 0.120666
1.225485 -0.081989892 0.11449526
1.2049595 -0.08210595 0.12185951
1.230722 -0.093384221 0.12216427
1.2076545 -0.088949278 0.11571153
1.1968696 -0.091057837 0.11954744
1.1929908 -0.094203934 0.12428384
1.162897 -0.085609704 0.12263462
1.1571641 -0.08614625 0.12195492
1.1527145 -0.096425585 0.12326217
1.2358969 -0.10484733 0.12065194
1.1667309 -0.10735704 0.12695783
1.1421078 -0.10563578 0.1198322
1.1348854 -0.1067388 0.12480745
1.1638209 -0.11839152 0.1275678
1.1554947 -0.11307537 0.12441302
1.1905127 -0.13017215 0.12080833
1.1790531 -0.13188235 0.12416287
1.1515489 -0.12700947 0.12481736
1.1464459 -0.13749692 0.12763555
1.1223569 -0.13742518 0.12842637
1.1611495 -0.14874351 0.12988694
1.1164798 -0.14923929 0.13223957
1.1599841 -0.15615743 0.12531254
1.14652 -0.15826598 0.12955576
1.1373471 -0.15407616 0.12906741
1.1307627 -0.15689762 0.12695129
1.123535 -0.15017244 0.13262831
1.1119454 -0.15363276 0.12571281
1.155882 -0.15969858 0.13276674
1.1458395 -0.16856156 0.12772843
1.1397761 -0.16824034 0.13044481
1.1700627 -0.17279698 0.12878656
1.1218561 -0.17671125 0.13105154
1.1654696 -0.18227592 0.1379723
1.1565456 -0.17917076 0.13481675
1.1400656 -0.1792641 0.13207665
1.2384403 -0.058177285 0.10369814
1.2188714 -0.065958962 0.10330777
1.2134498 -0.066308446 0.10340796
1.1847131 -0.064265311 0.10871436
1.1643724 -0.065068074 0.10686468
1.1603805 -0.061833464 0.10725395
1.2000779 -0.068442538 0.10887122
1.1880183 -0.07470087 0.10575374
1.1558645 -0.072172754 0.10747187
1.2238262 -0.086755671 0.10853396
1.2464179 -0.092221528 0.11393222
1.2103479 -0.088906758 0.1140407
1.2000715 -0.090599611 0.10826478
1.1724017 -0.088152133 0.10823514
1.1652263 -0.093459487 0.11235493
1.2928323 -0.10672235 0.10621625
1.2256136 -0.098257057 0.11476213
1.1758065 -0.098026998 0.11531385
1.2405618 -0.10911572 0.10936825
1.2017295 -0.10718182 0.10840456
1.1959298 -0.10662213 0.10789281
1.1824514 -0.10877322 0.11339955
1.1799501 -0.10803783 0.11497964
1.1496742 -0.11269803 0.11167639
1.2296677 -0.12318656 0.11412818
1.2195046 -0.11647066 0.10885829
1.1643808 -0.12349889 0.11486597
1.133569 -0.12254713 0.11303641
1.2500956 -0.13016105 0.11518864
1.154555 -0.12863968 0.1127584
1.1590629 -0.13450584 0.1166364
1.1131802 -0.15065722 0.11762399
1.1734483 -0.1540489 0.12106931
1.1509335 -0.15190786 0.12351658
1.1060585 -0.15414122 0.12122652
1.1669101 -0.16283207 0.11627167
1.1587793 -0.16502139 0.11769317
1.153343 -0.1655362 0.12335825
1.1228136 -0.17193337 0.1228703
1.2132766 -0.065822408 0.095503643
1.1682724 -0.069231227 0.096655019
1.2527061 -0.0702971 0.099806376
1.2322981 -0.076374426 0.097512543
1.1649482 -0.077971965 0.098930143
1.1580687 -0.077709988 0.095360823
1.1471944 -0.071735926 0.097111776
1.2468503 -0.087191284 0.095242418
1.181601 -0.081336521 0.097043514
1.1882755 -0.096097276 0.096919745
1.1777378 -0.090493388 0.10144769
1.1569046 -0.091330945 0.10194105
1.2401112 -0.10020343 0.10045739
1.209408 -0.10447105 0.10238609
1.1371615 -0.098931536 0.10108554
1.1644735 -0.11047927 0.10380413
1.2868664 -0.12357177 0.10243278
1.1958046 -0.12541437 0.10109762
1.1815116 -0.1243375 0.10174493
1.1768109 -0.12525791 0.10320702
1.1469165 -0.11988677 0.10606449
1.2133955 -0.13468428 0.10295444
1.17168 -0.13151474 0.10563722
1.2234383 -0.14152578 0.10760443
1.1568494 -0.14119296 0.11115296
1.1781427 -0.16727506 0.11113095
1.1730283 -0.16929591 0.10942355
1.159564 -0.17140445 0.11366677
1.149986 -0.16759676 0.11176866
1.1363999 -0.16976506 0.11731947
1.098762 -0.16837257 0.11147611
1.1520048 -0.18160447 0.11139367
1.1384379 -0.1843086 0.11848024
1.2442536 -0.052468352 0.086337432
1.240016 -0.054601725 0.080922663
1.2349048 -0.056584485 0.087135121
1.2241633 -0.061201174 0.083597057
1.1682864 -0.054909244 0.087221876
1.2251806 -0.068567216 0.087825172
1.1806804 -0.066289723 0.085838184
1.2258893 -0.079615749 0.086382098
1.2088904 -0.08405067 0.088482276
1.1902494 -0.08752729 0.090540446
1.2288245 -0.093576312 0.094645932
1.1504019 -0.096292488 0.094169557
1.2924865 -0.10202802 0.087624468
1.2409943 -0.10408548 0.090678431
1.1746974 -0.10676584 0.089861892
1.2505316 -0.12509078 0.096350081
1.2338818 -0.11854266 0.093933627
1.1949899 -0.12218641 0.096238188
1.1663477 -0.1262387 0.095372826
1.2809005 -0.1404212 0.098649293
1.1645619 -0.1408468 0.099185571
1.1536152 -0.14420396 0.10110378
1.2601898 -0.14642425 0.10209141
1.2072865 -0.15289788 0.097050577
1.1763473 -0.14655675 0.10024672
1.155997 -0.15091541 0.10495295
1.2749346 -0.15727058 0.094865814
1.2438737 -0.15822268 0.10083
1.217209 -0.15986501 0.10108068
1.1771586 -0.16326015 0.10066701
1.1564093 -0.18129927 0.10549939
1.1138253 -0.18111418 0.10850525
1.2470739 -0.052331187 0.074287683
1.1945571 -0.049673088 0.073499769
1.1814218 -0.052291166 0.080360822
1.2221297 -0.061390333 0.080058731
1.2170099 -0.059699297 0.07765165
1.2026908 -0.060618389 0.078322411
1.183201 -0.055084705 0.079387225
1.1612619 -0.053668246 0.081010915
1.2531387 -0.065266855 0.081116557
1.2381444 -0.070681959 0.080433577
1.2338405 -0.072782405 0.074455306
1.1669909 -0.070466191 0.075638033
1.1501832 -0.065079801 0.077064954
1.2472826 -0.082161054 0.076552577
1.2317655 -0.073804572 0.075362489
1.2182384 -0.079433717 0.076290101
1.1936648 -0.077120006 0.084307142
1.3138152 -0.084212266 0.082373142
1.2067697 -0.083238408 0.08488781
1.1899732 -0.087315239 0.0783391
1.1856768 -0.083013251 0.079872429
1.1598424 -0.084475391 0.081705332
1.3078023 -0.10119496 0.078559726
1.2443255 -0.095559545 0.08026281
1.211585 -0.097191244 0.080282755
1.178489 -0.09840773 0.085372657
1.1636424 -0.093653455 0.087253571
1.1557572 -0.093586504 0.083467707
1.25687 -0.10299186 0.082111813
1.1696496 -0.10416797 0.086416639
1.2227154 -0.11178992 0.088742085
1.1652279 -0.11468088 0.088102713
1.149096 -0.111974 0.082492977
1.2232496 -0.12585819 0.082229517
1.1889799 -0.12100462 0.090359569
1.2166064 -0.13000353 0.08283823
1.1940503 -0.1377507 0.084583566
1.1748621 -0.13613015 0.092822716
1.1805719 -0.1399018 0.090090305
1.2901115 -0.15687448 0.085858352
1.168614 -0.14792433 0.093953773
1.1596801 -0.15578255 0.090682246
1.2387266 -0.15914808 0.087149493
1.1907449 -0.16109185 0.095116183
1.1862226 -0.16175313 0.093475357
1.1759304 -0.16168545 0.088691339
1.1526755 -0.15976825 0.089449152
1.152931 -0.16732503 0.093269512
1.237658 -0.17675424 0.094823092
1.1693492 -0.17775911 0.095464125
1.245829 -0.048892796 0.063561961
1.2076923 -0.047055006 0.066638701
1.1951612 -0.050904378 0.066760205
1.1862983 -0.046818729 0.06159465
1.1737801 -0.050243486 0.071302786
1.3194799 -0.062498119 0.0674477
1.253571 -0.060236622 0.062426731
1.2302284 -0.059177954 0.06346485
1.227255 -0.063531749 0.06827765
1.2141311 -0.056362461 0.064225577
1.254769 -0.072576419 0.066592008
1.2279005 -0.072579168 0.06454885
1.2179099 -0.067415804 0.071266204
1.2057287 -0.072903484 0.071570762
1.1801262 -0.067848116 0.06877698
1.1589693 -0.069415495 0.069214649
1.2168401 -0.078974031 0.070581496
1.2128575 -0.078082874 0.065702245
1.2033168 -0.082083724 0.07137268
1.2320354 -0.088895559 0.074529722
1.1901232 -0.088375382 0.073421597
1.168378 -0.09013363 0.073679879
1.3233341 -0.10034175 0.06933362
1.2249571 -0.095057152 0.074819505
1.1905526 -0.094191216 0.072636284
1.1797826 -0.10033704 0.074426852
1.2131971 -0.10378863 0.076753654
1.187209 -0.10379974 0.078954645
1.1623363 -0.10933495 0.075576998
1.3017893 -0.11817764 0.074746326
1.2509674 -0.12002052 0.077511519
1.238096 -0.11389876 0.073739067
1.1992149 -0.11575904 0.07584776
1.1779534 -0.11119941 0.078233801
1.169239 -0.11906514 0.07503809
1.2364559 -0.1300882 0.074453413
1.2005258 -0.129109 0.07291992
1.1893744 -0.12200985 0.079779059
1.1856425 -0.12771395 0.073377706
1.171657 -0.12303828 0.078276098
1.2210069 -0.13344856 0.073570088
1.2075287 -0.13559964 0.079076827
1.2172079 -0.14361607 0.07664749
1.1812311 -0.14493322 0.0829546
1.2471408 -0.15346022 0.08036264
1.1725119 -0.15227199 0.080730841
1.1655481 -0.16433392 0.082270339
1.2840985 -0.17385717 0.082044952
1.2537827 -0.16973571 0.081563927
1.1541947 -0.17306784 0.087418653
1.1762112 -0.17894904 0.088919073
1.2346419 -0.041352209 0.053591236
1.2234849 -0.044569109 0.058314778
1.2208276 -0.044436924 0.059777647
1.2176719 -0.052567855 0.059870578
1.2455587 -0.062429409 0.059553798
1.1805898 -0.058491044 0.059097052
1.2413554 -0.066001214 0.060317371
1.2235305 -0.07467594 0.056579396
1.1932614 -0.065230042 0.061915927
1.1714873 -0.065990739 0.059506506
1.3134669 -0.079480805 0.063634291
1.2477151 -0.077130809 0.057862766
1.2520185 -0.088624239 0.066072963
1.2286263 -0.091024645 0.063589863
1.2029901 -0.087855525 0.063202769
1.1809988 -0.086680762 0.063892044
1.2573059 -0.097921595 0.063273251
1.2458565 -0.10699558 0.060117982
1.2313833 -0.10302275 0.068100646
1.2249756 -0.10880386 0.065941393
1.1897479 -0.10588741 0.065054953
1.1755768 -0.10669591 0.068661004
1.2106527 -0.11263265 0.068720162
1.1841687 -0.12007218 0.06736885
1.2566234 -0.13016622 0.065902188
1.1756225 -0.12720746 0.066242144
1.1610303 -0.12501647 0.063900411
1.1477898 -0.12765549 0.070816398
1.295776 -0.13516034 0.070932917
1.245065 -0.13704915 0.072911225
1.2318667 -0.13223799 0.067215309
1.2355813 -0.14317949 0.067920893
1.1853437 -0.14876142 0.07077945
1.2897631 -0.15214303 0.067119509
1.2391624 -0.15407781 0.068310939
1.2065889 -0.15116394 0.067422204
1.1931105 -0.15331501 0.07292895
1.211166 -0.16137396 0.071065478
1.1781651 -0.16134281 0.071271166
1.240925 -0.17199177 0.074355729
1.2175708 -0.17166226 0.072422549
1.1517357 -0.17533253 0.077794537
1.2470981 -0.039200772 0.04605554
1.2521838 -0.041350417 0.045764975
1.2450323 -0.043182712 0.045032501
1.3191315 -0.05776665 0.048708864
1.2540034 -0.055206385 0.043736905
1.2380292 -0.051237065 0.044257168
1.2255715 -0.052106529 0.050128758
1.1928958 -0.055573698 0.04836908
1.2298563 -0.06447044 0.046098024
1.2211732 -0.060445637 0.046421669
1.1840054 -0.06256599 0.049798369
1.3131186 -0.074749336 0.044895452
1.2636443 -0.075822681 0.049034975
1.2589833 -0.067932531 0.04639744
1.2247901 -0.073897392 0.052680712
1.1775992 -0.074496031 0.047701683
1.2053742 -0.077089638 0.051985767
1.2269754 -0.087899402 0.053076994
1.268677 -0.10145038 0.050349493
1.2122325 -0.097867541 0.057140164
1.2020576 -0.10141785 0.054829039
1.187058 -0.095623359 0.052041784
1.3014408 -0.11344618 0.056007478
1.266106 -0.10687219 0.051441733
1.2254869 -0.10824473 0.051817235
1.2514033 -0.11495025 0.058672957
1.2455009 -0.13197888 0.054072663
1.1811284 -0.13634463 0.055783048
1.2504077 -0.14869776 0.05989527
1.2256373 -0.15057722 0.060691558
1.1843259 -0.14352228 0.06160669
1.1464839 -0.143337 0.059139822
1.1907822 -0.15835172 0.06027199
1.2837501 -0.16912571 0.063306101
1.2294885 -0.16108704 0.062291831
1.1921706 -0.1688793 0.06127432
1.1701617 -0.16841382 0.06863898
1.1786925 -0.17103039 0.066781051
1.165107 -0.17127496 0.060973868
1.2570962 -0.03896619 0.032296129
1.2483715 -0.045394246 0.040882725
1.2197417 -0.045859698 0.038616497
1.2699827 -0.053723767 0.0347967
1.2476503 -0.057351857 0.039842904
1.2445664 -0.061320465 0.040201165
1.229918 -0.065668277 0.043109413
1.1965235 -0.059141226 0.040090233
1.2783728 -0.076356344 0.038012862
1.2233378 -0.07610698 0.043194368
1.2182362 -0.075550839 0.036609974
1.1899052 -0.071578689 0.036973711
1.2580785 -0.079216145 0.045054067
1.2540057 -0.085087359 0.04282812
1.2056708 -0.078971967 0.043893702
1.1817125 -0.078313239 0.038002085
1.3071055 -0.091732025 0.041082047
1.2877864 -0.10063966 0.041234814
1.233475 -0.097945184 0.048389755
1.2260504 -0.10321962 0.041605126
1.1913081 -0.099104412 0.042211097
1.209192 -0.11413999 0.045554355
1.1995045 -0.1070459 0.048229065
1.2625325 -0.11951009 0.044672608
1.2274332 -0.11570308 0.042807732
1.2092799 -0.11636387 0.05167038
1.2007515 -0.11709933 0.043152459
1.1875111 -0.11973837 0.050068446
1.2954278 -0.13042885 0.052194074
1.2606992 -0.12824771 0.045279041
1.236081 -0.12759408 0.047020748
1.2230923 -0.12593995 0.051694296
1.2101787 -0.12971811 0.052892044
1.1586206 -0.12882732 0.047829069
1.2376908 -0.13805914 0.048043884
1.2110209 -0.13820149 0.04766285
1.1976734 -0.14086188 0.054634772
1.1597244 -0.14069796 0.052223839
1.2894146 -0.14741154 0.048380669
1.2395983 -0.14900756 0.049472369
1.1684183 -0.14885949 0.052280989
1.2481163 -0.16079335 0.053364713
1.249169 -0.17053246 0.054838393
1.244192 -0.16722931 0.053888362
1.2180033 -0.16663203 0.05373273
1.205649 -0.16672823 0.055767581
1.1829934 -0.16490325 0.058687586
1.254835 -0.036471263 0.025851425
1.2472156 -0.044877544 0.024145748
1.3187832 -0.053035188 0.029970016
1.2662805 -0.056188241 0.030806117
1.2211049 -0.052679412 0.025452852
1.31277 -0.070017874 0.026156612
1.2646579 -0.060810339 0.031447113
1.2419202 -0.060253914 0.033361647
1.2327398 -0.06882076 0.034779929
1.296129 -0.077217251 0.026742777
1.2313715 -0.072932757 0.029748918
1.2272971 -0.070661239 0.03108103
1.2278721 -0.081205629 0.033076871
1.240442 -0.091476962 0.03467191
1.2118739 -0.089740328 0.030408099
1.2038672 -0.094688706 0.032155231
1.2693729 -0.10210974 0.030974369
1.2384868 -0.10254687 0.037577264
1.3010924 -0.10871471 0.037268639
1.2518392 -0.10987999 0.039834391
1.2217038 -0.11117389 0.034647111
1.213992 -0.1144603 0.036236476
1.1840428 -0.11176093 0.040552013
1.2950794 -0.1256974 0.033455234
1.2815894 -0.11885398 0.035509311
1.2223476 -0.12546483 0.040044602
1.1936401 -0.13337852 0.044875801
1.2563879 -0.13756979 0.038995709
1.2536747 -0.14393528 0.039427906
1.208788 -0.14351545 0.045594953
1.1860172 -0.13973403 0.044381581
1.2670497 -0.16049072 0.04427585
1.1584184 -0.15637948 0.040547259
1.1451781 -0.15901849 0.047463246
1.2834016 -0.16439421 0.044567261
1.1680079 -0.16375667 0.040902436
1.2217724 -0.039251119 0.017677054
1.2704185 -0.048653495 0.015958138
1.231975 -0.048451833 0.017415576
1.2224509 -0.043022946 0.020086223
1.1927172 -0.047930084 0.022164905
1.2852206 -0.055003278 0.021611486
1.253984 -0.056037396 0.020625276
1.2215596 -0.052291714 0.020673957
1.2406896 -0.06374412 0.016879149
1.2331145 -0.064940996 0.024539612
1.2022113 -0.068661332 0.026245741
1.258496 -0.079181664 0.025492132
1.238808 -0.077325121 0.021690797
1.2067487 -0.071463719 0.018585812
1.3067571 -0.087000556 0.022343203
1.2581776 -0.087781064 0.025596116
1.289932 -0.095431589 0.021017278
1.2167453 -0.091653228 0.023830784
1.2394326 -0.11280237 0.023558691
1.2265244 -0.11328155 0.026766468
1.1889964 -0.11498094 0.030317977
1.2345166 -0.12121154 0.027197156
1.2251254 -0.11853984 0.03013326
1.2890663 -0.14268008 0.029641826
1.2753923 -0.13706833 0.029783811
1.2400342 -0.14393726 0.030633802
1.1987426 -0.13625257 0.034512665
1.2214888 -0.15437153 0.028833391
1.1905997 -0.14965096 0.033290006
1.1716589 -0.15374044 0.033631276
1.2474589 -0.16246684 0.033420995
1.2078557 -0.15895687 0.034032352
1.1836864 -0.15574208 0.032389939
1.2934924 -0.031779725 0.007242484
1.2574866 -0.031592112 0.0059378743
1.2549624 -0.03000278 0.0036251042
1.294554 -0.036990173 0.0080603771
1.260046 -0.042112961 0.0064352471
1.2539288 -0.041083798 0.0084556062
1.3184347 -0.04830372 0.011231175
1.2471678 -0.047484595 0.011839088
1.2340779 -0.048866954 0.010965819
1.2208685 -0.05421982 0.0064684134
1.204923 -0.045036495 0.011524288
1.244555 -0.060685065 0.010442788
1.3124217 -0.065286405 0.0074177701
1.2982746 -0.072009183 0.0065252399
1.2707772 -0.065078519 0.0091657499
1.2645161 -0.065682143 0.011357844
1.2328509 -0.065516122 0.0071535958
1.219267 -0.068038963 0.0088776741
1.2508718 -0.073108606 0.0089544291
1.2309827 -0.073943309 0.010689435
1.2815 -0.085583605 0.013333126
1.2432112 -0.085871629 0.011304024
1.2291708 -0.08874581 0.0128476
1.2726399 -0.097347282 0.010507003
1.2412463 -0.093970031 0.01496541
1.3007441 -0.10398324 0.018529799
1.2522751 -0.1048097 0.020995824
1.2392497 -0.10980007 0.016897552
1.2156451 -0.10666473 0.013442296
1.2837349 -0.11364593 0.015291777
1.2466857 -0.11695822 0.014349711
1.2016174 -0.11152808 0.020530146
1.2947309 -0.12096594 0.014716394
1.2463727 -0.12183835 0.01639553
1.2259265 -0.12750277 0.017643914
1.1934355 -0.124957 0.018245397
1.2242004 -0.13386008 0.018661395
1.2118096 -0.13305962 0.024320839
1.2569417 -0.13917284 0.018960545
1.2559975 -0.14314577 0.021496747
1.2031113 -0.14668487 0.022382762
1.2691952 -0.15528266 0.024058314
1.1972758 -0.15036149 0.021160163
1.1848992 -0.1511014 0.02671529
1.2341317 -0.16096592 0.02603351
1.2212276 -0.15682276 0.028569091
1.3180863 -0.043572254 -0.007507666
1.2708545 -0.043583229 -0.0028804252
1.287348 -0.049839426 0.0015655886
1.2509882 -0.051958967 -3.124401e-05
1.2559953 -0.056429129 -0.0036540376
1.2458824 -0.062918715 0.00034671184
1.2317851 -0.064614207 -0.00083046313
1.2268232 -0.062826648 0.004789805
1.3064086 -0.082269087 0.0036043637
1.260174 -0.078585595 0.0059796358
1.2920775 -0.090223521 0.0007997416
1.2563465 -0.083253555 0.0044429665
1.280194 -0.10126511 0.0016565509
1.2527109 -0.09973944 0.0021572588
1.235696 -0.09439633 0.010019951
1.2403287 -0.10917135 0.0035825707
1.2212666 -0.10293639 0.0081014829
1.2623866 -0.12086993 0.0071444837
1.2311749 -0.12448023 0.012154071
1.2058434 -0.12201548 0.0074285539
1.1993058 -0.1274046 0.0086370278
1.2887179 -0.1379486 0.010902985
1.2775379 -0.13186026 0.0095662735
1.2374674 -0.13174275 0.01324101
1.2241936 -0.1292896 0.014774825
1.2412506 -0.14638734 0.016275303
1.2135015 -0.14477105 0.012179421
1.2675861 -0.15534267 0.016715178
1.2500477 -0.16031073 0.016859623
1.29562 -0.026615879 -0.012803419
1.2870644 -0.041988302 -0.012285794
1.2518771 -0.046927419 -0.0079455432
1.2343191 -0.040858224 -0.014335818
1.2293347 -0.039249308 -0.0097569516
1.2228714 -0.047596358 -0.014073038
1.3120733 -0.06055494 -0.011321072
1.3004202 -0.066801123 -0.013692297
1.2719455 -0.057723902 -0.013267054
1.2649519 -0.060611878 -0.0074807196
1.2443031 -0.06118945 -0.010538599
1.2391293 -0.059909295 -0.0059381621
1.2821227 -0.074053273 -0.0039534513
1.2629358 -0.068892084 -0.0037819464
1.282617 -0.078017384 -0.0092791449
1.223833 -0.078831621 -0.0066055618
1.2477597 -0.090179816 -0.0027164216
1.2431344 -0.086942732 -0.0059425272
1.3003956 -0.099251777 -0.0002090428
1.2687758 -0.098594099 -0.0072077774
1.2550508 -0.098810501 -0.007140873
1.2419156 -0.10142858 -0.0002798154
1.2858804 -0.10843786 -0.0049257614
1.3549322 -0.11503924 -0.0039242785
1.2943826 -0.11623446 -0.0040224511
1.2786936 -0.11989484 -0.002235051
1.2588547 -0.11270493 0.0015022666
1.2436867 -0.12151414 0.0012468258
1.2602087 -0.1344104 -0.0015068178
1.2564369 -0.13803491 0.0025073611
1.2888 -0.14155027 0.0028351406
1.2365425 -0.14706294 0.0017691432
1.2246203 -0.14318427 0.0059673362
1.2218626 -0.14529765 0.00278318
1.2713407 -0.1500746 0.0038407766
1.2232753 -0.14918031 0.0071895309
1.2381846 -0.16279691 0.0045918608
1.31496 -0.02516439 -0.022458833
1.3177379 -0.038840789 -0.026246507
1.261421 -0.03774045 -0.017219331
1.2564753 -0.03036553 -0.021838622
1.2467358 -0.037461217 -0.023965301
1.2415404 -0.036355715 -0.02039757
1.3035709 -0.040375214 -0.02182248
1.2894754 -0.044675581 -0.01848031
1.2638373 -0.042747099 -0.020572562
1.2674357 -0.052173201 -0.017750859
1.2514353 -0.05699195 -0.016666129
1.3200169 -0.065695442 -0.023409873
1.3138806 -0.06138115 -0.016912274
1.2811146 -0.059153281 -0.016922917
1.2749996 -0.064675562 -0.016518317
1.2361389 -0.075914286 -0.01733353
1.306947 -0.078181967 -0.01837978
1.2942231 -0.085015453 -0.019417796
1.2594366 -0.081801914 -0.013766905
1.2294922 -0.080361456 -0.012626743
1.3000472 -0.094520316 -0.018947886
1.2759069 -0.092584834 -0.0099603599
1.2851343 -0.097438835 -0.016703393
1.3698683 -0.11406028 -0.014063425
1.3098075 -0.11550095 -0.013905789
1.2406199 -0.11698554 -0.011863654
1.226016 -0.12005123 -0.0079706172
1.2796835 -0.1266522 -0.010651262
1.2557155 -0.12992501 -0.010270365
1.2394108 -0.12437271 -0.0078002689
1.2883694 -0.13321714 -0.0078358548
1.2406462 -0.13778658 -0.010338973
1.2672404 -0.15064833 -0.0018766117
1.2504871 -0.15519989 -0.002129761
1.2233144 -0.15886575 -0.0057092411
1.2113284 -0.16074802 0.0005482306
1.2678168 -0.02614639 -0.03581357
1.320374 -0.03874173 -0.03149879
1.2591524 -0.034064204 -0.033594787
1.2537462 -0.033462122 -0.031038187
1.3087628 -0.043378722 -0.028184332
1.2788759 -0.047917265 -0.031847686
1.3117249 -0.055823471 -0.030059915
1.2219745 -0.06245131 -0.025196508
1.3215781 -0.076496139 -0.025106255
1.275165 -0.076318257 -0.021560039
1.2484448 -0.072996937 -0.028061498
1.2420102 -0.076936699 -0.022334881
1.2718874 -0.081746757 -0.028189167
1.3911846 -0.09593907 -0.020879515
1.3155173 -0.093613982 -0.028950009
1.2813212 -0.093574345 -0.020862985
1.2584904 -0.094111845 -0.024349049
1.2271994 -0.096108712 -0.024423026
1.2208425 -0.094836615 -0.018000931
1.2880261 -0.1032298 -0.025143297
1.3850136 -0.11305881 -0.024378896
1.2791365 -0.11474264 -0.021378022
1.2537551 -0.11436746 -0.01872471
1.2430673 -0.11319093 -0.025021978
1.2371684 -0.11704598 -0.020726468
1.2634757 -0.12964793 -0.021974185
1.2892466 -0.136356 -0.016464181
1.2384928 -0.13957404 -0.019183109
1.226189 -0.13516057 -0.016586438
1.2823564 -0.15019983 -0.011649261
1.2734863 -0.14486653 -0.016376764
1.2666978 -0.15450245 -0.011584306
1.3171054 -0.019956326 -0.042676371
1.2659521 -0.030568531 -0.041678809
1.3173896 -0.03410932 -0.04498535
1.2507802 -0.049336791 -0.042340774
1.3272879 -0.054609176 -0.040150475
1.314327 -0.05618687 -0.036211602
1.2444617 -0.05308089 -0.035666015
1.2607509 -0.070079595 -0.038789466
1.3961852 -0.073874451 -0.036125273
1.3082802 -0.073632009 -0.040924404
1.2963687 -0.079807393 -0.039635338
1.3336204 -0.083095744 -0.039140474
1.3900142 -0.090994194 -0.03962465
1.3186618 -0.095072202 -0.03616095
1.2855773 -0.092286631 -0.035846367
1.2397176 -0.092683949 -0.034131162
1.2321341 -0.094488211 -0.03059121
1.3075153 -0.10243959 -0.034960043
1.2567115 -0.1030345 -0.027123645
1.400368 -0.11203318 -0.034876887
1.3094565 -0.11073183 -0.032793764
1.29574 -0.11371658 -0.031050701
1.2497894 -0.11359311 -0.0305143
1.281829 -0.12144412 -0.030868798
1.2880212 -0.12848568 -0.026574697
1.2524595 -0.1299244 -0.030308548
1.2393243 -0.13254251 -0.023447489
1.2928498 -0.1444369 -0.026117587
1.2222359 -0.13637537 -0.022831755
1.2820079 -0.14546838 -0.030388104
1.2525765 -0.14714511 -0.022042993
1.2248935 -0.15071751 -0.028170276
1.2831997 -0.15380113 -0.021176994
1.2376059 -0.15405902 -0.021924771
1.3208206 -0.033547454 -0.050798118
1.3109084 -0.038170658 -0.048401874
1.2617027 -0.033840634 -0.048507936
1.2568783 -0.04968388 -0.045295499
1.331305 -0.054658581 -0.046115711
1.322181 -0.060442273 -0.043802492
1.2749788 -0.065007664 -0.043340005
1.2421874 -0.068700567 -0.047366731
1.2839513 -0.07753025 -0.04092554
1.3151662 -0.088844866 -0.047837988
1.2522357 -0.0892592 -0.043839302
1.2687752 -0.098817967 -0.039860014
1.3273152 -0.10162804 -0.044965923
1.2550579 -0.10662368 -0.040937301
1.3125653 -0.11266054 -0.040912449
1.2302158 -0.11202586 -0.043662164
1.3625848 -0.12613904 -0.036132302
1.3012646 -0.12081166 -0.040735129
1.2535994 -0.12010571 -0.038794495
1.2896932 -0.1311617 -0.03576351
1.2655948 -0.12730633 -0.037169609
1.2402272 -0.13076186 -0.038169786
1.2348567 -0.1329225 -0.032619588
1.3564624 -0.1431236 -0.039604049
1.2647455 -0.14289181 -0.034890443
1.2501177 -0.15109293 -0.032832019
1.2449827 -0.15434274 -0.028946301
1.2380286 -0.14809944 -0.035031334
1.2375751 -0.15477538 -0.030565951
1.3192509 -0.014748261 -0.062893905
1.3488228 -0.031305928 -0.065585375
1.3170412 -0.029377855 -0.06372419
1.273602 -0.041730255 -0.055083767
1.3269368 -0.049840052 -0.059038449
1.2586434 -0.050621588 -0.059980348
1.3950148 -0.068929575 -0.054870408
1.3070451 -0.068256214 -0.056417949
1.3358035 -0.077796765 -0.059710938
1.2710813 -0.082098059 -0.054832332
1.3888437 -0.086049318 -0.058369786
1.2577604 -0.086084574 -0.050184835
1.3091053 -0.10596271 -0.051681742
1.2424641 -0.1050069 -0.050852235
1.2656631 -0.11588918 -0.051530864
1.3776722 -0.12523368 -0.046623409
1.32101 -0.12016032 -0.050791368
1.2876726 -0.12375423 -0.045313537
1.2474777 -0.12946963 -0.042407416
1.2950138 -0.13918373 -0.046510212
1.2816596 -0.14073691 -0.049126945
1.2769145 -0.13863851 -0.047737885
1.2642992 -0.1428633 -0.04875344
1.2836462 -0.14860685 -0.040476315
1.339011 -0.0131918 -0.07303758
1.350597 -0.035433199 -0.068630502
1.3212671 -0.028353173 -0.070097439
1.3130541 -0.032962594 -0.068619408
1.2500958 -0.041790895 -0.067646056
1.3427134 -0.048560813 -0.0694599
1.3243451 -0.05518911 -0.064195126
1.3256589 -0.067010015 -0.070324965
1.3208759 -0.066957898 -0.0628822
1.3148149 -0.084075741 -0.066725954
1.30268 -0.085882865 -0.064936541
1.3294983 -0.096329056 -0.065536387
1.2547702 -0.10208956 -0.061580203
1.3826727 -0.10316906 -0.061869163
1.3130156 -0.10742363 -0.060370203
1.2499429 -0.10500645 -0.055635579
1.2901398 -0.12596743 -0.055062838
1.2648681 -0.12344549 -0.058145437
1.2600985 -0.12601675 -0.052195251
1.3553013 -0.13821778 -0.058201179
1.3147047 -0.13869263 -0.056616813
1.2890834 -0.13438523 -0.060585331
1.2969835 -0.14019839 -0.059369251
1.2473054 -0.14393537 -0.056559451
1.2394555 -0.1400893 -0.057115171
1.3484688 -0.026498623 -0.084624559
1.338302 -0.026596397 -0.080279723
1.3152202 -0.045798313 -0.074810252
1.3938444 -0.0639847 -0.073615544
1.336604 -0.065815702 -0.073334426
1.3195623 -0.084598355 -0.075076461
1.2665414 -0.089340702 -0.067911521
1.308754 -0.10119358 -0.070569716
1.2671841 -0.099188462 -0.066324651
1.277727 -0.11167265 -0.06426724
1.3602624 -0.11632737 -0.073326565
1.2873243 -0.11902276 -0.064052381
1.2394737 -0.1210119 -0.062247608
1.3186296 -0.12238766 -0.065918818
1.2840928 -0.14341256 -0.059775643
1.257787 -0.14189328 -0.064088374
1.2284082 -0.14196327 -0.066079438
1.3645822 -0.025027918 -0.095318519
1.3542072 -0.027473934 -0.089911692
1.3423595 -0.043753512 -0.088499092
1.3322055 -0.044184744 -0.085031219
1.3926739 -0.059039831 -0.092360675
1.3265091 -0.049935944 -0.084587738
1.3261091 -0.061773092 -0.089782722
1.3144637 -0.079306617 -0.085613936
1.3316811 -0.091030084 -0.086106852
1.3815023 -0.098224193 -0.080614299
1.3243852 -0.10032547 -0.081083484
1.3134658 -0.1021867 -0.079827957
1.2905862 -0.12077314 -0.074362166
1.3541403 -0.13331194 -0.076798305
1.2966322 -0.13542926 -0.078257225
1.2618529 -0.13958307 -0.069635212
1.3008226 -0.14260031 -0.069873191
1.3433402 -0.060281754 -0.10020411
1.3201735 -0.057419654 -0.10065816
1.3202585 -0.068308011 -0.090362817
1.386503 -0.076159574 -0.095860057
1.3301405 -0.078263283 -0.09624815
1.3200126 -0.079361439 -0.094534218
1.3591012 -0.11142154 -0.091923691
1.3413562 -0.12306288 -0.085722402
1.3182758 -0.11758037 -0.084958017
1.3073692 -0.11977506 -0.084579453
1.3691604 -0.13246368 -0.087613061
1.3121662 -0.13483524 -0.088832542
1.3326558 -0.038947824 -0.10448898
1.3401695 -0.067198806 -0.10085186
1.337193 -0.078015812 -0.10499498
1.3803319 -0.093279324 -0.099359438
1.324031 -0.095518179 -0.10012268
1.313916 -0.096949786 -0.099285707
1.3341449 -0.11684632 -0.095654666
1.3590142 -0.12206477 -0.096280828
1.3279861 -0.13424078 -0.099560529
1.3351579 -0.14094514 -0.090553299
1.3012729 -0.1373634 -0.089330956
1.3258833 -0.035532691 -0.11570238
1.3198223 -0.052650534 -0.11954615
1.3297865 -0.073455982 -0.11528733
1.3338642 -0.085731104 -0.10667732
1.339947 -0.094605699 -0.11094198
1.331046 -0.09574987 -0.10978583
1.35794 -0.10651571 -0.11052082
1.3503007 -0.11610722 -0.10651176
1.3679899 -0.1275188 -0.1063582
1.3791615 -0.088334441 -0.11810456
1.3729905 -0.10545419 -0.12160395
1.3440915 -0.13364373 -0.11044952
1.3356155 -0.1356207 -0.11033621
1.3532251 -0.13472843 -0.1211021
1.3506565 -0.11859445 -0.1325897
1.3437319 -0.12875797 -0.12979947
