# .PCD v0.7 - Point Cloud Data file format
VERSION 0.7
FIELDS x y z
SIZE 4 4 4
TYPE F F F
COUNT 1 1 1
WIDTH 1341
HEIGHT 1
VIEWPOINT 0 0 0 1 0 0 0
POINTS 1341
DATA ascii
-0.42264247 -0.32322064 -0.31229022
-0.42748779 -0.32158044 -0.31219903
-0.4330405 -0.32140827 -0.3116706
-0.4376069 -0.32019067 -0.31385154
-0.44391382 -0.32063678 -0.31481329
-0.45061439 -0.32275632 -0.31257251
-0.42324463 -0.32734382 -0.30731112
-0.42608839 -0.33022726 -0.31104159
-0.43398169 -0.33084354 -0.30969775
-0.44019121 -0.33299559 -0.31149298
-0.44698068 -0.33025765 -0.31296882
-0.4517943 -0.33091381 -0.31264132
-0.45743459 -0.3338477 -0.3108041
-0.42516932 -0.34138981 -0.31190392
-0.43357354 -0.33983353 -0.30844352
-0.43970573 -0.33706999 -0.31428719
-0.45252743 -0.33854246 -0.31135973
-0.43450052 -0.35038698 -0.30649441
-0.44058162 -0.34914425 -0.30857483
-0.44490516 -0.3513748 -0.30810758
-0.45218477 -0.34891129 -0.30768296
-0.435139 -0.3626048 -0.30324423
-0.43831539 -0.36025566 -0.30267042
-0.444998 -0.3560757 -0.30619487
-0.43626931 -0.36703092 -0.30764523
-0.44740167 -0.36580533 -0.30156374
-0.45448273 -0.3675521 -0.3059133
-0.45963249 -0.37148431 -0.30414826
-0.46547061 -0.37179297 -0.30633909
-0.43423605 -0.38181251 -0.30562913
-0.44342083 -0.3779794 -0.30600092
-0.4487851 -0.37575096 -0.30498078
-0.45100272 -0.37476605 -0.30412942
-0.46227151 -0.3767179 -0.30411187
-0.46879852 -0.37981427 -0.30509171
-0.47514167 -0.37857997 -0.30741516
-0.48006681 -0.38097835 -0.30336714
-0.44653356 -0.38740343 -0.30061638
-0.45510072 -0.38573229 -0.30540377
-0.46037075 -0.3887693 -0.3043339
-0.46853405 -0.38763213 -0.30167028
-0.47839108 -0.38889205 -0.30360612
-0.41763347 -0.39851585 -0.3020525
-0.42523807 -0.39746246 -0.298058
-0.43501174 -0.39764151 -0.299086
-0.44015011 -0.39742899 -0.30267918
-0.44726467 -0.39813057 -0.30452782
-0.45279855 -0.39717239 -0.30184925
-0.46119079 -0.3978965 -0.3027871
-0.47069025 -0.39615047 -0.30436701
-0.4400318 -0.30502403 -0.32215336
-0.44741771 -0.30552271 -0.32296085
-0.45365733 -0.30511299 -0.32311261
-0.42786437 -0.31400919 -0.32290387
-0.43538532 -0.31365603 -0.32199723
-0.43885553 -0.31329647 -0.32267973
-0.44712698 -0.31334236 -0.32059571
-0.45309314 -0.31261328 -0.32512182
-0.45989046 -0.3112742 -0.32068881
-0.46723077 -0.31007528 -0.31901473
-0.43185791 -0.32488739 -0.32224786
-0.44043604 -0.32226828 -0.32163739
-0.4470171 -0.32137495 -0.32362765
-0.45308888 -0.32352972 -0.32229465
-0.45955774 -0.32536754 -0.31945199
-0.42311102 -0.32829681 -0.31798476
-0.42964008 -0.32960299 -0.31906939
-0.43253678 -0.33147168 -0.31928954
-0.44089258 -0.33353436 -0.32053912
-0.44859272 -0.33113801 -0.3210741
-0.45422712 -0.33014363 -0.32295057
-0.43334046 -0.34074181 -0.31663111
-0.44013163 -0.34091702 -0.31608644
-0.44741115 -0.34159058 -0.32049248
-0.45224848 -0.34522882 -0.31826976
-0.45746946 -0.34490198 -0.31958479
-0.42991531 -0.34962872 -0.31402519
-0.44063964 -0.35027063 -0.31395894
-0.44649163 -0.35274932 -0.31723827
-0.45341259 -0.35181949 -0.31878155
-0.46035314 -0.35499409 -0.3181622
-0.44118884 -0.35988176 -0.31507972
-0.45346466 -0.36121944 -0.31438401
-0.45889413 -0.35933539 -0.31540734
-0.46768785 -0.36199397 -0.3155697
-0.48218802 -0.36412734 -0.31727976
-0.4465701 -0.36784604 -0.31279528
-0.45403713 -0.36881509 -0.31518114
-0.4608396 -0.373786 -0.31479636
-0.46601138 -0.37002727 -0.31537929
-0.47442043 -0.37237361 -0.31465518
-0.44205174 -0.38306454 -0.30842498
-0.44392282 -0.38344556 -0.31120971
-0.45253807 -0.37978107 -0.3124674
-0.46023849 -0.3777996 -0.30862981
-0.46715739 -0.37866884 -0.3118766
-0.47411075 -0.37918162 -0.31374735
-0.47788444 -0.38301787 -0.31134841
-0.48507744 -0.3782447 -0.31634265
-0.44742164 -0.38555041 -0.30957741
-0.45457068 -0.38617671 -0.3129409
-0.46060446 -0.38722852 -0.31233102
-0.46682215 -0.38729253 -0.312832
-0.47278771 -0.38877055 -0.314531
-0.47998869 -0.39112687 -0.31392273
-0.43012282 -0.39373401 -0.31098041
-0.44210187 -0.39747086 -0.31087375
-0.46052256 -0.39739653 -0.31071186
-0.46910319 -0.39762697 -0.31013781
-0.44160694 -0.30645382 -0.33164462
-0.44876978 -0.30489299 -0.33259606
-0.45251521 -0.30676752 -0.33081812
-0.45941025 -0.30604661 -0.33406511
-0.46784624 -0.30669826 -0.33429757
-0.47207373 -0.30589324 -0.33225703
-0.43630901 -0.31543982 -0.32968712
-0.44299734 -0.31108731 -0.32951939
-0.44433481 -0.31498748 -0.3306624
-0.45374852 -0.31532353 -0.33210132
-0.45985878 -0.31436661 -0.33216584
-0.46421978 -0.31408048 -0.33081627
-0.43299028 -0.32591176 -0.32730964
-0.43964797 -0.324812 -0.33332455
-0.4443993 -0.32531375 -0.32980913
-0.45430106 -0.32516259 -0.33119065
-0.46084398 -0.32432905 -0.3298502
-0.46616396 -0.32493138 -0.33108026
-0.43627656 -0.33806443 -0.32941043
-0.43963555 -0.33244613 -0.32707968
-0.44844881 -0.33358586 -0.32971811
-0.45029971 -0.33787274 -0.32618606
-0.45865017 -0.33605424 -0.32720995
-0.43419355 -0.3442885 -0.32669771
-0.43699375 -0.34402716 -0.32651865
-0.4467701 -0.34345764 -0.32719189
-0.45253515 -0.34290481 -0.32676753
-0.45878893 -0.34205502 -0.32907134
-0.47060198 -0.34580725 -0.3302024
-0.44324169 -0.34783408 -0.32380861
-0.44980335 -0.34911954 -0.32476994
-0.45243531 -0.35069731 -0.32768774
-0.45949832 -0.35305369 -0.32737106
-0.46092781 -0.36234879 -0.32512033
-0.46820399 -0.36142671 -0.32632181
-0.47297186 -0.36250582 -0.32619941
-0.45609075 -0.37039357 -0.32025158
-0.46216345 -0.36978307 -0.32314062
-0.4676176 -0.37469533 -0.32559675
-0.47422829 -0.37241721 -0.32230407
-0.47921547 -0.37140417 -0.32433802
-0.48750359 -0.37177619 -0.32322499
-0.44946486 -0.38437325 -0.3211658
-0.46082294 -0.38154772 -0.32646611
-0.46611154 -0.38333085 -0.32139313
-0.47284365 -0.37942928 -0.32376897
-0.47977683 -0.38183331 -0.32250792
-0.48673606 -0.37993035 -0.32331398
-0.43190247 -0.39070162 -0.31868574
-0.44742855 -0.3911368 -0.31803811
-0.45982134 -0.38893506 -0.32039031
-0.46712446 -0.39208737 -0.31975773
-0.47378162 -0.38767865 -0.32270145
-0.48112795 -0.38887861 -0.3226411
-0.48673996 -0.38646132 -0.32077354
-0.49683785 -0.38705 -0.31906042
-0.43978572 -0.39543623 -0.31659201
-0.44725698 -0.3051511 -0.34073266
-0.4508113 -0.30423939 -0.34065399
-0.45982042 -0.30738893 -0.34202662
-0.46591464 -0.3068139 -0.34188062
-0.47301736 -0.3099905 -0.34320503
-0.48800683 -0.30342945 -0.34683689
-0.44600964 -0.31808066 -0.33654213
-0.4536826 -0.31687757 -0.34128791
-0.46079388 -0.31768656 -0.34274334
-0.46782181 -0.31595698 -0.33887687
-0.47291467 -0.31618559 -0.34350026
-0.47746441 -0.31236535 -0.34200212
-0.44104162 -0.32304537 -0.33731526
-0.44680667 -0.32605255 -0.33888942
-0.45353612 -0.32511884 -0.33995703
-0.4600068 -0.32490987 -0.33837
-0.46669173 -0.32574111 -0.33593124
-0.47359475 -0.32465386 -0.34047723
-0.44027638 -0.33932403 -0.33550587
-0.44652271 -0.33545253 -0.3348994
-0.45370242 -0.3354646 -0.33909553
-0.46005905 -0.33480006 -0.33801019
-0.46637383 -0.33342472 -0.3392348
-0.4421325 -0.34510797 -0.33527133
-0.44518718 -0.33960131 -0.33591142
-0.45260072 -0.34349447 -0.33773744
-0.45944342 -0.34333438 -0.3376824
-0.46728551 -0.34629637 -0.33748931
-0.45992059 -0.35092923 -0.33431864
-0.46996397 -0.35071531 -0.33386186
-0.47444588 -0.35483658 -0.33688977
-0.45351964 -0.36524716 -0.32969165
-0.45950067 -0.36352184 -0.33266106
-0.46610147 -0.36170605 -0.33907208
-0.47378039 -0.36471954 -0.33332428
-0.48015872 -0.36399898 -0.33198598
-0.48624632 -0.36254245 -0.33488774
-0.44980836 -0.37720305 -0.33393386
-0.46979707 -0.37534347 -0.3320109
-0.47535518 -0.37243819 -0.33174524
-0.48229957 -0.37386614 -0.33245739
-0.50822753 -0.37492549 -0.33607781
-0.46175283 -0.38325331 -0.33053792
-0.46398693 -0.38302141 -0.33574539
-0.47432426 -0.38343352 -0.33029881
-0.47913083 -0.38277799 -0.33426046
-0.48619911 -0.38110805 -0.33132806
-0.50363016 -0.38056132 -0.3346858
-0.44657779 -0.39053747 -0.33138174
-0.46057978 -0.38905635 -0.32937667
-0.46699956 -0.3895534 -0.32886797
-0.47414857 -0.39037016 -0.3305729
-0.48534766 -0.38845003 -0.3304188
-0.49604839 -0.38567355 -0.32666841
-0.4598788 -0.2978633 -0.3513234
-0.46699291 -0.29934883 -0.35170051
-0.47339892 -0.29888344 -0.35072741
-0.47934112 -0.29833779 -0.35331428
-0.48611024 -0.29792356 -0.35348406
-0.4605296 -0.30921447 -0.3518517
-0.46812502 -0.30716515 -0.35050523
-0.4746792 -0.30852032 -0.35215884
-0.48056787 -0.30899662 -0.35167584
-0.48448414 -0.30904958 -0.35413486
-0.44554344 -0.32020432 -0.34776774
-0.46116439 -0.31923151 -0.34955549
-0.46549034 -0.31696612 -0.35076186
-0.47306186 -0.31625879 -0.3500475
-0.47824696 -0.3154439 -0.34852585
-0.48677894 -0.31903613 -0.35025731
-0.45383886 -0.32371065 -0.34747171
-0.45964679 -0.32570201 -0.3482599
-0.46673989 -0.32777762 -0.34802356
-0.47180998 -0.32661292 -0.34944913
-0.48051754 -0.32510018 -0.35135669
-0.45406458 -0.3336184 -0.34680104
-0.45944571 -0.33544505 -0.34889966
-0.46565527 -0.33563551 -0.34722033
-0.47387102 -0.3355557 -0.35028833
-0.48553973 -0.33904374 -0.35031962
-0.46266559 -0.34490317 -0.34594107
-0.46691507 -0.34422141 -0.34588051
-0.47488344 -0.34803137 -0.34660137
-0.47887644 -0.34473196 -0.34638953
-0.46727234 -0.35279778 -0.34373432
-0.47637016 -0.35325029 -0.34678918
-0.48006737 -0.3548387 -0.34445807
-0.48832181 -0.35848933 -0.34631854
-0.46760494 -0.36766705 -0.33860847
-0.47181338 -0.36376622 -0.34083715
-0.47969016 -0.36296749 -0.34304592
-0.4884696 -0.36473966 -0.34272075
-0.49252701 -0.36796919 -0.34543902
-0.50297916 -0.36692035 -0.34399766
-0.46895424 -0.36852783 -0.33912241
-0.47527838 -0.37362477 -0.33862871
-0.4804222 -0.37169847 -0.34385425
-0.48640943 -0.37162423 -0.34102982
-0.49303505 -0.3758747 -0.34142613
-0.50031692 -0.37241474 -0.34378809
-0.46258831 -0.37998101 -0.33976528
-0.46751648 -0.38129365 -0.34109256
-0.47265571 -0.38460097 -0.34041163
-0.48113146 -0.38374403 -0.34036499
-0.48755062 -0.38265419 -0.33898193
-0.49308982 -0.38354912 -0.34040874
-0.5011245 -0.38365483 -0.34138897
-0.51010859 -0.38259 -0.34267673
-0.46734053 -0.29915437 -0.36327878
-0.47402221 -0.29887781 -0.36340082
-0.48200071 -0.29948521 -0.35972732
-0.4856675 -0.29864198 -0.36351004
-0.49250421 -0.29809234 -0.36348125
-0.4972938 -0.29638129 -0.36290276
-0.45573023 -0.3115136 -0.36340779
-0.46881056 -0.30591962 -0.36047351
-0.47376046 -0.30801874 -0.35776469
-0.47908202 -0.30778208 -0.359476
-0.48803777 -0.30794257 -0.35975322
-0.49239016 -0.30962399 -0.36108261
-0.46175835 -0.32123992 -0.35794801
-0.46801218 -0.31950799 -0.36028054
-0.47198269 -0.31901616 -0.35947594
-0.47943947 -0.31940848 -0.35729036
-0.48459896 -0.31760839 -0.35950169
-0.49446562 -0.32133505 -0.36247241
-0.46175653 -0.32768947 -0.35394037
-0.46643782 -0.33201927 -0.35627934
-0.47424498 -0.32830977 -0.35780713
-0.48111805 -0.32773945 -0.35772458
-0.46049312 -0.3340891 -0.35654223
-0.46801054 -0.33812541 -0.35592118
-0.47312838 -0.33925927 -0.35717598
-0.47996658 -0.33712417 -0.3591547
-0.48398364 -0.33647099 -0.35591388
-0.46585843 -0.34918809 -0.35055488
-0.47316074 -0.34559342 -0.35480428
-0.47893205 -0.34391332 -0.35839623
-0.48740995 -0.34654731 -0.35569701
-0.49558243 -0.35049766 -0.35700017
-0.45933852 -0.35171247 -0.35058621
-0.47284988 -0.35917759 -0.35030648
-0.4778952 -0.35754138 -0.3528887
-0.48839098 -0.35856956 -0.35199389
-0.49554089 -0.35766208 -0.35371381
-0.50009131 -0.35932145 -0.34917203
-0.48207495 -0.36278987 -0.35760698
-0.48715773 -0.36152425 -0.35016635
-0.49447107 -0.36349088 -0.35094368
-0.49916372 -0.36649156 -0.3507179
-0.50631917 -0.36598402 -0.35456294
-0.51102394 -0.36103117 -0.3502849
-0.48202938 -0.37671301 -0.35351795
-0.48997524 -0.37471625 -0.34887666
-0.49418688 -0.37356508 -0.35032389
-0.50119257 -0.37782386 -0.3550151
-0.50673699 -0.37441087 -0.35142314
-0.51391226 -0.37522927 -0.34849587
-0.48029983 -0.38328648 -0.350288
-0.48763457 -0.38347235 -0.34870744
-0.51186293 -0.38048926 -0.35204113
-0.47487098 -0.29354969 -0.36994717
-0.4859111 -0.29360792 -0.37067699
-0.50377607 -0.29326797 -0.37296349
-0.51050663 -0.29667842 -0.37390816
-0.47364864 -0.30153728 -0.37370718
-0.48117852 -0.29921713 -0.37066174
-0.48581931 -0.30107784 -0.3718057
-0.49434945 -0.30073273 -0.37185055
-0.50497782 -0.30324599 -0.37462255
-0.45939016 -0.31508923 -0.36989489
-0.46556738 -0.30886328 -0.36820325
-0.47946543 -0.31121573 -0.36918482
-0.48687488 -0.30983338 -0.369885
-0.49408677 -0.30933934 -0.37033191
-0.4671689 -0.31946397 -0.37121671
-0.47413677 -0.31919271 -0.36567405
-0.47902218 -0.31878167 -0.36783236
-0.48621497 -0.32122046 -0.36780465
-0.49378186 -0.32113463 -0.36853626
-0.46801564 -0.32864934 -0.36749831
-0.47498265 -0.33153901 -0.36944091
-0.48030218 -0.32901913 -0.36631781
-0.48828709 -0.32595286 -0.36718947
-0.49279317 -0.3309257 -0.36914033
-0.46836409 -0.33584881 -0.36244822
-0.47589314 -0.34168589 -0.36210868
-0.48000398 -0.3388468 -0.36657393
-0.48603347 -0.34168428 -0.36210644
-0.49511412 -0.34035945 -0.36598477
-0.46538839 -0.3489894 -0.36242169
-0.47494587 -0.34949899 -0.3605887
-0.47983187 -0.34776461 -0.36392456
-0.48940867 -0.3512612 -0.3659429
-0.49303979 -0.34668234 -0.36233413
-0.4988701 -0.34764364 -0.36496186
-0.48961386 -0.35386947 -0.36258575
-0.49292973 -0.3572067 -0.36394387
-0.49995542 -0.35878161 -0.36382672
-0.50495529 -0.35888681 -0.36486438
-0.47666779 -0.37027016 -0.35927299
-0.49369067 -0.36414826 -0.36050755
-0.49753961 -0.36990467 -0.36223859
-0.50621951 -0.36393726 -0.36041278
-0.5140506 -0.36891109 -0.36327016
-0.52021867 -0.36937624 -0.36122704
-0.48930621 -0.37578019 -0.3588191
-0.49248141 -0.37486044 -0.36106676
-0.5000369 -0.37683821 -0.36016965
-0.50736445 -0.37597141 -0.36112329
-0.51266825 -0.37674671 -0.35949963
-0.48210987 -0.29069313 -0.38288194
-0.48625371 -0.29275984 -0.38086542
-0.49405026 -0.29256254 -0.38308769
-0.499488 -0.29438689 -0.3784717
-0.50813854 -0.29226226 -0.38450438
-0.47305831 -0.30607381 -0.37713307
-0.47919202 -0.30191299 -0.37855205
-0.48517981 -0.30379182 -0.38062656
-0.49404648 -0.30347058 -0.37866375
-0.50020808 -0.30392766 -0.3787207
-0.50374079 -0.30595085 -0.38305321
-0.51152295 -0.29900834 -0.38474697
-0.46766683 -0.31644002 -0.37740326
-0.47281948 -0.31366801 -0.37765181
-0.48131624 -0.31241947 -0.37761036
-0.48617426 -0.31312346 -0.37900683
-0.49453494 -0.31223449 -0.37912971
-0.50259161 -0.30766642 -0.38149285
-0.5059104 -0.30958623 -0.37838638
-0.46814859 -0.32610363 -0.37973964
-0.47478572 -0.32065123 -0.37709573
-0.47941473 -0.32249033 -0.37517509
-0.48711273 -0.32200682 -0.37818229
-0.49435097 -0.31989834 -0.37671858
-0.49979359 -0.3214601 -0.37909147
-0.47479266 -0.33131325 -0.37293291
-0.48082051 -0.33032241 -0.37706318
-0.48657864 -0.33008683 -0.37491503
-0.4926284 -0.32853267 -0.37671685
-0.49805194 -0.33375856 -0.37293974
-0.46856076 -0.33823469 -0.37246829
-0.48619878 -0.33799449 -0.37511769
-0.49182567 -0.3398295 -0.37295446
-0.49963707 -0.33809382 -0.37739342
-0.50438666 -0.34320757 -0.37857902
-0.4871116 -0.35081646 -0.37321055
-0.49978626 -0.34888488 -0.3718895
-0.50701725 -0.34935114 -0.37380177
-0.51082999 -0.34620953 -0.37082046
-0.49400333 -0.36198178 -0.37242344
-0.50073731 -0.35825044 -0.37448391
-0.50729549 -0.35924155 -0.3702881
-0.51357454 -0.35746181 -0.37214205
-0.51896125 -0.35867852 -0.36717865
-0.52697319 -0.35990348 -0.37595591
-0.49184766 -0.37053135 -0.37233227
-0.50118852 -0.36520854 -0.36727774
-0.50777686 -0.36739373 -0.370112
-0.51537442 -0.36949944 -0.37284443
-0.52028626 -0.36633256 -0.36789814
-0.52847004 -0.36584109 -0.37374574
-0.49423546 -0.29769588 -0.38615161
-0.49968603 -0.2949318 -0.39121845
-0.50585383 -0.29297429 -0.39010066
-0.51295382 -0.29256499 -0.38761291
-0.5212999 -0.29292178 -0.39174131
-0.48755527 -0.30463406 -0.39053816
-0.49409133 -0.3029947 -0.38872153
-0.50042439 -0.30317274 -0.38902447
-0.5051111 -0.30266488 -0.39112341
-0.51331532 -0.30346492 -0.39283651
-0.48065135 -0.31367475 -0.38566545
-0.48821452 -0.3132799 -0.39043179
-0.49215248 -0.31350535 -0.38857639
-0.49992529 -0.31414199 -0.38683408
-0.50576776 -0.31395149 -0.38887995
-0.51436573 -0.31418079 -0.39135772
-0.47600064 -0.3271279 -0.38762632
-0.48195818 -0.3244378 -0.38447657
-0.4884232 -0.31899738 -0.38652205
-0.49446496 -0.32365039 -0.38669226
-0.50067008 -0.32236591 -0.38909128
-0.50388545 -0.31841981 -0.38816088
-0.51334357 -0.32225221 -0.38620466
-0.48453432 -0.33290541 -0.38660803
-0.49252689 -0.33102369 -0.38464376
-0.49936289 -0.33243415 -0.38345301
-0.5057593 -0.33235723 -0.38795364
-0.51020211 -0.32833722 -0.38718027
-0.52667964 -0.32792532 -0.3891004
-0.48870334 -0.34357199 -0.38121027
-0.49377307 -0.34490317 -0.38619483
-0.49815357 -0.3379252 -0.38340688
-0.50682259 -0.34063795 -0.3865566
-0.5145179 -0.34453079 -0.38459057
-0.49595523 -0.35070661 -0.38184571
-0.5005759 -0.35207659 -0.38085157
-0.50797623 -0.34946519 -0.38437584
-0.51346213 -0.35030258 -0.38308543
-0.5194208 -0.35371608 -0.38015625
-0.50284708 -0.36212087 -0.37916696
-0.50581563 -0.35777423 -0.3803885
-0.51602268 -0.36149752 -0.38079396
-0.51957494 -0.35946 -0.38250741
-0.52460104 -0.36251956 -0.380972
-0.53185409 -0.3615151 -0.38464317
-0.50230569 -0.37100881 -0.37923086
-0.50788516 -0.37056506 -0.3808696
-0.51346916 -0.36960256 -0.38038519
-0.52082896 -0.36882889 -0.37950155
-0.5331381 -0.37011638 -0.37795165
-0.53971374 -0.36698577 -0.38104266
-0.4995476 -0.28684825 -0.40131229
-0.51355475 -0.28702152 -0.40064156
-0.52419597 -0.2879582 -0.40107995
-0.49774155 -0.29626876 -0.40258694
-0.50720966 -0.2956056 -0.39909005
-0.51248592 -0.2958914 -0.39998338
-0.51981348 -0.29534665 -0.39981875
-0.52493787 -0.29159775 -0.40112096
-0.49310356 -0.30599713 -0.3968972
-0.49871194 -0.30463639 -0.39753574
-0.50622642 -0.30416009 -0.3987847
-0.51392978 -0.30521846 -0.39996603
-0.51734072 -0.30556798 -0.39821434
-0.48875153 -0.31139737 -0.40031689
-0.49576646 -0.31525105 -0.39699894
-0.50086492 -0.31337711 -0.39813808
-0.50739479 -0.31518498 -0.39733711
-0.51148635 -0.31342149 -0.39656958
-0.48475483 -0.32205454 -0.39264214
-0.49475703 -0.32728204 -0.3958846
-0.50072247 -0.32594615 -0.39503139
-0.50643927 -0.32541847 -0.3939217
-0.51300365 -0.32583103 -0.39624441
-0.52207351 -0.32557717 -0.40006736
-0.48194349 -0.33319435 -0.3919909
-0.49028563 -0.33238244 -0.39057574
-0.49957007 -0.33296275 -0.39277226
-0.5064801 -0.33514914 -0.39334443
-0.51317084 -0.33226985 -0.39855766
-0.49542838 -0.33907905 -0.39137334
-0.50144207 -0.34035686 -0.39291096
-0.50543898 -0.34243584 -0.39338121
-0.51410717 -0.34132162 -0.39525926
-0.52035236 -0.34223625 -0.39669728
-0.52576637 -0.34368569 -0.39526469
-0.50207973 -0.34794992 -0.39382726
-0.50692278 -0.35066861 -0.39179379
-0.51174074 -0.35078394 -0.38997951
-0.52062833 -0.35197374 -0.39279294
-0.52633601 -0.35440356 -0.3920688
-0.53113306 -0.35001087 -0.39329153
-0.51249516 -0.36129904 -0.38779789
-0.52055186 -0.36147788 -0.39014915
-0.52878517 -0.36027962 -0.39125884
-0.53401464 -0.36584648 -0.39275983
-0.54501742 -0.36623669 -0.38903639
-0.5090481 -0.28982955 -0.4098213
-0.51308841 -0.29108581 -0.41138357
-0.52056807 -0.28866974 -0.41024876
-0.52444363 -0.28926569 -0.41163892
-0.53122675 -0.28674442 -0.41249421
-0.54517955 -0.28611091 -0.4148424
-0.5000217 -0.29521596 -0.40744126
-0.50687045 -0.29735607 -0.40846574
-0.51416367 -0.29760468 -0.40946972
-0.51885474 -0.29637867 -0.40963513
-0.52676255 -0.2989924 -0.41009724
-0.53381044 -0.29970574 -0.41237378
-0.49504673 -0.30875698 -0.40701762
-0.50202113 -0.31029114 -0.40626866
-0.50652176 -0.30788368 -0.40515909
-0.51448089 -0.30763561 -0.40873313
-0.51960915 -0.30535284 -0.40698361
-0.52553135 -0.30542475 -0.40780365
-0.49999139 -0.31556413 -0.40492988
-0.50452256 -0.31772402 -0.40735513
-0.51265591 -0.31396893 -0.40666157
-0.51979047 -0.31508374 -0.40760237
-0.52588922 -0.32032853 -0.40926328
-0.48972088 -0.3273578 -0.40130979
-0.49072978 -0.32685119 -0.4007867
-0.49851641 -0.32613307 -0.40487891
-0.50642139 -0.32563913 -0.40568903
-0.51343131 -0.32486641 -0.40528154
-0.5194937 -0.32381108 -0.4049167
-0.52545792 -0.32935759 -0.40285939
-0.50824052 -0.33738253 -0.40152204
-0.51424503 -0.33428448 -0.40480259
-0.51783264 -0.33705631 -0.40078318
-0.52587956 -0.33756828 -0.40355042
-0.5072962 -0.34265471 -0.40415642
-0.51249337 -0.34156838 -0.40308559
-0.52148581 -0.34137139 -0.4058803
-0.52436733 -0.34635112 -0.40125963
-0.53105283 -0.34496441 -0.40131578
-0.5437085 -0.34722236 -0.4049367
-0.51570904 -0.35136729 -0.39946336
-0.52183598 -0.35030922 -0.40166807
-0.52844292 -0.35219657 -0.40142533
-0.53315175 -0.35274494 -0.40198681
-0.51498771 -0.36525571 -0.39615241
-0.51934546 -0.3598077 -0.3982127
-0.52724326 -0.36316568 -0.40044403
-0.53405887 -0.36321354 -0.40014178
-0.53957766 -0.36298338 -0.40045226
-0.50173372 -0.29064614 -0.41519707
-0.50721502 -0.28892738 -0.41712293
-0.51326227 -0.2917417 -0.41681659
-0.52132261 -0.28854448 -0.42030892
-0.52555829 -0.2887677 -0.41920424
-0.5325262 -0.28808579 -0.41943544
-0.53819871 -0.2857188 -0.41986024
-0.54724157 -0.2867775 -0.41976422
-0.49904731 -0.29767412 -0.41679394
-0.51216483 -0.2944892 -0.42120367
-0.52099472 -0.29811126 -0.42018262
-0.52704489 -0.2966851 -0.41810998
-0.53163624 -0.30046526 -0.41751251
-0.54085118 -0.29927725 -0.41962245
-0.50035745 -0.31189024 -0.41778198
-0.50415659 -0.30595922 -0.41562456
-0.51326084 -0.30838922 -0.41545254
-0.51969653 -0.30896914 -0.41593766
-0.52604657 -0.30890045 -0.41749236
-0.53344893 -0.30699205 -0.4190855
-0.49675938 -0.32141238 -0.41301009
-0.50700182 -0.31843081 -0.4142077
-0.51335502 -0.3192071 -0.41671759
-0.51878017 -0.31755412 -0.4157114
-0.52664328 -0.3171016 -0.416399
-0.53406328 -0.31598744 -0.41730088
-0.51344669 -0.32679275 -0.41271421
-0.51971549 -0.32830846 -0.41204089
-0.52641505 -0.32895106 -0.41404411
-0.5141806 -0.33789966 -0.41190597
-0.52010566 -0.3348394 -0.41177192
-0.52521902 -0.333148 -0.41474959
-0.53075498 -0.33455807 -0.41137588
-0.51586616 -0.34181488 -0.40933171
-0.5216369 -0.34393108 -0.41025585
-0.52624297 -0.34488723 -0.41257334
-0.53357452 -0.34461835 -0.41114816
-0.53367674 -0.35154814 -0.41095677
-0.54130685 -0.35362875 -0.41021851
-0.54549992 -0.35544693 -0.41111416
-0.52637219 -0.36211026 -0.40730029
-0.5199126 -0.28349155 -0.43351734
-0.53141159 -0.28099203 -0.4283101
-0.55582583 -0.28017652 -0.43371385
-0.5195924 -0.29270566 -0.42468044
-0.52457452 -0.28889018 -0.42584163
-0.53281307 -0.29091054 -0.42753801
-0.53930295 -0.29000527 -0.42931557
-0.5448724 -0.29221329 -0.43194497
-0.50600541 -0.29633653 -0.42658544
-0.51029104 -0.30047685 -0.42789835
-0.51988226 -0.29959568 -0.4296076
-0.52774733 -0.29939044 -0.4269526
-0.53277391 -0.29659897 -0.4276664
-0.54055297 -0.2997134 -0.42743146
-0.54513383 -0.29529116 -0.42967501
-0.50875366 -0.31275222 -0.42577299
-0.51224059 -0.31097329 -0.42421603
-0.52045059 -0.30995914 -0.42652762
-0.52624738 -0.30856422 -0.42700642
-0.53405887 -0.31047678 -0.42670926
-0.5390113 -0.30840483 -0.42736647
-0.51196909 -0.31905323 -0.42530504
-0.5204159 -0.3196851 -0.42656821
-0.52594161 -0.32007307 -0.42558157
-0.53293085 -0.31703305 -0.42787015
-0.540093 -0.31978643 -0.42458692
-0.51938546 -0.32449645 -0.42343608
-0.52599329 -0.32734078 -0.42286333
-0.53493643 -0.32752568 -0.42618373
-0.53749746 -0.3249386 -0.42534164
-0.54697341 -0.32573783 -0.42487684
-0.52020776 -0.3377789 -0.419442
-0.5258289 -0.33888876 -0.42018116
-0.53445852 -0.33772156 -0.42142066
-0.53911644 -0.33880317 -0.4234418
-0.54965609 -0.340855 -0.42466518
-0.52764314 -0.34396625 -0.41990885
-0.5332576 -0.34411308 -0.41805753
-0.53841126 -0.34356475 -0.42327321
-0.54686713 -0.34495232 -0.42115915
-0.55552912 -0.34839088 -0.42081529
-0.52963138 -0.35102603 -0.4155702
-0.53283668 -0.35801879 -0.41749421
-0.54031974 -0.35271752 -0.42153969
-0.54618073 -0.35609642 -0.41680297
-0.5604282 -0.35298041 -0.41829464
-0.52396941 -0.28057951 -0.44019061
-0.53313971 -0.28061646 -0.43849126
-0.53989619 -0.28280249 -0.43712732
-0.54586482 -0.2815257 -0.4376438
-0.55252701 -0.28074718 -0.43879992
-0.55924159 -0.28506255 -0.43985111
-0.52673674 -0.29172397 -0.4354924
-0.53500271 -0.29141122 -0.43889964
-0.54093045 -0.29157686 -0.43945935
-0.54482698 -0.28929865 -0.43771687
-0.55355531 -0.28814089 -0.43779621
-0.5273177 -0.30216062 -0.4353869
-0.53487492 -0.30178514 -0.4347834
-0.53877383 -0.29918551 -0.43781248
-0.54604191 -0.2990739 -0.43699601
-0.527435 -0.30834919 -0.43374532
-0.53341269 -0.31062075 -0.43466359
-0.54151303 -0.31012964 -0.43544871
-0.54690087 -0.31045842 -0.43365544
-0.52007353 -0.31934142 -0.43351084
-0.52681172 -0.31772691 -0.43548942
-0.53276491 -0.31943828 -0.4349837
-0.5392071 -0.31868944 -0.43299401
-0.54550654 -0.32132825 -0.43604085
-0.53269786 -0.32673627 -0.43243644
-0.54066777 -0.33205149 -0.43490741
-0.54410738 -0.33042359 -0.43528068
-0.55102926 -0.3304663 -0.43560591
-0.52745759 -0.33516777 -0.43202743
-0.53602898 -0.33620167 -0.43471044
-0.54154122 -0.34128743 -0.43044668
-0.54620886 -0.33786958 -0.43281165
-0.55634022 -0.34138495 -0.42890611
-0.53956109 -0.34599072 -0.42784798
-0.54643643 -0.34406152 -0.43313217
-0.55267662 -0.34895173 -0.43152788
-0.55725652 -0.35238087 -0.43136969
-0.56553358 -0.35019508 -0.43151534
-0.53998065 -0.27524114 -0.45088521
-0.54108262 -0.2836349 -0.44895881
-0.54715204 -0.28266823 -0.44805607
-0.55191195 -0.28603962 -0.44876254
-0.56002897 -0.28414747 -0.450654
-0.52267134 -0.29101264 -0.44909421
-0.53325266 -0.29095769 -0.44802159
-0.5417887 -0.29202208 -0.44939971
-0.54589605 -0.29490811 -0.44771302
-0.55011368 -0.29257429 -0.44257084
-0.56089163 -0.29257244 -0.44768277
-0.5249368 -0.30637461 -0.44944209
-0.5335542 -0.30408111 -0.44541392
-0.53903717 -0.3017292 -0.44609326
-0.54840618 -0.30411658 -0.44239366
-0.55346894 -0.29877359 -0.44516012
-0.56108868 -0.30118194 -0.44821706
-0.52757794 -0.31477991 -0.44214848
-0.53494346 -0.30974627 -0.44295427
-0.53805119 -0.31031173 -0.4474923
-0.54723614 -0.31095445 -0.44602004
-0.55386364 -0.31162477 -0.44357258
-0.55738449 -0.31535298 -0.44064447
-0.5649063 -0.31186742 -0.44717783
-0.52604634 -0.31852311 -0.44162408
-0.53228015 -0.3203468 -0.44179818
-0.53966612 -0.31992552 -0.44351241
-0.54730833 -0.31775028 -0.4404729
-0.53386194 -0.32909876 -0.43892068
-0.54171544 -0.32818228 -0.44340971
-0.54757023 -0.33008441 -0.44259614
-0.55296063 -0.33068007 -0.44113821
-0.55854738 -0.33106536 -0.44153753
-0.56774598 -0.3295216 -0.44597328
-0.54315454 -0.34273505 -0.44392785
-0.54590333 -0.33673644 -0.44288889
-0.55192995 -0.34277374 -0.44013524
-0.55973917 -0.34049392 -0.44286573
-0.56766027 -0.34234908 -0.4435955
-0.57158363 -0.33763248 -0.44374922
-0.53835744 -0.34929401 -0.43767267
-0.54572868 -0.34565139 -0.43701217
-0.55338371 -0.34673661 -0.43957794
-0.55957425 -0.34864235 -0.43863383
-0.54935497 -0.27541861 -0.45624134
-0.55420911 -0.27934963 -0.45606101
-0.56043804 -0.27544484 -0.45951179
-0.56422126 -0.27684695 -0.46037343
-0.56992978 -0.27730644 -0.4630059
-0.53796315 -0.28513449 -0.46035707
-0.54424715 -0.28709555 -0.45483199
-0.55334741 -0.28572655 -0.45787689
-0.55871379 -0.28418222 -0.45787239
-0.56518143 -0.28314555 -0.45834827
-0.5718385 -0.28002098 -0.4542248
-0.53989524 -0.29189438 -0.45327753
-0.54766679 -0.29312333 -0.457605
-0.55324149 -0.29437613 -0.45623288
-0.55808908 -0.29433861 -0.4586747
-0.56820542 -0.29187346 -0.45655841
-0.53616577 -0.30759758 -0.45585379
-0.5425216 -0.30519491 -0.45573911
-0.54566371 -0.30426729 -0.45492002
-0.55263239 -0.30383933 -0.45405933
-0.55868661 -0.3033427 -0.45378637
-0.56645745 -0.30358407 -0.45913136
-0.52232301 -0.31416231 -0.45254987
-0.53166723 -0.31341037 -0.45719135
-0.53790957 -0.31130913 -0.45171329
-0.5477038 -0.31321377 -0.4537102
-0.55336607 -0.31231502 -0.45409778
-0.55900455 -0.31098804 -0.45459312
-0.56349814 -0.30941784 -0.45452157
-0.52722019 -0.32190049 -0.44981271
-0.54012406 -0.3202036 -0.44853395
-0.54823178 -0.32370844 -0.45178673
-0.55398458 -0.3244397 -0.45256186
-0.55890858 -0.32499075 -0.45310271
-0.54459852 -0.33021659 -0.44862276
-0.55342758 -0.33049932 -0.44942597
-0.56247389 -0.33347267 -0.4533321
-0.56738061 -0.33411878 -0.44771132
-0.55237168 -0.34035286 -0.44638416
-0.56060976 -0.34257469 -0.44684464
-0.56588501 -0.34026137 -0.44993424
-0.55518121 -0.28025463 -0.46736529
-0.56044233 -0.27826303 -0.46786922
-0.56784999 -0.27594396 -0.46764171
-0.57156193 -0.27546662 -0.46771461
-0.57981604 -0.27507174 -0.46369314
-0.54806423 -0.28579327 -0.46509498
-0.55072051 -0.28846058 -0.46777698
-0.56043404 -0.28680119 -0.46836227
-0.56594932 -0.28856719 -0.46817619
-0.57273954 -0.28486612 -0.46819597
-0.58078671 -0.28443608 -0.47016349
-0.54824829 -0.29690522 -0.46538898
-0.55579346 -0.29499483 -0.46136728
-0.5586943 -0.29451311 -0.46622348
-0.56608576 -0.2960484 -0.46556634
-0.5721314 -0.29594171 -0.46946552
-0.57923192 -0.29352838 -0.46734226
-0.53107131 -0.30131358 -0.46050301
-0.54110008 -0.30373421 -0.46136379
-0.54526269 -0.30895346 -0.46424168
-0.55288875 -0.30512613 -0.46527225
-0.55962235 -0.30424967 -0.46486053
-0.56565028 -0.30388176 -0.46513751
-0.57027107 -0.30545142 -0.46122476
-0.53338432 -0.3167339 -0.46091545
-0.54101145 -0.31265843 -0.46183285
-0.54758412 -0.31595227 -0.45922923
-0.55294871 -0.31488574 -0.46264428
-0.55984408 -0.31369787 -0.46277416
-0.56708938 -0.31435925 -0.4623844
-0.58216113 -0.31106803 -0.46626356
-0.54595464 -0.32205379 -0.45839298
-0.55431074 -0.32281637 -0.46189082
-0.55994183 -0.32347029 -0.45972919
-0.56371146 -0.31961495 -0.46234214
-0.57168746 -0.3269769 -0.46036795
-0.5801366 -0.32341087 -0.46356681
-0.56121302 -0.32907373 -0.4610711
-0.56758994 -0.33367905 -0.46143085
-0.57196116 -0.33283091 -0.45897323
-0.56127161 -0.33968043 -0.45568573
-0.56720954 -0.34109515 -0.45746535
-0.57320523 -0.34155843 -0.45942542
-0.57962674 -0.26892579 -0.47956386
-0.5529843 -0.28015077 -0.4785547
-0.56176442 -0.27603924 -0.4744027
-0.56557357 -0.27948976 -0.47681218
-0.5705232 -0.27550113 -0.47670999
-0.55956739 -0.28734455 -0.47725415
-0.56620103 -0.28662294 -0.47435361
-0.57187831 -0.28590751 -0.47889841
-0.54745799 -0.29954463 -0.47345626
-0.55111396 -0.29308838 -0.47398904
-0.55739683 -0.30074811 -0.47458702
-0.56539357 -0.29624468 -0.47448152
-0.57251841 -0.29716706 -0.47538021
-0.57661247 -0.29691485 -0.47553688
-0.54676783 -0.30651504 -0.47625786
-0.55445302 -0.30749854 -0.47024503
-0.56049943 -0.30674863 -0.47291076
-0.56642473 -0.30720794 -0.4732495
-0.55488652 -0.31376365 -0.4695878
-0.56053603 -0.3164719 -0.47372276
-0.5675112 -0.31377727 -0.47342724
-0.57377326 -0.31678203 -0.47384882
-0.55251539 -0.32711262 -0.46751806
-0.55969882 -0.32435387 -0.47059172
-0.56729364 -0.32418087 -0.47191691
-0.57738793 -0.3246401 -0.47299895
-0.58603835 -0.32410768 -0.47300991
-0.55533236 -0.33205125 -0.4664188
-0.56598616 -0.33322883 -0.46681035
-0.57358193 -0.33227494 -0.46811992
-0.58102506 -0.33378187 -0.46991083
-0.58552325 -0.33287624 -0.46812683
-0.59149039 -0.33369744 -0.47284698
-0.56830567 -0.27245387 -0.48944724
-0.57349837 -0.26996827 -0.48929709
-0.5802384 -0.27173474 -0.48778981
-0.58602875 -0.26848543 -0.49080387
-0.59447962 -0.27176291 -0.48895541
-0.56130469 -0.27885908 -0.4865714
-0.56771284 -0.27882892 -0.48571828
-0.57285476 -0.27821326 -0.48534054
-0.57954609 -0.27984509 -0.48475671
-0.58497292 -0.28155014 -0.48698601
-0.55273813 -0.29124618 -0.48470482
-0.56721228 -0.28758568 -0.48210731
-0.57266086 -0.29231414 -0.48510125
-0.57879704 -0.28773484 -0.48502272
-0.58703446 -0.28534141 -0.48734918
-0.55422282 -0.2972177 -0.48149505
-0.56127971 -0.29669133 -0.48169044
-0.56542569 -0.29790887 -0.48511279
-0.57327533 -0.29890156 -0.4830249
-0.57724279 -0.29628775 -0.4847303
-0.55528283 -0.30633542 -0.4822197
-0.56030172 -0.30788627 -0.48143256
-0.5651229 -0.30796507 -0.48111063
-0.5728873 -0.30692911 -0.48208997
-0.58101314 -0.3066321 -0.48482674
-0.55998528 -0.3178516 -0.48137674
-0.56742686 -0.31793752 -0.48092091
-0.57337236 -0.3174839 -0.48235771
-0.57958806 -0.3150588 -0.48327148
-0.56133771 -0.32682738 -0.47742775
-0.56407106 -0.32812315 -0.47997478
-0.57242221 -0.32447204 -0.48046082
-0.57950634 -0.32623133 -0.47776046
-0.59544325 -0.32705978 -0.48130772
-0.57757777 -0.33508724 -0.48010808
-0.58693516 -0.33512166 -0.47774369
-0.56796288 -0.2725887 -0.49573126
-0.5750134 -0.27188671 -0.49903756
-0.58129901 -0.27181178 -0.49748677
-0.58574462 -0.27081788 -0.49594846
-0.59252226 -0.27421534 -0.50073045
-0.59827191 -0.27048388 -0.50029695
-0.56818283 -0.28254914 -0.49489054
-0.57347345 -0.28189063 -0.49528852
-0.58029389 -0.28053129 -0.49719846
-0.58602071 -0.28271365 -0.49512011
-0.59188187 -0.28039435 -0.49551105
-0.55859607 -0.28632593 -0.49543351
-0.56729728 -0.28945419 -0.49649549
-0.57516289 -0.28758991 -0.49442235
-0.57900357 -0.29075575 -0.49382085
-0.5834859 -0.29184693 -0.49673069
-0.56224775 -0.30093771 -0.49122566
-0.57267737 -0.29895198 -0.49319771
-0.57956094 -0.2988978 -0.49175861
-0.58608401 -0.29764721 -0.49519819
-0.56476998 -0.30627969 -0.48778462
-0.57249302 -0.30835038 -0.49020439
-0.5802837 -0.30984598 -0.49273184
-0.58508199 -0.30901796 -0.49267626
-0.56765169 -0.31862077 -0.48778886
-0.57336986 -0.31545666 -0.48979425
-0.57900709 -0.31958193 -0.49131685
-0.5867328 -0.31820455 -0.49119693
-0.56833935 -0.32378578 -0.48738116
-0.58069104 -0.32456547 -0.48885483
-0.58618248 -0.32621607 -0.48846361
-0.60053265 -0.32922006 -0.4897449
-0.57947779 -0.3327744 -0.48657298
-0.58781612 -0.26418811 -0.50521386
-0.59253818 -0.26311344 -0.50755924
-0.59966457 -0.2636354 -0.50662166
-0.58055162 -0.27317339 -0.50328612
-0.58695596 -0.27244455 -0.50514382
-0.59358859 -0.27318084 -0.5064764
-0.60818923 -0.26980817 -0.50851917
-0.57502776 -0.2822803 -0.50760573
-0.58061963 -0.28312606 -0.50253266
-0.58600307 -0.28278854 -0.50311977
-0.59276664 -0.28275469 -0.50563258
-0.59813797 -0.28290707 -0.50544435
-0.56935096 -0.29514253 -0.50040329
-0.57374269 -0.29248524 -0.50034004
-0.58063525 -0.28932637 -0.50196999
-0.58653092 -0.2915113 -0.50202763
-0.59129769 -0.29153904 -0.50059319
-0.59738165 -0.29234713 -0.50231588
-0.61146832 -0.28697267 -0.50742012
-0.56828856 -0.29860634 -0.50209558
-0.57327569 -0.29783344 -0.50270337
-0.5799498 -0.29910231 -0.50236118
-0.58620578 -0.29940385 -0.50276941
-0.57146704 -0.31190911 -0.50012511
-0.57923222 -0.30962318 -0.4993909
-0.58632088 -0.30912182 -0.50180542
-0.59142601 -0.3093842 -0.5014931
-0.6002847 -0.31014651 -0.49884802
-0.5718202 -0.31588838 -0.49718225
-0.580935 -0.31844813 -0.49845299
-0.58755422 -0.31996173 -0.50157714
-0.59888202 -0.32174954 -0.50111103
-0.58223861 -0.32699594 -0.49500889
-0.5895499 -0.32418138 -0.50087368
-0.59370595 -0.32675487 -0.49836612
-0.60407394 -0.32727206 -0.50030679
-0.58887726 -0.26585472 -0.51551771
-0.59246492 -0.2669192 -0.51473987
-0.59794682 -0.26486713 -0.5163818
-0.6049912 -0.26555255 -0.51617312
-0.61304152 -0.26846337 -0.51916683
-0.58688015 -0.27831882 -0.51531798
-0.5930106 -0.27319381 -0.51662368
-0.59880722 -0.27302176 -0.51458722
-0.60525507 -0.27353403 -0.51599723
-0.61054856 -0.27278876 -0.51723629
-0.58243316 -0.28466377 -0.50949842
-0.58557743 -0.28477216 -0.51425052
-0.59344935 -0.28277335 -0.51337934
-0.59930116 -0.28145963 -0.51588082
-0.60404021 -0.28642732 -0.5168103
-0.61327672 -0.28694814 -0.51776242
-0.58023441 -0.2948969 -0.51064301
-0.58743179 -0.29386586 -0.51042897
-0.59274417 -0.29136753 -0.51227909
-0.60102445 -0.2909295 -0.51409614
-0.60441631 -0.29319978 -0.51310712
-0.57885015 -0.30157784 -0.5091601
-0.58619845 -0.30035636 -0.51079237
-0.59295225 -0.30374512 -0.50945002
-0.59871745 -0.30076244 -0.51189339
-0.6071139 -0.30001682 -0.51180571
-0.57190841 -0.31126493 -0.50895536
-0.5794245 -0.31212094 -0.50894558
-0.58585876 -0.31007227 -0.51068729
-0.59293336 -0.31176493 -0.50921071
-0.59906161 -0.31041127 -0.50911129
-0.60628039 -0.30737188 -0.51142263
-0.61408055 -0.31458333 -0.50940502
-0.58138084 -0.31848219 -0.50647289
-0.59308344 -0.31961712 -0.50728738
-0.5987826 -0.32095993 -0.51124698
-0.60764921 -0.323892 -0.50888151
-0.5922429 -0.32665905 -0.50350821
-0.59222215 -0.25958443 -0.52517402
-0.59342861 -0.26607963 -0.52401829
-0.60019451 -0.26810068 -0.52470499
-0.60551035 -0.264833 -0.52536398
-0.61310607 -0.26519141 -0.5252496
-0.6208083 -0.26630527 -0.52815306
-0.58816355 -0.27641365 -0.5228337
-0.59420419 -0.27342409 -0.52495569
-0.60023212 -0.27551323 -0.52551591
-0.606516 -0.27702144 -0.52491271
-0.61413699 -0.2756308 -0.52631766
-0.61736566 -0.27390853 -0.52735692
-0.62603074 -0.27543181 -0.52761346
-0.58863264 -0.28179884 -0.52126217
-0.59231663 -0.28331363 -0.52212191
-0.60045666 -0.28401744 -0.52186781
-0.606511 -0.28403848 -0.52585059
-0.6121152 -0.2816 -0.52269417
-0.61845547 -0.28495827 -0.52562064
-0.58214664 -0.29334366 -0.52021754
-0.58777529 -0.2936593 -0.51828086
-0.59260356 -0.29261774 -0.52067828
-0.60089499 -0.29451737 -0.52314276
-0.60583436 -0.29453158 -0.52164513
-0.61116183 -0.29108375 -0.52378929
-0.58939421 -0.29941231 -0.51906753
-0.59309697 -0.30359381 -0.52295786
-0.59963816 -0.30182442 -0.52016801
-0.60427642 -0.30468076 -0.5223425
-0.61227596 -0.30459726 -0.52399731
-0.58923465 -0.31660137 -0.51581502
-0.59325713 -0.30990911 -0.51765436
-0.60026121 -0.31034586 -0.52099705
-0.60637403 -0.31177902 -0.51957834
-0.61579388 -0.31493837 -0.52254915
-0.61924189 -0.31608236 -0.52077502
-0.5909403 -0.31917354 -0.51698524
-0.60182518 -0.32038036 -0.51764339
-0.60535872 -0.32060441 -0.51662701
-0.60479832 -0.26174235 -0.53717756
-0.61967027 -0.25760368 -0.53676689
-0.62665647 -0.25793478 -0.53709131
-0.63209999 -0.25727606 -0.53810191
-0.60623807 -0.26610661 -0.5349251
-0.61329025 -0.26647466 -0.53316975
-0.61888677 -0.26786423 -0.53550351
-0.60128528 -0.2765851 -0.53386903
-0.60548341 -0.27416435 -0.53107691
-0.61385173 -0.27595997 -0.53364009
-0.61872941 -0.27373287 -0.53702575
-0.59752989 -0.28438416 -0.53250545
-0.6056127 -0.28486505 -0.53094506
-0.61252713 -0.28495693 -0.53348297
-0.61922926 -0.28650776 -0.53235197
-0.62772447 -0.28742236 -0.53431946
-0.60168356 -0.29449326 -0.53056669
-0.6073088 -0.29612279 -0.53093451
-0.61121798 -0.29362911 -0.52916241
-0.60222489 -0.30602416 -0.53355908
-0.60717058 -0.30359036 -0.52757907
-0.61268109 -0.30551806 -0.53010446
-0.6172958 -0.3027288 -0.52955163
-0.59651256 -0.31001359 -0.52488095
-0.60712337 -0.3149024 -0.52769262
-0.61199462 -0.3129859 -0.53034776
-0.62605864 -0.31356147 -0.53040385
-0.60670775 -0.26137072 -0.54272562
-0.61322141 -0.25797057 -0.54579818
-0.61948448 -0.25903243 -0.54619199
-0.62400198 -0.25840464 -0.54738528
-0.63391078 -0.25645399 -0.54726803
-0.60632676 -0.26997948 -0.5434103
-0.61230206 -0.26856941 -0.54256976
-0.61929405 -0.2669622 -0.54325348
-0.62616181 -0.26825893 -0.54427159
-0.62976658 -0.26420301 -0.54183948
-0.60808343 -0.27815014 -0.54216528
-0.61332321 -0.27728656 -0.54339057
-0.61990654 -0.28142217 -0.54248184
-0.62525612 -0.27776283 -0.54374146
-0.60653281 -0.28788078 -0.5421983
-0.61320299 -0.2856853 -0.53968751
-0.61896443 -0.2873224 -0.53915215
-0.62610018 -0.28414136 -0.54311073
-0.60093492 -0.29413196 -0.53769928
-0.60856193 -0.29240823 -0.54094541
-0.61329955 -0.29527652 -0.54170132
-0.61892998 -0.29753768 -0.5410791
-0.62361169 -0.29981011 -0.54153633
-0.63163066 -0.29380417 -0.54400468
-0.59789312 -0.30587697 -0.53561091
-0.6071583 -0.30260396 -0.5396142
-0.61579591 -0.30545112 -0.53791332
-0.61974221 -0.3038941 -0.53854591
-0.62385547 -0.30728751 -0.53859484
-0.63020194 -0.30576247 -0.54342788
-0.60494208 -0.31283972 -0.53449935
-0.61443621 -0.31372848 -0.53654671
-0.62148899 -0.25425261 -0.55145329
-0.63957614 -0.25157276 -0.55743122
-0.64822644 -0.25277874 -0.55745202
-0.61487955 -0.26227012 -0.55431128
-0.61758316 -0.26395819 -0.54983068
-0.62600189 -0.261462 -0.55395043
-0.63301879 -0.25876659 -0.55614394
-0.63931841 -0.26059121 -0.55663681
-0.61353958 -0.26641124 -0.55773485
-0.61917043 -0.2701059 -0.55233425
-0.62653327 -0.26726568 -0.552481
-0.6335693 -0.26943254 -0.55449319
-0.63801891 -0.27262327 -0.5521785
-0.64431673 -0.27034119 -0.555067
-0.60708147 -0.27672526 -0.55396187
-0.61299253 -0.28248656 -0.5490436
-0.62010819 -0.27999181 -0.55230021
-0.62673056 -0.27760148 -0.55260044
-0.6311456 -0.27879661 -0.5528093
-0.60770917 -0.28658301 -0.55250496
-0.6151967 -0.28924319 -0.55280024
-0.62028664 -0.29058045 -0.5513196
-0.62359685 -0.28681755 -0.55112106
-0.63108885 -0.28759465 -0.54897976
-0.63751405 -0.28981787 -0.54989487
-0.60921997 -0.2976833 -0.55017877
-0.61421973 -0.29680538 -0.54795128
-0.62067437 -0.29926908 -0.54959393
-0.62414628 -0.29706934 -0.54810089
-0.63299054 -0.29810831 -0.55109656
-0.61383253 -0.30807084 -0.54556304
-0.6182552 -0.30827755 -0.5463177
-0.62518859 -0.30591857 -0.55049157
-0.63258708 -0.30422843 -0.54799551
-0.64071006 -0.30387568 -0.54976976
-0.62880272 -0.2553404 -0.56350243
-0.62963903 -0.25609204 -0.56289625
-0.63867891 -0.25218323 -0.5653525
-0.64542413 -0.25091782 -0.56847543
-0.65465283 -0.25296819 -0.56807059
-0.62350357 -0.26121831 -0.56224769
-0.6323514 -0.26197118 -0.56414157
-0.63815594 -0.26137331 -0.56501043
-0.64469117 -0.26047477 -0.56283367
-0.65003365 -0.26119202 -0.56241095
-0.62253851 -0.26691866 -0.55866253
-0.62493187 -0.27234453 -0.56214738
-0.63283461 -0.26994675 -0.56182647
-0.64003241 -0.26961395 -0.56358665
-0.61616963 -0.27811861 -0.55846018
-0.62659842 -0.279302 -0.56299943
-0.63263178 -0.28029951 -0.56280631
-0.63956672 -0.28096658 -0.56342912
-0.60945481 -0.29119942 -0.55550724
-0.62046123 -0.28942621 -0.55881506
-0.62648231 -0.2899192 -0.5614925
-0.63139433 -0.2887114 -0.55999452
-0.63953871 -0.29023087 -0.56095874
-0.62114596 -0.3006112 -0.56003433
-0.62391138 -0.29891461 -0.55419177
-0.63254517 -0.29899198 -0.55770326
-0.63994259 -0.3009409 -0.55854475
-0.65096128 -0.30157694 -0.56134468
-0.61189032 -0.30587253 -0.55701047
-0.62102681 -0.30513734 -0.56154877
-0.63580185 -0.25331819 -0.57495254
-0.63705921 -0.25555241 -0.5746994
-0.64597797 -0.25685316 -0.57270086
-0.65219367 -0.254302 -0.57395226
-0.66454947 -0.2548348 -0.57741201
-0.63162726 -0.26694497 -0.57218456
-0.6381374 -0.26157758 -0.57303393
-0.64539766 -0.26317796 -0.57118082
-0.65162903 -0.26279342 -0.57390207
-0.62553859 -0.26852778 -0.56982976
-0.63319319 -0.27327231 -0.56752622
-0.64026934 -0.27078441 -0.57159007
-0.64580005 -0.275379 -0.56957072
-0.65903258 -0.27243066 -0.56811339
-0.62165415 -0.27646509 -0.56682158
-0.6286884 -0.28267238 -0.57226342
-0.63390863 -0.28265852 -0.56955439
-0.63984072 -0.28041732 -0.56992483
-0.64594603 -0.28151393 -0.57020169
-0.65122551 -0.28280535 -0.57273012
-0.66037798 -0.2842232 -0.5723471
-0.62437856 -0.29034501 -0.56760401
-0.63362819 -0.28903294 -0.56806946
-0.63794518 -0.29237914 -0.56770754
-0.64520305 -0.29118657 -0.56885993
-0.64979571 -0.2921055 -0.56707394
-0.65664214 -0.28672281 -0.57390934
-0.6280759 -0.29725981 -0.564915
-0.63285279 -0.29993376 -0.56547302
-0.63750809 -0.29871231 -0.56934154
-0.64668739 -0.30095607 -0.56762022
-0.64164656 -0.24695215 -0.58416277
-0.65311176 -0.24658269 -0.58669937
-0.66006833 -0.24601331 -0.58422226
-0.63878328 -0.249713 -0.5807845
-0.64605081 -0.2546612 -0.58131355
-0.65198183 -0.25638944 -0.58262396
-0.65969616 -0.25513369 -0.58291006
-0.66475475 -0.25461629 -0.58382946
-0.67388356 -0.25693521 -0.58649826
-0.67941976 -0.25225016 -0.5869261
-0.63501018 -0.26419634 -0.58241349
-0.63718194 -0.26172492 -0.57962072
-0.64672101 -0.26499721 -0.58039194
-0.65339172 -0.26774487 -0.58113557
-0.65966231 -0.2648277 -0.58393312
-0.63941658 -0.27373251 -0.57866716
-0.64648455 -0.27289352 -0.58073622
-0.65508062 -0.2739507 -0.58219415
-0.66092736 -0.27244526 -0.58300483
-0.66589046 -0.27048558 -0.58173317
-0.62976867 -0.28651896 -0.57590836
-0.63970363 -0.28396419 -0.57799089
-0.64757687 -0.28384614 -0.58139187
-0.65207136 -0.28323293 -0.57941699
-0.65889561 -0.28497109 -0.57907218
-0.66383976 -0.28561679 -0.58166116
-0.62490678 -0.29324275 -0.57895339
-0.6399892 -0.29186967 -0.57512414
-0.64304823 -0.29651475 -0.5795604
-0.65133387 -0.29163665 -0.5780257
-0.63465792 -0.29888448 -0.57798564
-0.65416336 -0.24401702 -0.59819126
-0.65912056 -0.24695891 -0.59505314
-0.66539443 -0.24682119 -0.59533399
-0.6708321 -0.24491142 -0.59344435
-0.6795851 -0.24859768 -0.59511173
-0.63901079 -0.25969705 -0.59248376
-0.64752716 -0.25997585 -0.58980727
-0.65288973 -0.25418198 -0.59305179
-0.65894711 -0.25614259 -0.59147459
-0.66464293 -0.255465 -0.59165102
-0.67284834 -0.25423235 -0.59288204
-0.68724436 -0.25719547 -0.59503114
-0.64478636 -0.26586252 -0.59033358
-0.65164971 -0.26709425 -0.59296906
-0.65828347 -0.26748616 -0.58999544
-0.66558111 -0.2655887 -0.59143394
-0.67326552 -0.26736796 -0.59202671
-0.64151967 -0.27408865 -0.59423763
-0.64611197 -0.27428216 -0.5891338
-0.6529606 -0.27477387 -0.59116137
-0.66115803 -0.27404538 -0.58978474
-0.66585803 -0.27513883 -0.58966255
-0.67701513 -0.27269083 -0.59135365
-0.63556695 -0.28624403 -0.58470899
-0.64576453 -0.28292701 -0.58772111
-0.65125811 -0.2841382 -0.5885188
-0.66002011 -0.28433758 -0.58836323
-0.66443288 -0.28522006 -0.58893359
-0.6743964 -0.28141177 -0.59239119
-0.6411671 -0.29250684 -0.58512843
-0.64806145 -0.29404283 -0.5880937
-0.65290642 -0.29451016 -0.58924031
-0.66081351 -0.29199117 -0.59096372
-0.6664539 -0.29160747 -0.58886111
-0.6716314 -0.29082647 -0.58583838
-0.6934104 -0.2400842 -0.6078977
-0.64989102 -0.25110254 -0.60785085
-0.66164017 -0.24940133 -0.60431385
-0.66489083 -0.2479071 -0.60260612
-0.67261344 -0.24685583 -0.60351753
-0.67668444 -0.24964628 -0.60543388
-0.64781004 -0.25875658 -0.59790373
-0.65265822 -0.25806856 -0.59893626
-0.65830964 -0.25897419 -0.60030127
-0.66643965 -0.25760704 -0.60134202
-0.6698541 -0.26191276 -0.60405183
-0.67746919 -0.25817305 -0.60143375
-0.68295217 -0.25558305 -0.60267746
-0.65173554 -0.26504123 -0.60024786
-0.66041714 -0.26526392 -0.60201788
-0.66518551 -0.268729 -0.6006664
-0.67414552 -0.26362389 -0.60408241
-0.68286216 -0.2705968 -0.59991568
-0.64563024 -0.27529573 -0.60027868
-0.65305942 -0.2761921 -0.59889859
-0.66058666 -0.27552852 -0.59977114
-0.66551048 -0.27700478 -0.59989643
-0.67071939 -0.27858132 -0.59912694
-0.67696971 -0.27427471 -0.59656471
-0.64184356 -0.28334343 -0.59661931
-0.64842492 -0.28894573 -0.60123974
-0.65273929 -0.28421459 -0.59904259
-0.66000116 -0.28814268 -0.60190076
-0.66533768 -0.28227025 -0.59890795
-0.67259079 -0.28593108 -0.59641993
-0.6559158 -0.29272333 -0.59271884
-0.67883873 -0.29086769 -0.59676927
-0.66861892 -0.2421073 -0.61288851
-0.67896569 -0.24033707 -0.61619854
-0.68618739 -0.24030358 -0.61549288
-0.65921879 -0.25224671 -0.61470175
-0.67269206 -0.25187457 -0.6115576
-0.68028367 -0.24870193 -0.61368477
-0.68697131 -0.24992584 -0.61405164
-0.6650815 -0.25699428 -0.61117327
-0.67379165 -0.25760055 -0.61112511
-0.6774199 -0.25789863 -0.60974342
-0.68314588 -0.2602036 -0.61083347
-0.66063535 -0.26827699 -0.60909748
-0.66569436 -0.26830721 -0.61016464
-0.67426771 -0.26611748 -0.60829717
-0.67843002 -0.26872584 -0.60889226
-0.68614978 -0.26759887 -0.61422509
-0.64812022 -0.28044283 -0.60852963
-0.66092479 -0.27405837 -0.60517931
-0.66777194 -0.28218096 -0.61125481
-0.67257285 -0.27643737 -0.60891956
-0.67927212 -0.27710479 -0.60750329
-0.68620592 -0.27517211 -0.60711908
-0.65885115 -0.28415108 -0.60590255
-0.66651237 -0.28602761 -0.60508728
-0.67433983 -0.28640643 -0.60851985
-0.68366277 -0.28755477 -0.60563344
-0.66883349 -0.23752621 -0.62402445
-0.67508513 -0.24286452 -0.62268233
-0.67976445 -0.23931694 -0.62175411
-0.68906093 -0.24061695 -0.62273467
-0.69176817 -0.24237084 -0.6226567
-0.69791168 -0.23808271 -0.62284118
-0.66592187 -0.25298738 -0.62310994
-0.67140687 -0.25262907 -0.62560445
-0.68007201 -0.25149471 -0.62041771
-0.68426704 -0.25202835 -0.62344557
-0.69249779 -0.25003043 -0.62331402
-0.6990037 -0.25371575 -0.62515259
-0.67901379 -0.26016665 -0.61984497
-0.68387395 -0.25529563 -0.62004203
-0.69389856 -0.25846323 -0.62290967
-0.65583038 -0.26473957 -0.61625159
-0.66525984 -0.26881838 -0.61666727
-0.67320383 -0.26930702 -0.61874545
-0.6802187 -0.26927245 -0.61827952
-0.68455189 -0.26579872 -0.6194458
