# .PCD v0.7 - Point Cloud Data file format
VERSION 0.7
FIELDS x y z
SIZE 4 4 4
TYPE F F F
COUNT 1 1 1
WIDTH 1420
HEIGHT 1
VIEWPOINT 0 0 0 1 0 0 0
POINTS 1420
DATA ascii
-0.62186921 0.41698232 -2.6628141
-0.64799714 0.42096892 -2.6665869
-0.6541276 0.42195371 -2.6600816
-0.68173671 0.46102944 -2.6773419
-0.580639 0.45576894 -2.6824102
-0.58839995 0.4544014 -2.6800106
-0.59700429 0.45397031 -2.681145
-0.60125077 0.45396349 -2.6773193
-0.60939753 0.45431137 -2.6787474
-0.61676478 0.45613059 -2.6819322
-0.62438112 0.45471644 -2.6747622
-0.6323154 0.4543131 -2.6788907
-0.64179802 0.45044941 -2.675663
-0.68117356 0.45571926 -2.6781502
-0.68942642 0.45942169 -2.6768169
-0.14134185 0.44138402 -2.6866832
-0.54897851 0.44191721 -2.682632
-0.56352144 0.44454151 -2.6828642
-0.56722206 0.44753495 -2.6795695
-0.59105635 0.44584671 -2.6736019
-0.59471637 0.44166178 -2.6752918
-0.6118539 0.44550955 -2.6793768
-0.61305481 0.44029737 -2.680135
-0.63620085 0.44970959 -2.6804593
-0.64319706 0.44616532 -2.6760879
-0.65884316 0.44688708 -2.676353
-0.66993785 0.44868737 -2.6756186
-0.69114637 0.44293457 -2.6738679
-0.13521583 0.4317373 -2.6860821
-0.14273797 0.43101931 -2.6867576
-0.15120366 0.43618894 -2.6837981
-0.53749609 0.43880671 -2.6799881
-0.55174685 0.4389295 -2.6797512
-0.56087244 0.43076614 -2.6797831
-0.5664975 0.43117204 -2.6746955
-0.59041643 0.43753591 -2.67996
-0.59462309 0.43417776 -2.6770687
-0.60368973 0.43733644 -2.6751418
-0.60900968 0.43636936 -2.6767817
-0.61693722 0.43508369 -2.6801755
-0.62013304 0.43627939 -2.6745913
-0.62851602 0.43659893 -2.6792874
-0.63710022 0.43331397 -2.6752696
-0.64553952 0.43470106 -2.6746104
-0.65743327 0.43566233 -2.676841
-0.66325909 0.43235385 -2.6749554
-0.66952211 0.43532354 -2.6734753
-0.677939 0.43482 -2.6760406
-0.68460625 0.43773061 -2.6757452
-0.13542943 0.42232975 -2.6833689
-0.54904789 0.42214012 -2.6796875
-0.56129211 0.42553911 -2.6767433
-0.57474607 0.43029344 -2.6763785
-0.58233625 0.42919415 -2.6731515
-0.58931673 0.42699939 -2.6731992
-0.59879613 0.4223192 -2.6735511
-0.61000085 0.42707732 -2.6762145
-0.62245244 0.42697707 -2.67926
-0.63665491 0.42667952 -2.6700706
-0.64602256 0.4307718 -2.6779923
-0.65483296 0.42876005 -2.6740932
-0.67912823 0.42583573 -2.6699398
-0.13859759 0.4157334 -2.6838307
-0.56301153 0.41390017 -2.6753228
-0.56612039 0.41941673 -2.6767235
-0.59028536 0.41926369 -2.6768067
-0.5946219 0.4196623 -2.6762497
-0.60342932 0.41856214 -2.6755047
-0.60845709 0.42143941 -2.6717715
-0.53142214 0.45788512 -2.6943498
-0.59678191 0.45901799 -2.6861029
-0.60083175 0.46205363 -2.6903317
-0.6064654 0.46020788 -2.6881742
-0.62167799 0.4627068 -2.6893606
-0.67605019 0.46151134 -2.6838853
-0.70517027 0.46338186 -2.6880744
-0.1266536 0.4459314 -2.70012
-0.14075929 0.44543132 -2.6982887
-0.15486498 0.44493121 -2.6964579
-0.54680288 0.45416906 -2.6907041
-0.55682826 0.44909924 -2.6900504
-0.56112355 0.45187569 -2.6875343
-0.56951445 0.45723885 -2.6886415
-0.57360643 0.44839177 -2.6910312
-0.58783627 0.45606101 -2.6897991
-0.59292305 0.45437589 -2.6883693
-0.60277617 0.45488688 -2.6909211
-0.60796553 0.4546648 -2.6909349
-0.61470002 0.4529646 -2.6851082
-0.62352324 0.45092681 -2.6873348
-0.63266861 0.45194536 -2.6891475
-0.64103836 0.45593649 -2.6890604
-0.65818846 0.45489711 -2.6863375
-0.66802645 0.45338655 -2.6885438
-0.12849927 0.44006848 -2.6931322
-0.14137208 0.43793842 -2.6931653
-0.15249695 0.43866742 -2.6927998
-0.1540062 0.43654335 -2.6978512
-0.57038897 0.44485763 -2.6870246
-0.57303065 0.4414008 -2.6859405
-0.58316195 0.44407505 -2.6872892
-0.58682144 0.44611108 -2.6891377
-0.59512818 0.44314942 -2.6876099
-0.60353345 0.44421476 -2.6872082
-0.61622143 0.44602901 -2.6870155
-0.62846708 0.4446958 -2.6838677
-0.65912777 0.44815803 -2.6881404
-0.66016179 0.4444603 -2.6872175
-0.66906261 0.4466832 -2.6817937
-0.68701243 0.44567096 -2.6898155
-0.12860475 0.42905328 -2.6924341
-0.13773163 0.42732608 -2.6973169
-0.14180461 0.42905265 -2.6966169
-0.54393625 0.43625557 -2.691129
-0.55356115 0.43246794 -2.6862397
-0.56097186 0.43222132 -2.6881566
-0.57713455 0.43112716 -2.6813953
-0.58084363 0.43056408 -2.6808975
-0.58965993 0.43613684 -2.685595
-0.59799314 0.43022221 -2.6861446
-0.60842592 0.43718764 -2.6862054
-0.62957597 0.43440408 -2.6859181
-0.63698953 0.43818453 -2.6888545
-0.64084625 0.43215701 -2.6812603
-0.65347964 0.4300307 -2.6862278
-0.66517121 0.4390063 -2.6822066
-0.69005346 0.43651435 -2.6880608
-0.13758132 0.4185425 -2.687201
-0.14918949 0.4227019 -2.6941411
-0.15371335 0.41973698 -2.6914494
-0.55983317 0.42734596 -2.683249
-0.5682022 0.42681152 -2.6885705
-0.57304794 0.4286809 -2.6877878
-0.58082265 0.42542362 -2.6861885
-0.58989495 0.42584333 -2.6849241
-0.60141081 0.42434371 -2.6833088
-0.60890174 0.42622691 -2.6834919
-0.61604798 0.42490345 -2.6819959
-0.62603128 0.42827848 -2.6807833
-0.65764952 0.42531952 -2.6834815
-0.66926187 0.42893869 -2.685703
-0.13669915 0.41217759 -2.6937768
-0.57423359 0.4163413 -2.6823769
-0.13905457 0.40092921 -2.6899688
-0.14306843 0.40085825 -2.6858313
-0.13832639 0.38362226 -2.6886084
-0.52739525 0.46206293 -2.7049298
-0.54176241 0.46218666 -2.7046909
-0.57116616 0.46166751 -2.7005813
-0.57459301 0.45917115 -2.6987226
-0.58247995 0.46072936 -2.6994622
-0.59146017 0.46397957 -2.701668
-0.6015144 0.4615905 -2.6990049
-0.60840124 0.46227515 -2.6959522
-0.6195401 0.46331912 -2.6972928
-0.64066368 0.46337521 -2.6964202
-0.69224334 0.46549609 -2.6962838
-0.69682455 0.46414959 -2.6967776
-0.14115311 0.44576648 -2.702359
-0.15711069 0.44642395 -2.7025692
-0.16299054 0.44448665 -2.7062247
-0.16740119 0.44511101 -2.7092106
-0.53058785 0.45018023 -2.6962469
-0.54643452 0.45066357 -2.7005315
-0.55619609 0.44777915 -2.6975646
-0.56070793 0.45050913 -2.7009788
-0.57051879 0.45000422 -2.6981096
-0.57593358 0.44706401 -2.7010081
-0.58837318 0.45200679 -2.6997893
-0.59303284 0.44981828 -2.7005301
-0.60031098 0.45032579 -2.6953645
-0.61869502 0.45361733 -2.6986368
-0.63340932 0.44863975 -2.701354
-0.65394032 0.4499712 -2.6925652
-0.12437929 0.43648952 -2.7059803
-0.12998882 0.4357864 -2.7077224
-0.14204758 0.43936428 -2.7052686
-0.14977558 0.43999988 -2.7019074
-0.15879168 0.43769231 -2.7033508
-0.52751905 0.44226697 -2.7021163
-0.5581702 0.44336095 -2.7013445
-0.56858885 0.44517171 -2.7016761
-0.57284403 0.44155818 -2.7000082
-0.58710581 0.44134945 -2.6960139
-0.59301955 0.44099012 -2.6943896
-0.60510814 0.44403365 -2.6943078
-0.61580139 0.4462257 -2.6939185
-0.63626033 0.44451088 -2.6981747
-0.64678556 0.44655001 -2.6942859
-0.68272501 0.44656262 -2.6960547
-0.1286737 0.42648649 -2.7018652
-0.13696553 0.43371993 -2.699857
-0.14344639 0.43007612 -2.6995637
-0.14917129 0.43218094 -2.701586
-0.16567931 0.42701119 -2.7055879
-0.54376817 0.43195269 -2.6939931
-0.55250788 0.43058351 -2.6979496
-0.56874216 0.43217188 -2.69558
-0.57640409 0.42986992 -2.6954145
-0.58455008 0.43341154 -2.6986704
-0.58993012 0.42954883 -2.6974084
-0.59657961 0.43391261 -2.6957364
-0.60250825 0.4377068 -2.693856
-0.60806334 0.43440571 -2.6917338
-0.61574823 0.43473834 -2.6950412
-0.63089705 0.42949894 -2.6976182
-0.64065534 0.4321281 -2.6943722
-0.66327453 0.43131652 -2.6907699
-0.67421317 0.43236572 -2.6896639
-0.13974835 0.41853532 -2.7045932
-0.15072726 0.42106995 -2.7058787
-0.1562048 0.4203229 -2.6999671
-0.16381699 0.42162937 -2.7014623
-0.54124284 0.42085204 -2.6954076
-0.55184281 0.42585903 -2.693953
-0.55637717 0.42271861 -2.6988251
-0.56910449 0.42465815 -2.6980438
-0.58380717 0.42271498 -2.6970973
-0.59164125 0.41999412 -2.694798
-0.59656835 0.42406186 -2.6935577
-0.60268879 0.42480755 -2.6909187
-0.61206251 0.42913222 -2.6905439
-0.61288089 0.42184523 -2.6929238
-0.63600433 0.42463461 -2.6940312
-0.64427322 0.42740917 -2.6905499
-0.12872674 0.40690953 -2.698688
-0.13611227 0.4107523 -2.6977677
-0.14297175 0.40708989 -2.6974514
-0.1487202 0.41020158 -2.7007229
-0.55630374 0.41700965 -2.6942468
-0.13744131 0.40095782 -2.7011626
-0.14073554 0.40221038 -2.7033014
-0.15391925 0.40120506 -2.6996412
-0.13170007 0.39369982 -2.6984978
-0.13717607 0.38906753 -2.6966486
-0.14442784 0.39129704 -2.699666
-0.1470388 0.39515758 -2.69449
-0.59292209 0.46485937 -2.7125084
-0.66959178 0.46622747 -2.7112412
-0.6793164 0.46761036 -2.704493
-0.1638335 0.4523201 -2.7158251
-0.54042947 0.45653436 -2.7053952
-0.55035174 0.46382505 -2.7078099
-0.55254197 0.45857012 -2.705447
-0.56778616 0.46074882 -2.7129776
-0.57954526 0.45968115 -2.7104678
-0.58723074 0.4620209 -2.7115028
-0.60541409 0.45796862 -2.7043953
-0.60577345 0.45602158 -2.706778
-0.14149603 0.44311097 -2.7179537
-0.15453161 0.44647112 -2.7146835
-0.17073122 0.44760644 -2.7160552
-0.1757414 0.4505527 -2.7141888
-0.5318625 0.44963929 -2.7083116
-0.54282612 0.45065987 -2.7098792
-0.54816622 0.44971147 -2.7087364
-0.55513012 0.44829223 -2.7060971
-0.57298207 0.45222536 -2.7096477
-0.58214176 0.45289794 -2.706964
-0.58857411 0.44787037 -2.7114122
-0.59807718 0.45508865 -2.7034945
-0.11794928 0.43762955 -2.7095003
-0.12001292 0.4369359 -2.7145255
-0.12956306 0.43473136 -2.7088294
-0.14672437 0.43821108 -2.7147312
-0.16912797 0.44196934 -2.7135425
-0.54139298 0.44530705 -2.7046502
-0.55080497 0.43872961 -2.7096851
-0.56796497 0.44571191 -2.7037482
-0.58160818 0.4393799 -2.7068229
-0.58731014 0.44401193 -2.7084343
-0.60191947 0.43985334 -2.7028949
-0.6805445 0.44482353 -2.7003489
-0.14217584 0.42359078 -2.7134008
-0.15280972 0.42837131 -2.7110605
-0.1564773 0.42670986 -2.7138565
-0.17023475 0.42801458 -2.7130718
-0.51742095 0.43001673 -2.7056298
-0.54147708 0.42957664 -2.7057185
-0.55089581 0.43281761 -2.7057884
-0.55677843 0.43328041 -2.700779
-0.56439131 0.43257669 -2.701328
-0.56957793 0.43429959 -2.7072504
-0.57687116 0.43187144 -2.7051141
-0.58220279 0.43021324 -2.7008936
-0.62783104 0.43422562 -2.7025161
-0.11946485 0.41791636 -2.7109969
-0.12948656 0.41493416 -2.7060297
-0.14297509 0.41791773 -2.709002
-0.1543563 0.42213053 -2.7099793
-0.51009268 0.42519611 -2.7043917
-0.52264911 0.42298055 -2.7046781
-0.53350812 0.42224178 -2.7066405
-0.54183859 0.4250896 -2.7038572
-0.55085897 0.41883075 -2.7064557
-0.5545038 0.42669633 -2.7020283
-0.56408244 0.42036542 -2.706279
-0.5681743 0.42039436 -2.7032602
-0.57655168 0.42064753 -2.7048078
-0.58369321 0.42419931 -2.7025759
-0.59917891 0.42329323 -2.6987505
-0.1261647 0.40459991 -2.7132444
-0.14129873 0.40943095 -2.7137804
-0.15148453 0.40766466 -2.7087688
-0.15936366 0.40679207 -2.7042933
-0.16411407 0.41150382 -2.7054317
-0.12784137 0.39921138 -2.709636
-0.13383731 0.40098247 -2.7078178
-0.14838976 0.3962141 -2.7047372
-0.13663831 0.39398718 -2.70801
-0.14921671 0.39180619 -2.705359
-0.16326602 0.38965663 -2.7107661
-0.54514515 0.46536785 -2.7200415
-0.56173939 0.46617869 -2.7239447
-0.65610629 0.46833426 -2.7183673
-0.11536819 0.44948271 -2.7283065
-0.14493838 0.45065731 -2.7205439
-0.17345467 0.45361528 -2.7277856
-0.52173078 0.46173081 -2.7179732
-0.54854608 0.45893914 -2.7173243
-0.55417287 0.45845604 -2.7153904
-0.56050438 0.4565447 -2.7163992
-0.56927109 0.46172592 -2.7150784
-0.57683748 0.4582701 -2.7195702
-0.57993037 0.46083021 -2.7230604
-0.59285194 0.45842597 -2.7149191
-0.12727268 0.44370234 -2.7196784
-0.15503198 0.44757745 -2.7286439
-0.16580293 0.44564977 -2.7208672
-0.16798742 0.44797885 -2.7237365
-0.53673738 0.44959101 -2.7162132
-0.54129344 0.44711465 -2.7203536
-0.5620656 0.45108289 -2.7162349
-0.56631005 0.45009995 -2.7152615
-0.57360822 0.44545999 -2.7142608
-0.605169 0.44572565 -2.7128792
-0.15251765 0.43190476 -2.7245071
-0.15687117 0.43637821 -2.7201853
-0.16482578 0.43664256 -2.7244179
-0.1761744 0.43733332 -2.7261372
-0.50736731 0.43817982 -2.7134564
-0.5319469 0.43614328 -2.7150407
-0.54696113 0.4386498 -2.7171464
-0.55674893 0.44297007 -2.7194512
-0.56320149 0.44023541 -2.71613
-0.56989413 0.44064838 -2.7159731
-0.57489914 0.44151688 -2.7194364
-0.58095199 0.44348928 -2.7112565
-0.58990514 0.43954697 -2.7113235
-0.11395849 0.42724416 -2.7216446
-0.14414434 0.43010944 -2.7226095
-0.15606016 0.42581853 -2.7167754
-0.16276528 0.42824367 -2.7173922
-0.16962484 0.42793524 -2.7243307
-0.53444254 0.43272799 -2.7172678
-0.53930402 0.4350954 -2.7115328
-0.54518259 0.43382114 -2.7126501
-0.56312901 0.43215185 -2.7142179
-0.5717749 0.42618945 -2.7104034
-0.57463157 0.42936641 -2.7138939
-0.15000334 0.41623214 -2.7203703
-0.15688063 0.41808465 -2.7186656
-0.1662266 0.41351148 -2.7170863
-0.16768378 0.42181146 -2.7182589
-0.5074212 0.41828096 -2.710227
-0.52072155 0.4219026 -2.7119086
-0.53517514 0.42139027 -2.7100322
-0.55249161 0.42068893 -2.7127116
-0.57403684 0.42307234 -2.7158687
-0.59083694 0.42504683 -2.7090425
-0.11547511 0.41000912 -2.7219
-0.15705062 0.41050932 -2.7174909
-0.16459644 0.40584496 -2.7173862
-0.16638365 0.41119412 -2.7213638
-0.12362677 0.39489183 -2.7147596
-0.12988992 0.39045408 -2.7174499
-0.14425126 0.39063588 -2.7162035
-0.14749762 0.39281547 -2.7146013
-0.15380934 0.38719234 -2.7114358
-0.51570553 0.46734095 -2.7300777
-0.53648138 0.46632892 -2.7336946
-0.54803747 0.46762666 -2.7297711
-0.55661392 0.46316886 -2.7273369
-0.56700879 0.46323451 -2.7312016
-0.58205569 0.46544936 -2.7258716
-0.16039616 0.45061705 -2.7332566
-0.1710265 0.45688418 -2.738209
-0.17425391 0.45449167 -2.736026
-0.50728709 0.45369962 -2.7307916
-0.52177012 0.45352355 -2.7306724
-0.53215897 0.45400846 -2.7283335
-0.54134184 0.45527831 -2.7280304
-0.553985 0.45775077 -2.7275219
-0.56366163 0.453224 -2.7233117
-0.56725514 0.45352501 -2.722919
-0.58446157 0.45482224 -2.7238762
-0.59315634 0.46006301 -2.7275584
-0.147883 0.44153309 -2.7299342
-0.1623686 0.44167715 -2.7290313
-0.16891912 0.4424234 -2.7325664
-0.17668836 0.43954736 -2.7330804
-0.51736432 0.44577274 -2.724539
-0.52887833 0.4501518 -2.7266419
-0.54620415 0.44835612 -2.725914
-0.55458432 0.44927624 -2.7246482
-0.564062 0.44435555 -2.7276058
-0.57621968 0.44646609 -2.7269046
-0.10133141 0.43381163 -2.7329504
-0.11616815 0.43849322 -2.7311945
-0.14518626 0.43527886 -2.7353532
-0.1494644 0.43908015 -2.7305996
-0.16149762 0.4382588 -2.7303107
-0.16696113 0.4326278 -2.7326288
-0.17788127 0.43099731 -2.7326481
-0.50720996 0.4337399 -2.7279689
-0.52314436 0.4407793 -2.7303829
-0.52856421 0.43913525 -2.7299025
-0.53652078 0.43770742 -2.7270207
-0.54089516 0.4376969 -2.7268355
-0.55020112 0.43781155 -2.7245233
-0.55567098 0.43834817 -2.7236793
-0.5593456 0.43635961 -2.7222233
-0.56560946 0.43810737 -2.728236
-0.58389562 0.43518251 -2.7202327
-0.10449623 0.42116126 -2.7296746
-0.11898182 0.42130542 -2.7287714
-0.13346741 0.42144954 -2.7278686
-0.147953 0.42159361 -2.7269657
-0.1558983 0.42459056 -2.7279086
-0.18433195 0.42294398 -2.7272408
-0.51748914 0.4258143 -2.7217023
-0.53447044 0.42691696 -2.7204096
-0.54052949 0.4304074 -2.7245269
-0.54685241 0.42674476 -2.7239463
-0.55507934 0.42554042 -2.7187345
-0.56111526 0.42547658 -2.72401
-0.57273507 0.42932275 -2.7231517
-0.13495354 0.420338 -2.7294898
-0.14891195 0.41990933 -2.7270432
-0.1543525 0.41572085 -2.7245674
-0.15954012 0.41800532 -2.7280133
-0.17152247 0.41133523 -2.7318544
-0.18059246 0.41237205 -2.7273941
-0.51735878 0.42359391 -2.7206347
-0.52197808 0.41958624 -2.7266912
-0.15034637 0.40175012 -2.7318063
-0.16997164 0.40286067 -2.7246449
-0.18445677 0.40298548 -2.7244041
-0.19894186 0.4031103 -2.7241633
-0.11601388 0.39857376 -2.7255487
-0.11905181 0.40136606 -2.7258031
-0.13396926 0.40133861 -2.7254167
-0.14497992 0.39822167 -2.7253098
-0.14802298 0.40165421 -2.7239971
-0.16383627 0.39725503 -2.7276754
-0.16768739 0.39679611 -2.7293291
-0.15479755 0.39014849 -2.7230651
-0.52777034 0.47007123 -2.7384906
-0.19462374 0.45716912 -2.7481439
-0.51157534 0.46183068 -2.739114
-0.51921546 0.461007 -2.7418449
-0.52670646 0.46162623 -2.7375472
-0.53581381 0.46065184 -2.7424514
-0.54134166 0.46163294 -2.7353199
-0.54648352 0.46351653 -2.7385974
-0.56289506 0.4654977 -2.7399356
-0.58034146 0.46449345 -2.7388723
-0.16818175 0.45535553 -2.7413058
-0.17550842 0.45495442 -2.7445977
-0.18541153 0.44888836 -2.7428558
-0.190616 0.44966128 -2.7435486
-0.49866259 0.45745727 -2.7389159
-0.50485945 0.45692098 -2.742455
-0.51296246 0.45701814 -2.7364092
-0.52660573 0.45682082 -2.7390239
-0.53316742 0.45525208 -2.7383862
-0.54664379 0.45497683 -2.7370832
-0.55513233 0.45646885 -2.7367163
-0.093630716 0.44079491 -2.7403867
-0.14697443 0.4405452 -2.7457211
-0.15720209 0.44596916 -2.7382069
-0.16653125 0.43931851 -2.7460623
-0.17411593 0.43977797 -2.7394977
-0.19197842 0.43940714 -2.7446835
-0.19404702 0.44572446 -2.7388473
-0.4970305 0.44158223 -2.7371254
-0.51137435 0.44556421 -2.7389503
-0.52061969 0.44471464 -2.734762
-0.5260883 0.44349971 -2.7358243
-0.53328389 0.4480325 -2.7337456
-0.54137695 0.44475684 -2.7342193
-0.54913962 0.44442782 -2.7401648
-0.55509442 0.44401419 -2.7332745
-0.56176794 0.44592971 -2.7361853
-0.56966782 0.44349757 -2.7313824
-0.57589638 0.44504121 -2.7320683
-0.10034335 0.43362826 -2.7441678
-0.14335112 0.43210363 -2.7385845
-0.15986547 0.43378115 -2.7436254
-0.16709881 0.43655419 -2.7377019
-0.17867422 0.43760562 -2.7439291
-0.1806061 0.43253577 -2.7364683
-0.52659607 0.43646786 -2.734684
-0.53353155 0.43634149 -2.7376685
-0.5425455 0.43805441 -2.7344315
-0.5508163 0.43960446 -2.7356279
-0.55323046 0.43869665 -2.7307703
-0.56401604 0.43994752 -2.7329595
-0.12796456 0.42745054 -2.738441
-0.51575232 0.42600659 -2.7365859
-0.51960939 0.42691216 -2.7342222
-0.52967095 0.42810613 -2.7325132
-0.53493738 0.42652184 -2.7353148
-0.53881174 0.43155718 -2.7326877
-0.54692775 0.42417812 -2.7361784
-0.55458564 0.42393517 -2.730217
-0.56064087 0.42636168 -2.732435
-0.15718652 0.41184345 -2.7337158
-0.16541785 0.4134208 -2.7423406
-0.49708483 0.42151856 -2.7338693
-0.15475962 0.4029125 -2.7321677
-0.16851965 0.40759987 -2.7361975
-0.17827061 0.40260401 -2.7397182
-0.15708371 0.3996039 -2.7388248
-0.16248873 0.39851013 -2.738924
-0.16686013 0.39643389 -2.7346413
-0.49300745 0.47061104 -2.750452
-0.50645518 0.47017241 -2.7512047
-0.52204925 0.47169814 -2.7508712
-0.52782255 0.4715316 -2.7482822
-0.53520364 0.47188741 -2.7520661
-0.18207768 0.45894852 -2.7541795
-0.18680777 0.45802778 -2.7577162
-0.51467413 0.46304625 -2.7470016
-0.51981241 0.4613052 -2.748086
-0.54116565 0.46804315 -2.747484
-0.54768479 0.46305001 -2.7470865
-0.55315208 0.46117809 -2.7437634
-0.56646818 0.46346292 -2.7469463
-0.083497532 0.44569087 -2.7543941
-0.087415382 0.45276353 -2.7531402
-0.10189461 0.45294678 -2.7518833
-0.16991024 0.45419097 -2.7487803
-0.1841915 0.44994244 -2.7527063
-0.49346137 0.45421389 -2.7484617
-0.51335758 0.45364949 -2.7473497
-0.52131957 0.45677021 -2.7480772
-0.52687615 0.45411643 -2.7468472
-0.53472352 0.45421344 -2.7482214
-0.55985498 0.45773801 -2.7443542
-0.08931461 0.44356546 -2.7551298
-0.10255225 0.44232053 -2.7539501
-0.10528558 0.44477808 -2.7552791
-0.16531414 0.44168478 -2.7493546
-0.1746189 0.43888801 -2.7517347
-0.18349117 0.44069505 -2.7542653
-0.51465845 0.44327912 -2.7455425
-0.51905179 0.44401851 -2.7454407
-0.52518159 0.4421272 -2.7447646
-0.53386033 0.44398725 -2.7450557
-0.54255277 0.44240499 -2.7450306
-0.10194851 0.43304798 -2.7486537
-0.16011603 0.43491587 -2.7461011
-0.1873239 0.43230706 -2.7494366
-0.51008111 0.43847615 -2.7407179
-0.52167261 0.43429485 -2.7478156
-0.52962309 0.43707657 -2.7431433
-0.55701715 0.43868351 -2.7406421
-0.10247447 0.42219546 -2.7511039
-0.11707748 0.42201805 -2.7509835
-0.16201079 0.42456484 -2.7464333
-0.17125395 0.42632204 -2.7500772
-0.17535527 0.42283154 -2.7483459
-0.18265623 0.42256975 -2.7501564
-0.20469555 0.42095301 -2.7502606
-0.21929859 0.42077547 -2.7501402
-0.51405841 0.42617679 -2.7432644
-0.52208781 0.42823941 -2.7462091
-0.5273993 0.42464757 -2.7422435
-0.53447175 0.42814445 -2.7404966
-0.15609939 0.41482332 -2.7517369
-0.16684225 0.4172121 -2.7446666
-0.17796323 0.41300458 -2.7473998
-0.18247288 0.41299805 -2.7481492
-0.19116817 0.40951905 -2.7493157
-0.1023967 0.40207049 -2.7482576
-0.10542674 0.40456876 -2.7492929
-0.15013026 0.40346828 -2.7446508
-0.16295278 0.40318218 -2.745204
-0.18093973 0.40046987 -2.7469897
-0.50655293 0.47019538 -2.7579479
-0.52195436 0.47137004 -2.7623632
-0.52548414 0.47238901 -2.7627738
-0.56063187 0.46791655 -2.7593224
-0.16441494 0.45882875 -2.7618828
-0.19039306 0.45776519 -2.7669985
-0.21035337 0.46294764 -2.7671001
-0.22453736 0.46251196 -2.7646139
-0.49905032 0.46155694 -2.7583749
-0.50915426 0.46283588 -2.7625506
-0.51244688 0.46355134 -2.7579417
-0.51845795 0.46271938 -2.7588561
-0.52675843 0.46280476 -2.7595167
-0.53751338 0.46558687 -2.7546639
-0.17559119 0.45051032 -2.7595537
-0.18764442 0.45327288 -2.7579279
-0.19317648 0.44926062 -2.7617879
-0.20120925 0.45012292 -2.7572532
-0.48064238 0.45659912 -2.7565382
-0.48545873 0.44813028 -2.759057
-0.50380635 0.45247421 -2.753516
-0.52023458 0.45427904 -2.755446
-0.53291863 0.44882753 -2.7542794
-0.53806084 0.44890782 -2.7595243
-0.55766124 0.44888487 -2.7556975
-0.1758482 0.43751675 -2.7650096
-0.18316305 0.43940079 -2.7642272
-0.19002695 0.43918318 -2.7645302
-0.19433717 0.43663061 -2.7583718
-0.50665343 0.4457233 -2.7581468
-0.51671797 0.44085985 -2.755271
-0.52330256 0.44506681 -2.7572784
-0.52979207 0.4413119 -2.7545879
-0.53366101 0.44136044 -2.7515607
-0.17477292 0.43054971 -2.7572818
-0.1894829 0.43026713 -2.7620754
-0.20280176 0.4319196 -2.7604859
-0.47442225 0.43190852 -2.7523341
-0.4891499 0.43205503 -2.7514162
-0.50362235 0.43185475 -2.7549233
-0.50387758 0.4322015 -2.7504978
-0.51162106 0.43058947 -2.7507386
-0.52059561 0.43686289 -2.7529171
-0.52832389 0.43206826 -2.7538948
-0.55469072 0.42985329 -2.7520726
-0.16834894 0.4202804 -2.7546086
-0.18997353 0.42291877 -2.7600763
-0.20228721 0.4201124 -2.7590213
-0.52889246 0.42600769 -2.7498221
-0.5379709 0.42598501 -2.7479441
-0.54812652 0.42806035 -2.7476704
-0.08529219 0.41272417 -2.7627013
-0.17203555 0.40911794 -2.7521842
-0.18650636 0.40843606 -2.7574387
-0.09384957 0.40519673 -2.7545161
-0.19854604 0.40549436 -2.7580776
-0.51856214 0.47586349 -2.7689393
-0.49978888 0.47098097 -2.7694793
-0.5145638 0.46908295 -2.7647488
-0.52799523 0.46975532 -2.7713783
-0.54045248 0.46898124 -2.7664027
-0.54568988 0.46589148 -2.7716086
-0.1924046 0.45729882 -2.7680659
-0.19444789 0.45793268 -2.7699137
-0.19960913 0.45358214 -2.7711084
-0.5004335 0.46278775 -2.7685177
-0.51373398 0.45770612 -2.7702556
-0.520356 0.45709142 -2.7645795
-0.53807378 0.46295854 -2.763525
-0.086418375 0.45246947 -2.7692411
-0.17979798 0.44925109 -2.7737134
-0.19206242 0.44486493 -2.7688777
-0.20260707 0.44812578 -2.7740507
-0.2120536 0.45057046 -2.7749429
-0.48352921 0.45441279 -2.7678294
-0.49511477 0.45140618 -2.7684515
-0.50222015 0.44948828 -2.7636194
-0.50899547 0.45371106 -2.7660351
-0.51257783 0.44922712 -2.7650647
-0.51794761 0.45131749 -2.7614002
-0.52487463 0.45174092 -2.7684867
-0.54463518 0.4513087 -2.7639041
-0.087113261 0.4372749 -2.7682002
-0.18255512 0.4381246 -2.7656817
-0.18926881 0.43788165 -2.7698305
-0.19616325 0.43841529 -2.768337
-0.47965688 0.43743473 -2.7676325
-0.48652288 0.44504324 -2.7612002
-0.49986094 0.44258302 -2.7651932
-0.50642496 0.43866134 -2.7667232
-0.51537067 0.43901968 -2.7636516
-0.52229023 0.44511473 -2.7643726
-0.52417254 0.44133288 -2.7605839
-0.53375769 0.44609416 -2.7624366
-0.17986912 0.42897838 -2.7706952
-0.18949282 0.42632052 -2.7680528
-0.1979444 0.43267521 -2.7667036
-0.23159383 0.43039253 -2.7720814
-0.50084698 0.42912889 -2.7602878
-0.50645679 0.43364221 -2.7655666
-0.5127809 0.43058166 -2.7621031
-0.51933348 0.43206671 -2.7642443
-0.52453536 0.43284386 -2.7608595
-0.55583674 0.43431944 -2.7640464
-0.56976402 0.43284759 -2.7581239
-0.17498946 0.42304531 -2.7676845
-0.18415266 0.41822058 -2.7696538
-0.084449127 0.40883169 -2.7716455
-0.18691856 0.40882367 -2.7645907
-0.21699357 0.40997365 -2.7694421
-0.2317207 0.41010055 -2.7691975
-0.17261177 0.40492976 -2.7641485
-0.47874776 0.4755908 -2.7816324
-0.49403626 0.4746893 -2.7817276
-0.50527769 0.47603112 -2.7803504
-0.51430744 0.47457004 -2.7765923
-0.54563624 0.47496623 -2.7778103
-0.50070333 0.46656886 -2.7754319
-0.50639439 0.4696503 -2.7776339
-0.51476818 0.46890578 -2.7767181
-0.53457975 0.47276402 -2.7757363
-0.20533404 0.45641392 -2.778681
-0.20806772 0.45773754 -2.7810793
-0.21535519 0.45651528 -2.7835786
-0.23582825 0.45636517 -2.7818527
-0.45691407 0.46203214 -2.7769296
-0.47349545 0.45979884 -2.7791305
-0.4783431 0.45601559 -2.7785718
-0.49409252 0.457771 -2.7768817
-0.50113404 0.45873809 -2.7807002
-0.51242006 0.45884961 -2.7781103
-0.52984554 0.45685071 -2.7798116
-0.54377276 0.45537883 -2.7738895
-0.55298275 0.46245986 -2.7726939
-0.17705956 0.44513965 -2.7763677
-0.18009996 0.44577461 -2.7791145
-0.18938716 0.45180851 -2.7796004
-0.22015134 0.4459087 -2.7816918
-0.22640011 0.44616178 -2.7828982
-0.48069969 0.44556892 -2.7781892
-0.48679921 0.45001987 -2.7785666
-0.50056463 0.44866815 -2.7716618
-0.50943798 0.45142373 -2.7739036
-0.1889303 0.43551275 -2.7794073
-0.2108037 0.44133767 -2.7757883
-0.46356302 0.43542436 -2.776454
-0.50049245 0.43888584 -2.7753174
-0.50637877 0.44069484 -2.7762737
-0.51262903 0.4435288 -2.7712204
-0.52798212 0.43726325 -2.7758908
-0.091503203 0.42809936 -2.7762034
-0.17561176 0.42861181 -2.7757843
-0.18817903 0.43099773 -2.7783506
-0.48273093 0.43322158 -2.7759342
-0.48835671 0.43133625 -2.7757721
-0.4957234 0.43031853 -2.7752061
-0.50058335 0.42802626 -2.7736239
-0.50762188 0.43146455 -2.7724934
-0.51219332 0.42957598 -2.7718372
-0.54180688 0.43392193 -2.7726674
-0.071722999 0.42136037 -2.77806
-0.18844876 0.41680929 -2.7750642
-0.19863406 0.41790304 -2.7787898
-0.20431641 0.41625583 -2.7725658
-0.18825164 0.41173393 -2.7730067
-0.20258915 0.40979493 -2.7732499
-0.22205567 0.47089815 -2.7940025
-0.46780545 0.47466689 -2.7868102
-0.47930264 0.47778395 -2.7918112
-0.49169439 0.47366914 -2.7913127
-0.49900103 0.47726014 -2.790967
-0.50666052 0.47776997 -2.7908213
-0.51966763 0.47654888 -2.7867992
-0.2031353 0.46220195 -2.7957776
-0.20649992 0.46052679 -2.7928474
-0.21703689 0.46132773 -2.7917268
-0.22015284 0.46691188 -2.7916942
-0.44609237 0.46858868 -2.7915699
-0.48573875 0.46649349 -2.7907701
-0.49062818 0.46915239 -2.7877038
-0.49749428 0.4668301 -2.7869663
-0.51121902 0.46696529 -2.7849989
-0.51871896 0.47010502 -2.7858605
-0.52453399 0.46421173 -2.7891624
-0.19683668 0.45395535 -2.7905312
-0.2201792 0.45406798 -2.7924471
-0.22975053 0.45039433 -2.792866
-0.46439725 0.45960552 -2.7884104
-0.47361103 0.46118563 -2.7845938
-0.47802994 0.45273226 -2.7872524
-0.49117699 0.45325166 -2.7882037
-0.50162214 0.45617816 -2.7845945
-0.50669301 0.45747384 -2.7847211
-0.5159182 0.45832255 -2.7857342
-0.18350065 0.44747919 -2.7904181
-0.20202632 0.44294822 -2.7920873
-0.2121003 0.44660091 -2.7854047
-0.4945924 0.4489513 -2.7891936
-0.50308096 0.4445073 -2.7818522
-0.50525975 0.44781926 -2.7844896
-0.52199143 0.44756731 -2.7855532
-0.21237138 0.44173157 -2.7841158
-0.21487625 0.43655288 -2.7867203
-0.49615508 0.44275612 -2.779587
-0.49920958 0.438225 -2.7824049
-0.50755191 0.44407859 -2.7792494
-0.5124557 0.44112748 -2.7811401
-0.18293472 0.42783949 -2.7867746
-0.19723454 0.42740032 -2.7842679
-0.20070167 0.42680365 -2.7871151
-0.20704119 0.42891064 -2.7870107
-0.49157912 0.42905244 -2.7820995
-0.49958 0.42965752 -2.778933
-0.5136534 0.43151072 -2.7783279
-0.5287773 0.43416673 -2.7835755
-0.5481723 0.43430468 -2.780627
-0.17743231 0.4208988 -2.7847559
-0.20415883 0.41555926 -2.7812307
-0.21840128 0.4153527 -2.7891817
-0.17865607 0.4693732 -2.80267
-0.19479634 0.47142234 -2.8008764
-0.20835437 0.46901211 -2.8024251
-0.21693778 0.4732793 -2.8035049
-0.22218297 0.47211668 -2.8038168
-0.46381876 0.47782227 -2.8014781
-0.48733911 0.47557807 -2.7960565
-0.49285513 0.47456682 -2.7985461
-0.49770623 0.47496855 -2.7981637
-0.50523353 0.47221184 -2.7929866
-0.51227838 0.4795889 -2.7943172
-0.5169031 0.47519392 -2.7997172
-0.53126562 0.47429076 -2.795532
-0.20934774 0.45921612 -2.7964163
-0.21477294 0.46074507 -2.797972
-0.21963705 0.46040741 -2.7983015
-0.24786332 0.46250212 -2.8049984
-0.46717459 0.46107617 -2.7950754
-0.48117578 0.46943644 -2.7931356
-0.49312049 0.46536577 -2.7969036
-0.49782738 0.4681648 -2.7972083
-0.19615924 0.45320854 -2.7961619
-0.21262558 0.45372832 -2.8020709
-0.44133565 0.45627418 -2.7948966
-0.45618695 0.45640209 -2.7946496
-0.47248882 0.45796254 -2.7973239
-0.4771075 0.45263815 -2.7905035
-0.48632658 0.45697778 -2.7931285
-0.49340972 0.45644072 -2.7951596
-0.50677389 0.45373604 -2.7906146
-0.51575738 0.45530188 -2.7959046
-0.5186311 0.45518106 -2.7955244
-0.53803468 0.45593533 -2.7925553
-0.19342612 0.44872832 -2.7996535
-0.20731962 0.44649017 -2.7982421
-0.21718422 0.44228384 -2.798377
-0.22511779 0.44312298 -2.8027496
-0.2367738 0.44135484 -2.7951186
-0.46071103 0.44547933 -2.7974486
-0.47407138 0.44736472 -2.794445
-0.48061523 0.44638288 -2.7939942
-0.49040931 0.44511837 -2.7972033
-0.49873194 0.44389471 -2.7905028
-0.50499749 0.44649515 -2.7956753
-0.51030558 0.45033142 -2.7924471
-0.16652742 0.43246949 -2.7949698
-0.20516185 0.43563363 -2.7959406
-0.21593352 0.43391424 -2.7923319
-0.22102956 0.43132266 -2.7934334
-0.24839696 0.4341478 -2.7951977
-0.47117338 0.4383561 -2.7940147
-0.47890055 0.43519196 -2.7930231
-0.48652762 0.438905 -2.7909153
-0.49170312 0.44103667 -2.7959743
-0.50055891 0.43631798 -2.7936389
-0.50327516 0.43827429 -2.7922578
-0.5182687 0.43650487 -2.7874241
-0.52897406 0.43450651 -2.7879074
-0.19334704 0.42826402 -2.7967591
-0.21144868 0.42526793 -2.7918582
-0.22241294 0.42626461 -2.7985005
-0.48341772 0.43000823 -2.7926776
-0.50744456 0.43112123 -2.7887049
-0.2032218 0.41785297 -2.7906036
-0.20700261 0.41770375 -2.7952094
-0.22112614 0.41878051 -2.793452
-0.46735096 0.48038185 -2.80618
-0.47922763 0.48066786 -2.8096611
-0.49209517 0.48128608 -2.8104081
-0.49889305 0.48321891 -2.8048625
-0.51882702 0.4839167 -2.8039479
-0.20059255 0.47002023 -2.8138151
-0.23807646 0.46695375 -2.8099592
-0.47148412 0.47205469 -2.8050725
-0.47972935 0.4728882 -2.8065147
-0.48662242 0.4742628 -2.8118534
-0.50121754 0.47399974 -2.8039618
-0.20856792 0.46558204 -2.8121915
-0.2234132 0.46577001 -2.8109024
-0.22716525 0.46065384 -2.8145163
-0.46005613 0.46295023 -2.8085437
-0.46742332 0.45976463 -2.8031104
-0.4732967 0.46303785 -2.8108256
-0.48207846 0.4623107 -2.8050745
-0.48628035 0.46424419 -2.8085771
-0.49296629 0.46164319 -2.8068173
-0.49832425 0.46787256 -2.8081133
-0.51469827 0.46686882 -2.8012767
-0.20002197 0.45021927 -2.8101416
-0.22127376 0.45504186 -2.8048103
-0.2286568 0.45349708 -2.813782
-0.47777712 0.4537001 -2.8069174
-0.48652646 0.45610228 -2.802562
-0.49250335 0.45786622 -2.8005178
-0.50131297 0.45472601 -2.8004713
-0.52490216 0.45837885 -2.8008294
-0.2086232 0.44518027 -2.8088801
-0.21608953 0.44487321 -2.8099129
-0.22410008 0.44374043 -2.8092444
-0.47653422 0.44439572 -2.8013146
-0.49306315 0.4456901 -2.8057835
-0.49918255 0.44151345 -2.8073153
-0.50877488 0.44163528 -2.8054488
-0.21552643 0.43035227 -2.8052669
-0.22134429 0.43783581 -2.8095338
-0.23546147 0.43121496 -2.8014007
-0.4526777 0.43345279 -2.8065927
-0.48118985 0.43532324 -2.8042729
-0.49399731 0.43640634 -2.8004484
-0.50023317 0.4372232 -2.800616
-0.50442517 0.4335908 -2.8000071
-0.52190739 0.43919179 -2.7971749
-0.21272551 0.47784889 -2.8220522
-0.25024936 0.47911021 -2.8248127
-0.26522684 0.47923926 -2.8245635
-0.42997888 0.48065868 -2.8218248
-0.4546923 0.48471767 -2.8225186
-0.45988294 0.4809472 -2.8187366
-0.47491124 0.48104581 -2.8210778
-0.47583321 0.48156601 -2.819721
-0.48832071 0.47782934 -2.8149049
-0.49136665 0.4841699 -2.8192794
-0.49729767 0.47704634 -2.8213995
-0.50929523 0.48243546 -2.8173409
-0.21734059 0.46541497 -2.8232889
-0.46746108 0.4770605 -2.8149848
-0.47757605 0.47205853 -2.8179357
-0.48740235 0.46723229 -2.8191199
-0.20783733 0.45846757 -2.8242276
-0.22331978 0.45695266 -2.8204312
-0.23540094 0.45834431 -2.8221285
-0.25653884 0.45909342 -2.8213384
-0.26506954 0.46458912 -2.8226399
-0.45933414 0.46257558 -2.8141727
-0.46775576 0.46372366 -2.8147769
-0.47336963 0.46537694 -2.817122
-0.47874856 0.45831028 -2.8154426
-0.49337366 0.46416977 -2.8193591
-0.50741643 0.46268573 -2.8133879
-0.22504555 0.45219448 -2.8232021
-0.44999892 0.45195085 -2.8118691
-0.46432546 0.44856429 -2.8163877
-0.47234595 0.45696533 -2.8172748
-0.47994176 0.4523299 -2.8092694
-0.48530343 0.45124817 -2.812546
-0.49429542 0.45398712 -2.8155863
-0.49913839 0.44947043 -2.8108835
-0.50834036 0.45546675 -2.8104177
-0.21177463 0.44413704 -2.8177443
-0.2654849 0.43796554 -2.8186975
-0.44521442 0.43951401 -2.8157096
-0.45059738 0.43976772 -2.8114932
-0.46019188 0.43964306 -2.8154607
-0.46757025 0.44324917 -2.815275
-0.47230297 0.44367477 -2.8132873
-0.48607165 0.44403183 -2.8106196
-0.49340963 0.44331464 -2.815186
-0.49854648 0.44746593 -2.8093369
-0.50553745 0.44293597 -2.8094344
-0.4685584 0.488902 -2.832782
-0.48120981 0.48540351 -2.8292837
-0.48671541 0.48706478 -2.8262999
-0.25165647 0.47506383 -2.8326576
-0.44553423 0.48187917 -2.8292484
-0.45271358 0.47564089 -2.825803
-0.45804346 0.48219207 -2.8301437
-0.46573558 0.48386568 -2.8312693
-0.469919 0.48284969 -2.8270082
-0.47985348 0.48105055 -2.828212
-0.48263097 0.48042399 -2.8238921
-0.49295238 0.48033449 -2.8278527
-0.23681253 0.46636617 -2.8308735
-0.24010064 0.47265059 -2.8259974
-0.24646753 0.4720796 -2.8288198
-0.25507596 0.47246855 -2.8258736
-0.45028761 0.46892083 -2.8232946
-0.46188331 0.46691003 -2.8281705
-0.46507365 0.4692727 -2.8257427
-0.48310035 0.47063375 -2.8269742
-0.4911229 0.47208807 -2.8293235
-0.49691981 0.46899256 -2.825413
-0.43760413 0.46197668 -2.8293161
-0.44933948 0.46019623 -2.8269143
-0.45835209 0.46048993 -2.8260372
-0.47933099 0.4656539 -2.8253303
-0.49126214 0.46606421 -2.8239443
-0.23568545 0.44679826 -2.8271229
-0.24314575 0.45070624 -2.8275909
-0.45946434 0.4504053 -2.8247304
-0.46269006 0.44888011 -2.8248811
-0.47186169 0.45559803 -2.8207729
-0.47948533 0.45420268 -2.8276479
-0.48624834 0.45145148 -2.8216534
-0.50255281 0.45101058 -2.8273404
-0.22955945 0.43729818 -2.830065
-0.23793252 0.43901765 -2.8248978
-0.24981397 0.44590962 -2.8230062
-0.43847266 0.43815181 -2.8238709
-0.45435637 0.44056368 -2.8200326
-0.45783597 0.44284487 -2.8256028
-0.46414244 0.44473797 -2.8246217
-0.46981558 0.44090676 -2.8230648
-0.4774521 0.44590417 -2.8213773
-0.48486888 0.44660211 -2.8184686
-0.22295669 0.42832589 -2.8277578
-0.23078026 0.43259609 -2.8239601
-0.24475344 0.48226467 -2.8443296
-0.25985965 0.48241499 -2.8433881
-0.27496585 0.48256525 -2.8424461
-0.45563805 0.48616531 -2.8428171
-0.4650324 0.48658404 -2.8375132
-0.47299084 0.48905042 -2.8373187
-0.48089737 0.49001923 -2.8414018
-0.48371974 0.48736984 -2.8335085
-0.23526977 0.47388268 -2.8370333
-0.25738701 0.47875249 -2.8447757
-0.44823092 0.4784607 -2.8406258
-0.46827504 0.4755148 -2.8335707
-0.46953085 0.47900665 -2.8368447
-0.47907254 0.47915164 -2.8409157
-0.23336272 0.46547985 -2.8346732
-0.25546122 0.46403006 -2.8418498
-0.45289099 0.46748108 -2.8381445
-0.45946199 0.46925768 -2.840389
-0.46462271 0.47208637 -2.8326237
-0.47237229 0.46815306 -2.8339257
-0.47975549 0.47043228 -2.8333492
-0.24218464 0.45979226 -2.8375592
-0.25993264 0.46162125 -2.8402922
-0.27503884 0.46177158 -2.8393502
-0.43789789 0.45625171 -2.8368547
-0.45246872 0.45764381 -2.8306963
-0.46394521 0.45873487 -2.8320539
-0.47024459 0.45874596 -2.8322949
-0.49111122 0.46231851 -2.8294587
-0.19548497 0.44872928 -2.8339653
-0.26736739 0.45349562 -2.8339651
-0.43425214 0.44663331 -2.8304205
-0.44793344 0.452254 -2.8366199
-0.45119894 0.45132428 -2.8347821
-0.46031281 0.45174009 -2.8311512
-0.4658668 0.45593265 -2.8291545
-0.46937746 0.44896594 -2.830271
-0.4765451 0.45207927 -2.8319759
-0.48777115 0.45146453 -2.8299317
-0.19958077 0.4402265 -2.8409629
-0.24257469 0.44072485 -2.8375888
-0.253728 0.43673253 -2.8390336
-0.26000562 0.44082755 -2.8371966
-0.44596541 0.44475147 -2.8280263
-0.4650301 0.44215107 -2.8294721
-0.48687637 0.44472975 -2.8295445
-0.46096659 0.49207887 -2.8469086
-0.24126224 0.4838784 -2.8476954
-0.24842443 0.48137572 -2.8537648
-0.28260347 0.48347276 -2.8484976
-0.45146284 0.48724824 -2.8475325
-0.45612139 0.48295876 -2.8435903
-0.46223462 0.48978367 -2.8458543
-0.22707844 0.47689888 -2.850328
-0.25172284 0.47380194 -2.8491676
-0.26379403 0.4750753 -2.8492241
-0.45029604 0.47676176 -2.8449252
-0.45790258 0.47698921 -2.8460293
-0.46468529 0.47835743 -2.8461468
-0.47080642 0.48196453 -2.8422711
-0.47728232 0.47358814 -2.8420761
-0.25252223 0.46239889 -2.8460417
-0.26762792 0.462529 -2.8457906
-0.44312099 0.47090527 -2.8495238
-0.44891867 0.46936071 -2.8457119
-0.4594852 0.47033596 -2.8432519
-0.48258197 0.46556336 -2.8428633
-0.24091068 0.45842439 -2.8458211
-0.25755149 0.45568457 -2.8459647
-0.43783581 0.45455357 -2.8481679
-0.44673091 0.46055749 -2.8455899
-0.45467597 0.46179268 -2.8426566
-0.45527518 0.46220419 -2.8469486
-0.46814427 0.45669463 -2.847419
-0.48666084 0.46234664 -2.8464732
-0.24441145 0.4448368 -2.8454239
-0.43844765 0.45351383 -2.8456397
-0.45213255 0.44944853 -2.8460407
-0.45828471 0.44995129 -2.8430097
-0.47448602 0.44589716 -2.8388836
-0.47826588 0.44869891 -2.8417749
-0.22418892 0.44102168 -2.842814
-0.24057937 0.43774295 -2.8426588
-0.25428528 0.43975118 -2.8418887
-0.26847982 0.4387072 -2.8466845
-0.49371406 0.49574056 -2.8608935
-0.23759857 0.48173088 -2.8647299
-0.27401346 0.4834986 -2.8633378
-0.2793656 0.48108944 -2.8599355
-0.43088046 0.48560333 -2.8576124
-0.44477519 0.48395687 -2.8569496
-0.44901106 0.48135278 -2.8573334
-0.45598042 0.48939043 -2.8545527
-0.46276426 0.48725021 -2.8577864
-0.46937126 0.4852227 -2.8615534
-0.48397586 0.48430428 -2.8572979
-0.24246249 0.47385189 -2.8575852
-0.25204113 0.47370976 -2.8585303
-0.43257517 0.47249255 -2.8601582
-0.45061553 0.4744193 -2.8557429
-0.4782168 0.47572434 -2.8597081
-0.49312404 0.47526655 -2.857095
-0.2768735 0.46210229 -2.8562295
-0.44037411 0.46583569 -2.8565607
-0.4449127 0.46443039 -2.8546815
-0.44942603 0.46454373 -2.8529351
-0.45939097 0.47086114 -2.8560829
-0.4682062 0.46499527 -2.857677
-0.47225371 0.46946207 -2.8549118
-0.4828108 0.46407679 -2.8534212
-0.42926028 0.4556179 -2.8562915
-0.4459621 0.45534751 -2.8509824
-0.4491089 0.45534483 -2.8557889
-0.47762689 0.45525032 -2.8559096
-0.26111251 0.44518799 -2.8595352
-0.42995757 0.44612312 -2.8475657
-0.44954312 0.44968092 -2.8552136
-0.46973658 0.45194373 -2.8551793
-0.43544284 0.49076459 -2.8659129
-0.45125839 0.49059626 -2.8694339
-0.25765726 0.48481962 -2.8701015
-0.26609668 0.48316246 -2.8669472
-0.28141266 0.47812158 -2.8699732
-0.29257807 0.48691991 -2.8661096
-0.43908864 0.48514107 -2.8669813
-0.45476672 0.48614126 -2.865809
-0.4670319 0.48017231 -2.8628471
-0.47301301 0.47999221 -2.8689237
-0.48822021 0.47935995 -2.8670797
-0.49050874 0.48515049 -2.8645201
-0.24418716 0.46921265 -2.8684604
-0.26622012 0.47290114 -2.863441
-0.43135262 0.47544527 -2.8664374
-0.44552195 0.47357985 -2.8670583
-0.45016688 0.47397256 -2.8670528
-0.23170356 0.46533987 -2.8667865
-0.24863815 0.46586981 -2.8680446
-0.29265171 0.46594614 -2.8629873
-0.42241579 0.46075663 -2.8629935
-0.43807131 0.46526965 -2.863595
-0.44630128 0.46385917 -2.86057
-0.45360166 0.46591371 -2.8619325
-0.45924324 0.46663001 -2.8609614
-0.48997802 0.46420336 -2.8613307
-0.26604602 0.45827404 -2.8687978
-0.43772495 0.45870361 -2.8647051
-0.44405162 0.45747331 -2.8622825
-0.46049729 0.45989463 -2.8616481
-0.46240196 0.4546563 -2.8590806
-0.47242075 0.45908862 -2.865484
-0.48762789 0.45845643 -2.8636403
-0.25812557 0.44291496 -2.8623803
-0.27748829 0.44482076 -2.8608143
-0.29272532 0.44497237 -2.8598645
-0.43700004 0.45039096 -2.8576722
-0.45327112 0.45088196 -2.8596058
-0.26702613 0.48642254 -2.8763394
-0.4369179 0.49376735 -2.8780611
-0.44598427 0.49393567 -2.8814402
-0.45047131 0.49142465 -2.8763633
-0.24800816 0.4832308 -2.8760321
-0.25985444 0.47810355 -2.8809283
-0.27385038 0.47716478 -2.8809004
-0.29031515 0.4784891 -2.8782837
-0.29478654 0.48180723 -2.8774078
-0.42759621 0.48572391 -2.8723891
-0.43338847 0.47916213 -2.8786261
-0.43862331 0.47787625 -2.8800066
-0.44264343 0.48316491 -2.8739631
-0.452124 0.48105094 -2.8734753
-0.45835346 0.48530686 -2.8774292
-0.27127948 0.47081023 -2.8750079
-0.42149293 0.47610855 -2.8743625
-0.43374336 0.47221711 -2.8735275
-0.43892327 0.4699834 -2.8738933
-0.45076203 0.47328964 -2.8727407
-0.4648951 0.47188437 -2.8735428
-0.24615991 0.46380281 -2.8721433
-0.26969257 0.45730433 -2.8786275
-0.42916438 0.46635935 -2.8692253
-0.4363527 0.46661404 -2.8738687
-0.44582471 0.46361542 -2.8710842
-0.25991112 0.45717245 -2.8775313
-0.26758265 0.44928196 -2.8741927
-0.27514148 0.45736527 -2.876209
-0.42703617 0.45764455 -2.8704178
-0.43362868 0.45491412 -2.8742146
-0.44409537 0.45627537 -2.872385
-0.46120733 0.45518863 -2.8685842
-0.27581865 0.49429542 -2.8897195
-0.429052 0.49962062 -2.8925476
-0.44214574 0.49561027 -2.8841162
-0.2652266 0.48481628 -2.8923359
-0.2753194 0.48821104 -2.8928931
-0.41994399 0.48698929 -2.8906178
-0.4330827 0.48550284 -2.8896058
-0.43530864 0.49051049 -2.8877473
-0.44604996 0.49145126 -2.8880289
-0.46333963 0.49473616 -2.8862774
-0.31390426 0.48240975 -2.8889837
-0.42424691 0.48016915 -2.8847356
-0.44402301 0.48058936 -2.8844159
-0.46789998 0.47974774 -2.8861449
-0.25767487 0.4698025 -2.8858612
-0.27472708 0.46730745 -2.8894534
-0.28967977 0.46976733 -2.886611
-0.39590198 0.47406361 -2.8845196
-0.42751974 0.47565794 -2.888221
-0.43107808 0.4726741 -2.8867865
-0.46142909 0.47465351 -2.8822575
-0.25687364 0.4596895 -2.886704
-0.26336318 0.46522889 -2.8884151
-0.42083585 0.46326849 -2.8853493
-0.42418039 0.45865864 -2.8843262
-0.43634459 0.46100834 -2.8823159
-0.45267802 0.45843357 -2.8819883
-0.25495946 0.45134655 -2.8822093
-0.26139617 0.45134115 -2.8877468
-0.28826985 0.45280096 -2.8817685
-0.43159589 0.49466512 -2.8945134
-0.4363727 0.49793848 -2.8968225
-0.27663678 0.48876867 -2.9017327
-0.279558 0.49189979 -2.8986576
-0.30290613 0.49204493 -2.8979669
-0.31081867 0.48346263 -2.8969872
-0.32329777 0.48413953 -2.8993425
-0.43601304 0.48812598 -2.8981903
-0.44499749 0.49036369 -2.8932512
-0.44920325 0.49056047 -2.8950803
-0.46202344 0.48463988 -2.8955815
-0.40129778 0.48070779 -2.8974586
-0.41619852 0.4801378 -2.8987579
-0.42515132 0.48251829 -2.892349
-0.43205023 0.48162353 -2.8960609
-0.29788607 0.46521944 -2.8923435
-0.41640344 0.47089663 -2.8912783
-0.42991859 0.46863848 -2.8896215
-0.43697488 0.47366187 -2.8977504
-0.4413631 0.47205979 -2.8926575
-0.45079821 0.47150227 -2.8904459
-0.27497905 0.45633903 -2.8929214
-0.30784875 0.46314809 -2.8964739
-0.42371833 0.46132571 -2.8895674
-0.46142593 0.46355391 -2.892112
-0.24619278 0.4518801 -2.8897204
-0.42081481 0.50297672 -2.9062703
-0.29411638 0.49624455 -2.9126208
-0.30872092 0.49532604 -2.908365
-0.32651532 0.49491003 -2.9110079
-0.40394342 0.49612218 -2.9102867
-0.42142338 0.49698177 -2.906147
-0.42909166 0.49811465 -2.9073169
-0.28273326 0.48643079 -2.9089298
-0.2853947 0.48964283 -2.9094367
-0.29426202 0.49121127 -2.9040499
-0.39508247 0.48725596 -2.9012916
-0.40982693 0.48546144 -2.9041376
-0.41691414 0.4858743 -2.9060717
-0.42571425 0.48580378 -2.9051151
-0.44152087 0.48643214 -2.9044948
-0.30719519 0.47590426 -2.9080055
-0.32597989 0.47378027 -2.9077902
-0.41070521 0.47379017 -2.9060693
-0.42401016 0.47674215 -2.9028912
-0.4351165 0.4775947 -2.9030046
-0.30446464 0.46791199 -2.9024074
-0.31544048 0.46574828 -2.907203
-0.4055731 0.46884024 -2.903065
-0.41301343 0.46877193 -2.9058735
-0.41396815 0.46635607 -2.9000251
-0.29296643 0.46150336 -2.8998766
-0.31340018 0.50305331 -2.9207745
-0.40567449 0.50528073 -2.9184215
-0.42831102 0.5018301 -2.9136798
-0.29521251 0.49450728 -2.9179387
-0.41192433 0.4977617 -2.9162202
-0.41907161 0.49114788 -2.9173832
-0.42160717 0.4913303 -2.9193926
-0.43408859 0.4958446 -2.9171309
-0.29588801 0.48844326 -2.9185607
-0.3000553 0.48855937 -2.9141817
-0.30966353 0.48667017 -2.9205844
-0.32885426 0.48508072 -2.9137688
-0.42487535 0.48480725 -2.9142981
-0.43102035 0.48279473 -2.9100475
-0.45741749 0.48385045 -2.9131057
-0.29529497 0.47561318 -2.9151735
-0.40627232 0.47885594 -2.9096465
-0.41316947 0.47879118 -2.9111226
-0.41513586 0.47433227 -2.9172254
-0.45048738 0.47620726 -2.9121556
-0.29814568 0.47067472 -2.9104328
-0.31093076 0.47101918 -2.9163754
-0.40846726 0.46722922 -2.9143147
-0.43705305 0.46869802 -2.910686
-0.39810094 0.49992123 -2.9235246
-0.40107849 0.50161529 -2.9294143
-0.40907285 0.50472343 -2.9293745
-0.42333359 0.50301254 -2.9272692
-0.3117995 0.48900914 -2.9268725
-0.43273711 0.49232516 -2.9274712
-0.43505707 0.49465585 -2.9211445
-0.44482902 0.4964042 -2.9243212
-0.39719763 0.48453376 -2.9262927
-0.41795802 0.48791718 -2.9290795
-0.42361739 0.48186362 -2.9220502
-0.3112646 0.47830105 -2.9279671
-0.39564863 0.48045489 -2.9203594
-0.42924356 0.47392219 -2.9216719
-0.39401489 0.5097515 -2.9389958
-0.41964129 0.50798446 -2.9359891
-0.31996068 0.50588453 -2.9367306
-0.33344048 0.50453007 -2.9381118
-0.40260479 0.50606894 -2.9416368
-0.41744974 0.50095963 -2.9352806
-0.42158085 0.50049949 -2.9362774
-0.43088916 0.49858195 -2.9316874
-0.32044566 0.48892236 -2.9355998
-0.3294912 0.48926789 -2.9397328
-0.40284926 0.49567002 -2.9349906
-0.41147977 0.4943248 -2.93151
-0.41579062 0.49249974 -2.9350379
-0.4228279 0.49500218 -2.9396758
-0.38652509 0.48110077 -2.9364085
-0.39930871 0.47957742 -2.9356508
-0.41433117 0.48081234 -2.9351604
-0.421258 0.48300344 -2.9303174
-0.3266879 0.4702149 -2.9359629
-0.39653906 0.47548413 -2.9333186
-0.40354574 0.47333717 -2.9325073
-0.4105435 0.47635853 -2.9339643
-0.41866836 0.4778268 -2.9369848
-0.37970603 0.51228738 -2.9524472
-0.40018713 0.50942039 -2.9428248
-0.41134322 0.51136541 -2.9498131
-0.41408655 0.51070589 -2.9458792
-0.39220259 0.49594265 -2.9472399
-0.39715105 0.49856365 -2.9497814
-0.40833506 0.50266588 -2.9446893
-0.31972563 0.49360916 -2.9433613
-0.3351492 0.4929114 -2.9492218
-0.39806089 0.49175048 -2.9438629
-0.41203138 0.48897433 -2.9438751
-0.32968163 0.47824043 -2.9430575
-0.38830191 0.4788402 -2.9470415
-0.40293851 0.48314479 -2.9416916
-0.44290537 0.48395681 -2.9410999
-0.33132511 0.47608009 -2.946146
-0.43874612 0.47733715 -2.9412432
-0.32436475 0.50667864 -2.957303
-0.34549254 0.50609195 -2.9602511
-0.35446757 0.51101041 -2.9594195
-0.37086287 0.51137751 -2.9578006
-0.38906956 0.50511527 -2.9537857
-0.39490029 0.50936472 -2.9571104
-0.31946072 0.50004852 -2.9550841
-0.38990834 0.49560729 -2.9581144
-0.39629605 0.50067866 -2.9597631
-0.41291869 0.49767911 -2.9518807
-0.35144287 0.4899202 -2.9543035
-0.37251157 0.48734564 -2.9572587
-0.38986748 0.49332109 -2.9547274
-0.3963699 0.49280599 -2.9575636
-0.40862259 0.49221894 -2.9493475
-0.32130152 0.47836286 -2.9576092
-0.38645142 0.48516789 -2.9498925
-0.34258977 0.51557446 -2.9712427
-0.38597828 0.51497865 -2.9697909
-0.40304521 0.51474631 -2.9636371
-0.40795898 0.51627553 -2.9634085
-0.33896896 0.51169538 -2.9644809
-0.34623909 0.50610036 -2.9697328
-0.40080366 0.50408232 -2.9635026
-0.33757058 0.50018275 -2.968925
-0.38169152 0.49721065 -2.9681997
-0.39145285 0.50145733 -2.9645724
-0.40300947 0.50035626 -2.9640853
-0.41093326 0.49923199 -2.961411
-0.33823314 0.49126628 -2.9689627
-0.35183778 0.48884654 -2.9609342
-0.35315365 0.48685077 -2.9632103
-0.38791224 0.48536465 -2.9652328
-0.39557829 0.48536557 -2.9672298
-0.38006473 0.4821963 -2.9607642
-0.39834809 0.48370287 -2.9605143
-0.40696895 0.48229432 -2.9612515
-0.3472499 0.51164865 -2.9758842
-0.37251669 0.51748347 -2.9782724
-0.38671324 0.51648456 -2.9745891
-0.3947472 0.51812714 -2.9774613
-0.33542916 0.50669777 -2.9739852
-0.34455967 0.50584656 -2.9759552
-0.38575456 0.50435084 -2.9793634
-0.39081764 0.50089836 -2.9772615
-0.34318548 0.48979852 -2.9718173
-0.38644913 0.5215081 -2.9912856
-0.37807691 0.51773781 -2.9820535
-0.4167279 0.51324689 -2.981482
-0.42072561 0.51088846 -2.9816935
-0.36749107 0.50601089 -2.9884083
-0.33190623 0.49004868 -2.9846361
-0.35513523 0.48802865 -2.982332
-0.40949342 0.52083868 -2.99278
-0.36048591 0.51396453 -3.0004117
-0.35421821 0.50727987 -2.9960997
