# .PCD v0.7 - Point Cloud Data file format
VERSION 0.7
FIELDS x y z
SIZE 4 4 4
TYPE F F F
COUNT 1 1 1
WIDTH 1420
HEIGHT 1
VIEWPOINT 0 0 0 1 0 0 0
POINTS 1420
DATA ascii
0.33608416 -0.39632109 -1.2540243
0.32884929 -0.39621848 -1.2545108
0.32209191 -0.39610529 -1.253581
0.31463522 -0.39636943 -1.255697
0.30801526 -0.39761734 -1.2549181
0.30027258 -0.39735755 -1.2548541
0.29447901 -0.39747813 -1.2549903
0.28843173 -0.39733303 -1.2540816
0.28155634 -0.39690399 -1.2551203
0.27490062 -0.39689624 -1.2555779
0.2675052 -0.39579302 -1.2551844
0.26100934 -0.39634183 -1.2548791
0.25447807 -0.39592835 -1.2559659
0.24689704 -0.39580441 -1.2546552
0.23825337 -0.39628023 -1.2533671
0.23233767 -0.397259 -1.256983
0.22557434 -0.39503169 -1.2535361
0.21869035 -0.39539781 -1.2554895
0.21315543 -0.39574242 -1.2548584
0.20514774 -0.39693764 -1.2528801
0.19775845 -0.39713973 -1.2566004
0.19002925 -0.39545375 -1.2510419
0.35271865 -0.39935535 -1.2528191
0.34664375 -0.39921826 -1.2516396
0.34326199 -0.39983791 -1.2550293
0.33460802 -0.4001025 -1.2539406
0.32675856 -0.40024513 -1.2525408
0.32026479 -0.40096986 -1.2545462
0.31581852 -0.40044352 -1.2501509
0.30639321 -0.40008387 -1.2539842
0.30118373 -0.39964855 -1.2531493
0.29577747 -0.39973396 -1.2526798
0.28820372 -0.40021229 -1.2540843
0.28172809 -0.40084821 -1.2520454
0.27473581 -0.39977974 -1.2529498
0.26732671 -0.4001835 -1.2524657
0.25328004 -0.3997905 -1.2515471
0.24709089 -0.3998414 -1.252882
0.24047926 -0.39989352 -1.251981
0.23335555 -0.40023845 -1.2519354
0.2126862 -0.39936292 -1.2522576
0.50593871 -0.16169785 -1.3027756
0.51352715 -0.16990606 -1.2987766
0.50807917 -0.1697073 -1.3002038
0.51234174 -0.22182633 -1.2938644
0.43242091 -0.38277203 -1.2708057
0.46443161 -0.3917194 -1.2706819
0.45638585 -0.38707864 -1.2701666
0.45035249 -0.38901085 -1.2679108
0.44273612 -0.38850421 -1.2666343
0.4365983 -0.38901183 -1.2698916
0.42887804 -0.38891411 -1.2686493
0.42240483 -0.38899326 -1.2667397
0.4170742 -0.38938007 -1.2672979
0.41060928 -0.38839209 -1.2682376
0.40368313 -0.38791877 -1.2663857
0.3968991 -0.38915437 -1.2685813
0.3897239 -0.38878334 -1.2675081
0.38293779 -0.38919476 -1.266969
0.37563896 -0.38873902 -1.2673094
0.36961943 -0.39027572 -1.2676224
0.36157605 -0.38984588 -1.2688844
0.35542932 -0.38954705 -1.2685663
0.34792405 -0.39069176 -1.268792
0.3344855 -0.39015567 -1.2677554
0.32696861 -0.39005563 -1.265138
0.26228771 -0.39002672 -1.2669579
0.25743538 -0.38900349 -1.2610923
0.22095551 -0.38851908 -1.2662138
0.45629659 -0.39765561 -1.2656049
0.45226908 -0.39402491 -1.2664331
0.44326696 -0.39374498 -1.2674501
0.43759862 -0.39499241 -1.2673124
0.42428461 -0.3941738 -1.2626843
0.41741937 -0.39178646 -1.2655321
0.41059166 -0.39179495 -1.2643168
0.40368107 -0.39291739 -1.2669305
0.3970378 -0.39245498 -1.2651672
0.38990757 -0.3948909 -1.266156
0.38326383 -0.39238843 -1.2669857
0.37574238 -0.39398748 -1.2655085
0.36857438 -0.39382073 -1.2640637
0.36278132 -0.39343512 -1.2650942
0.35524958 -0.39443487 -1.2648003
0.34910789 -0.39428914 -1.265394
0.34194505 -0.39473975 -1.2658106
0.334234 -0.39426714 -1.2651968
0.32781875 -0.39474472 -1.2640233
0.32127851 -0.39473915 -1.2639951
0.31418008 -0.39461267 -1.2649455
0.30839887 -0.39532506 -1.2647375
0.30131078 -0.39520514 -1.263908
0.29448614 -0.39541131 -1.2655251
0.28774628 -0.39552897 -1.2645702
0.28100461 -0.39509264 -1.2632643
0.27420068 -0.39475763 -1.2634028
0.26728091 -0.39497742 -1.2630928
0.2603263 -0.39541137 -1.2618797
0.25266865 -0.39549863 -1.2624623
0.24659234 -0.39666456 -1.2637191
0.24104306 -0.39611965 -1.2627856
0.2342793 -0.39702386 -1.2630812
0.22631468 -0.39756954 -1.2610202
0.21966527 -0.39579099 -1.2631674
0.21195014 -0.39578849 -1.2620864
0.20494452 -0.39470732 -1.2603821
0.51636958 -0.15940873 -1.3132454
0.50526422 -0.16440189 -1.3061742
0.50071555 -0.16427764 -1.3071468
0.50635332 -0.17160787 -1.3061197
0.50214154 -0.17614609 -1.310166
0.5160709 -0.18128429 -1.3060228
0.51155162 -0.18136325 -1.3102125
0.50607997 -0.18191348 -1.306764
0.50189352 -0.18393657 -1.3099811
0.50932127 -0.19749823 -1.3064464
0.5092954 -0.2070426 -1.3048975
0.50365227 -0.20175192 -1.3083065
0.50927901 -0.22371271 -1.3044028
0.49724612 -0.23644538 -1.3041115
0.44301718 -0.38172174 -1.2785753
0.43810353 -0.38376495 -1.2807738
0.42418393 -0.38258299 -1.2821009
0.40339595 -0.38282391 -1.2782871
0.37760884 -0.38362968 -1.2813601
0.29720318 -0.37678891 -1.2766867
0.46453455 -0.38927206 -1.2786962
0.4561359 -0.38789612 -1.2747267
0.44946566 -0.38796866 -1.2763737
0.44312739 -0.3886255 -1.2781599
0.43676439 -0.38874471 -1.2786851
0.42985982 -0.38787076 -1.2770239
0.42364791 -0.38777548 -1.2770038
0.41592544 -0.38830787 -1.2766124
0.40889135 -0.38792992 -1.2764115
0.40229529 -0.38930061 -1.2766391
0.39625308 -0.38826323 -1.2765598
0.38903543 -0.38844919 -1.2771004
0.38215166 -0.38906628 -1.2759011
0.37471357 -0.38842249 -1.2765727
0.3683278 -0.38951159 -1.2747684
0.36244768 -0.38910189 -1.27634
0.35642126 -0.38979435 -1.2747545
0.34878173 -0.39069438 -1.2775965
0.34160024 -0.39141068 -1.2753738
0.33581984 -0.38945729 -1.2775607
0.32936385 -0.3902002 -1.2759087
0.323167 -0.38845682 -1.2767211
0.31496331 -0.39056772 -1.2765027
0.30872047 -0.38948268 -1.2786885
0.30238563 -0.38949198 -1.2775577
0.29519147 -0.39075428 -1.2777176
0.28753409 -0.38907799 -1.2768745
0.28239775 -0.39018235 -1.2768986
0.2749877 -0.39088172 -1.2759748
0.26725513 -0.3911998 -1.2746134
0.25806564 -0.39066046 -1.2723967
0.25297633 -0.39036739 -1.274775
0.24948937 -0.39097482 -1.2759197
0.24063367 -0.38447583 -1.2716697
0.22918876 -0.38734031 -1.2779775
0.22063956 -0.38733694 -1.2737218
0.21305174 -0.38623431 -1.273561
0.37460595 -0.39300323 -1.2732512
0.36853942 -0.39338475 -1.2714834
0.36299464 -0.39330709 -1.273698
0.35599044 -0.3943615 -1.2746572
0.34881294 -0.39432666 -1.2746227
0.34369123 -0.39475521 -1.2761389
0.33601597 -0.39450139 -1.2744789
0.32768005 -0.39455009 -1.273752
0.32135171 -0.39374694 -1.273086
0.31574884 -0.39505979 -1.2721704
0.30831417 -0.39482594 -1.27425
0.30138502 -0.39479959 -1.2728063
0.29406425 -0.39446968 -1.273116
0.28857213 -0.39440092 -1.2726225
0.28149059 -0.3945021 -1.2731658
0.27444717 -0.39448717 -1.2704949
0.26822534 -0.39512646 -1.274361
0.26127237 -0.39502341 -1.2723459
0.25483778 -0.39547196 -1.2719607
0.24793062 -0.39483199 -1.2723991
0.23972169 -0.39571398 -1.2705299
0.2334141 -0.39530915 -1.2730742
0.22676131 -0.3948257 -1.2714391
0.20735624 -0.39552087 -1.270848
0.19988777 -0.39413744 -1.2677889
0.19021659 -0.39379671 -1.2674351
0.51134616 -0.17913078 -1.3146524
0.50589186 -0.17267798 -1.3178875
0.51132023 -0.18871264 -1.3130975
0.50508881 -0.18563387 -1.3144816
0.49737585 -0.18853612 -1.3118869
0.52023232 -0.19273338 -1.3152953
0.51280034 -0.19283678 -1.3140646
0.5052855 -0.19416797 -1.313127
0.49734989 -0.19811797 -1.3103317
0.51936203 -0.20361213 -1.3132821
0.51211506 -0.20362511 -1.3131919
0.50648111 -0.2050112 -1.3145577
0.49927849 -0.20854858 -1.3139577
0.51859277 -0.21453267 -1.3112699
0.51210326 -0.21361139 -1.3117762
0.50600874 -0.21546018 -1.3139244
0.51610184 -0.22137073 -1.3138492
0.50410879 -0.22471638 -1.3097347
0.5089516 -0.2310949 -1.3119475
0.47112393 -0.3816883 -1.2903956
0.46444485 -0.38288984 -1.291759
0.45803916 -0.38247317 -1.2878472
0.4499563 -0.38325536 -1.2874146
0.4443433 -0.38425016 -1.2912496
0.43737024 -0.38370657 -1.2888572
0.43083593 -0.38037586 -1.2874379
0.42372781 -0.38310936 -1.2880672
0.41638371 -0.38244593 -1.2882658
0.40991512 -0.38301218 -1.2870408
0.40389389 -0.38212603 -1.28903
0.39682654 -0.38316345 -1.287721
0.38927463 -0.38293505 -1.2885069
0.38280261 -0.38498712 -1.2893788
0.37666291 -0.38263276 -1.2880545
0.37274438 -0.38254777 -1.2884188
0.35562786 -0.38480932 -1.2890707
0.31202069 -0.38279325 -1.2893951
0.2471056 -0.37934265 -1.2841492
0.47460467 -0.38981467 -1.2896765
0.47139874 -0.38861376 -1.290256
0.46407485 -0.38756776 -1.2862184
0.456911 -0.38610172 -1.2842776
0.45075229 -0.38692504 -1.2863653
0.44410765 -0.38787875 -1.2858533
0.43696299 -0.38817751 -1.2860471
0.43041644 -0.38735235 -1.2864804
0.42268327 -0.38741416 -1.2851802
0.41747683 -0.38689542 -1.2866603
0.40998438 -0.38774654 -1.2837647
0.40272874 -0.38720545 -1.2870473
0.39624277 -0.38722426 -1.2854009
0.38990685 -0.38756043 -1.2852719
0.38275513 -0.38891619 -1.2840687
0.37706345 -0.38830042 -1.2862935
0.36901781 -0.38863599 -1.2852515
0.3625074 -0.38799644 -1.2860516
0.35597929 -0.38913929 -1.2840844
0.34943578 -0.38837644 -1.286405
0.34238803 -0.38916373 -1.285975
0.33580449 -0.38944101 -1.2843986
0.32934684 -0.38970107 -1.2860914
0.32183844 -0.3906852 -1.2838622
0.31611061 -0.38970655 -1.2832155
0.30987883 -0.39082319 -1.2835408
0.30198434 -0.39068675 -1.2864137
0.29505888 -0.39037243 -1.2836537
0.28891599 -0.39087516 -1.284879
0.28207269 -0.39132965 -1.2848697
0.27562058 -0.39002037 -1.2830398
0.2679854 -0.39076024 -1.2841504
0.26068005 -0.39016554 -1.2841818
0.25360087 -0.39008927 -1.284711
0.24754652 -0.38995516 -1.2830943
0.24130878 -0.38939732 -1.2847315
0.23466639 -0.39036384 -1.2839781
0.22688466 -0.38957694 -1.2815691
0.21396354 -0.38799113 -1.2829682
0.20701261 -0.38845009 -1.2846339
0.32653388 -0.39347339 -1.280939
0.31526348 -0.39440227 -1.2812489
0.30764064 -0.39436626 -1.2815068
0.30174839 -0.39411154 -1.2826469
0.29450384 -0.39361209 -1.2814878
0.28734893 -0.39484078 -1.2799432
0.28128296 -0.3945699 -1.2796959
0.27545175 -0.39405984 -1.280609
0.27111158 -0.39459428 -1.2789235
0.50078148 -0.16332205 -1.3246322
0.51318932 -0.21321213 -1.3256156
0.51704884 -0.22440572 -1.3217547
0.51315463 -0.22308719 -1.3241456
0.5039072 -0.22211459 -1.3182826
0.49880657 -0.22294447 -1.323251
0.51486826 -0.23349303 -1.3149182
0.5074867 -0.23278256 -1.319342
0.49935189 -0.23399632 -1.3167244
0.50826353 -0.2426026 -1.3164016
0.49669346 -0.24171284 -1.314909
0.51017469 -0.24913983 -1.3187331
0.50112832 -0.24803039 -1.3128688
0.51014847 -0.25883701 -1.3171593
0.4701038 -0.37565109 -1.3007462
0.48258829 -0.384478 -1.3010855
0.47640857 -0.38321045 -1.2988319
0.47015479 -0.38218117 -1.2940453
0.46460661 -0.38244617 -1.2964005
0.45601416 -0.38272852 -1.294753
0.45003203 -0.38158464 -1.2976142
0.44316426 -0.38392538 -1.2974201
0.4368417 -0.38279122 -1.2984911
0.43088174 -0.38306466 -1.2981236
0.42387742 -0.3820681 -1.2974262
0.4166255 -0.38296986 -1.2957945
0.41013506 -0.38267434 -1.2944306
0.40433809 -0.38227984 -1.2974406
0.39758784 -0.38295704 -1.2966362
0.39010349 -0.38343495 -1.2959826
0.38371316 -0.38320196 -1.2968878
0.3772682 -0.38307363 -1.2958866
0.36858898 -0.38315898 -1.2968088
0.36285836 -0.38423532 -1.2964361
0.35433733 -0.38345787 -1.2987318
0.348465 -0.38631648 -1.2996004
0.33526835 -0.38483495 -1.2982076
0.32624775 -0.3828311 -1.2949519
0.32111844 -0.38429219 -1.2985517
0.31579646 -0.38456726 -1.2958786
0.30038005 -0.38467652 -1.2987238
0.29654127 -0.38507235 -1.2975444
0.29165384 -0.38509026 -1.2979751
0.28469402 -0.385337 -1.2970716
0.263677 -0.38434947 -1.2924775
0.25477505 -0.38178626 -1.295387
0.24815096 -0.3822096 -1.2953674
0.24285112 -0.38183826 -1.2937245
0.48307064 -0.39285135 -1.2994807
0.47657758 -0.39160371 -1.2945731
0.45556918 -0.38828537 -1.2955803
0.45014879 -0.39022106 -1.2957953
0.44260862 -0.38719195 -1.2965789
0.43539584 -0.3867619 -1.2921202
0.42596 -0.38828805 -1.2953516
0.41755602 -0.38789809 -1.2960477
0.40405262 -0.38686278 -1.2938013
0.39543948 -0.38730448 -1.293632
0.38873887 -0.38750491 -1.2932785
0.3833434 -0.38760525 -1.293301
0.37611526 -0.38752764 -1.294616
0.37069207 -0.38760981 -1.2955441
0.36284491 -0.38830251 -1.2946044
0.35591722 -0.38774982 -1.2941949
0.34902397 -0.38797221 -1.2936625
0.34243202 -0.3886227 -1.2942401
0.335917 -0.38933185 -1.2930797
0.32934162 -0.38885584 -1.2945452
0.32242206 -0.38912892 -1.2931761
0.31555378 -0.38926736 -1.2931495
0.30853319 -0.38971487 -1.2923487
0.30154487 -0.38966775 -1.2932335
0.2951158 -0.38916349 -1.2942171
0.28849542 -0.38934004 -1.2923176
0.28119659 -0.38866451 -1.2938683
0.27531636 -0.38898256 -1.2932149
0.26791501 -0.38981983 -1.2910129
0.26141763 -0.38935536 -1.2919067
0.25464684 -0.38967249 -1.2915012
0.24866538 -0.38855445 -1.2934252
0.24244404 -0.38946134 -1.2916051
0.23566513 -0.38871229 -1.2921823
0.22937286 -0.39031482 -1.2914379
0.22137007 -0.39068344 -1.2926035
0.21299057 -0.39111859 -1.2908467
0.50808883 -0.2140016 -1.33059
0.51188076 -0.22527774 -1.3271407
0.5038023 -0.2264075 -1.3265733
0.52137762 -0.23172085 -1.3330318
0.51181763 -0.23536731 -1.3257067
0.51907718 -0.24551997 -1.3243945
0.51347113 -0.24463831 -1.3254416
0.50518042 -0.24566928 -1.3245245
0.51515299 -0.25373518 -1.3251342
0.50794959 -0.25366354 -1.3246851
0.50074619 -0.25359187 -1.3242362
0.51187408 -0.26206732 -1.3247159
0.50316405 -0.25799876 -1.3218284
0.50071138 -0.26350737 -1.32276
0.50527018 -0.26923093 -1.3258557
0.51269239 -0.27931586 -1.3244777
0.50530952 -0.27940556 -1.3244166
0.50265002 -0.29443765 -1.3237029
0.50984782 -0.30446547 -1.3226715
0.51334393 -0.3376821 -1.3169007
0.47638622 -0.36776179 -1.3119694
0.48333651 -0.37669802 -1.3069761
0.47729659 -0.37644818 -1.3087436
0.47079054 -0.3764936 -1.3084353
0.46470192 -0.37467611 -1.3109069
0.45596007 -0.37625557 -1.3118308
0.44982877 -0.37664115 -1.3100441
0.43767735 -0.37639296 -1.3095446
0.43004003 -0.37699839 -1.3090737
0.42423847 -0.37688363 -1.3084041
0.41771284 -0.37666324 -1.304873
0.40911719 -0.37517446 -1.3106445
0.4062258 -0.37528226 -1.3069508
0.39012718 -0.37664378 -1.3094054
0.25547314 -0.37499803 -1.3089504
0.24677055 -0.37553012 -1.3048607
0.4911651 -0.38749158 -1.3110225
0.48448661 -0.38267374 -1.3087339
0.47849572 -0.38245746 -1.3077424
0.47160384 -0.38103214 -1.30645
0.4651849 -0.38092411 -1.3053477
0.45792103 -0.38277495 -1.3066831
0.45200199 -0.38301402 -1.306692
0.44460496 -0.38291472 -1.3055658
0.43828681 -0.38265598 -1.305661
0.43033534 -0.38154566 -1.3060199
0.42372003 -0.38150832 -1.3055377
0.41637641 -0.3806622 -1.3052012
0.41017741 -0.38175064 -1.3062615
0.40312323 -0.38060981 -1.3067615
0.39666843 -0.3809855 -1.3064066
0.3900609 -0.38239217 -1.3061874
0.38236141 -0.38161188 -1.305757
0.37666857 -0.38296816 -1.3051064
0.36996156 -0.38255298 -1.3051664
0.36301282 -0.38395649 -1.306321
0.35667077 -0.38404158 -1.3053746
0.34931576 -0.38380587 -1.3051889
0.34240761 -0.38485104 -1.3048226
0.33539116 -0.38470197 -1.3047943
0.32895249 -0.38533562 -1.3042085
0.32208335 -0.38360715 -1.3065701
0.3151716 -0.38415194 -1.3058606
0.30866519 -0.38399765 -1.3046395
0.30132931 -0.38488275 -1.3035066
0.29517409 -0.38517708 -1.3048098
0.28885603 -0.3854295 -1.3045785
0.28234455 -0.3853552 -1.304698
0.27458191 -0.38571137 -1.3049716
0.26789919 -0.38324672 -1.3049601
0.26098242 -0.38355696 -1.3033133
0.25415438 -0.38433176 -1.3043894
0.24767716 -0.38110828 -1.3029727
0.24152088 -0.38515401 -1.3035283
0.23359279 -0.3859354 -1.3050551
0.22798312 -0.38403928 -1.3021823
0.48215008 -0.39107376 -1.3047014
0.40047908 -0.38726771 -1.3010644
0.37385252 -0.38815778 -1.3001804
0.36734894 -0.38890225 -1.3013796
0.36113 -0.38929334 -1.2995675
0.35725132 -0.38775784 -1.3002921
0.34892231 -0.38756365 -1.3025872
0.341544 -0.38855952 -1.3018231
0.334851 -0.3876988 -1.3029319
0.32989889 -0.38864288 -1.3041207
0.32380739 -0.38754332 -1.3001286
0.315249 -0.3875351 -1.3025208
0.30869374 -0.38768914 -1.3010578
0.30213401 -0.38808233 -1.3010124
0.29518011 -0.38811073 -1.3020679
0.28754076 -0.38879794 -1.3010055
0.28301236 -0.38986975 -1.2982635
0.27318239 -0.38849837 -1.3012842
0.2685768 -0.38904974 -1.301483
0.26092455 -0.3889392 -1.3023471
0.25471875 -0.38986805 -1.3000656
0.24646695 -0.3894057 -1.2992444
0.22486624 -0.38913226 -1.2973691
0.51344168 -0.27299896 -1.3320804
0.50479913 -0.27564821 -1.3321456
0.50476402 -0.28564522 -1.3306571
0.51199162 -0.2957145 -1.3296216
0.51772225 -0.33030283 -1.3294208
0.50440323 -0.32800302 -1.3282448
0.51024306 -0.34045625 -1.3278453
0.48780534 -0.37091655 -1.323119
0.47297469 -0.37078875 -1.3228725
0.45779055 -0.37107372 -1.3217869
0.49923345 -0.37707937 -1.3222245
0.49058867 -0.37640661 -1.3187646
0.48434806 -0.37599301 -1.3186457
0.47917262 -0.37524515 -1.3195932
0.47248834 -0.37464613 -1.3178589
0.46421143 -0.37790197 -1.3163148
0.45826048 -0.37823427 -1.3168875
0.4519012 -0.37769747 -1.3140563
0.44369259 -0.37769777 -1.3165245
0.43731076 -0.37688708 -1.3167819
0.43049237 -0.37612832 -1.3177
0.42415652 -0.37610951 -1.318344
0.41755015 -0.37691948 -1.3173066
0.41111472 -0.37697381 -1.3166901
0.40371081 -0.37758148 -1.3156418
0.39706668 -0.37808019 -1.3153205
0.38741305 -0.37628591 -1.3185831
0.38278916 -0.37775385 -1.3166645
0.37604144 -0.37747884 -1.3163915
0.36970812 -0.37681925 -1.3172953
0.35844034 -0.37806419 -1.3186483
0.32955617 -0.3779493 -1.3185151
0.31925952 -0.37389946 -1.3153365
0.30818176 -0.37898231 -1.3178259
0.29370448 -0.37777543 -1.3178307
0.2886346 -0.37674049 -1.3116252
0.28336725 -0.37893289 -1.3166834
0.2640062 -0.37643373 -1.3151119
0.25555024 -0.37759787 -1.3143971
0.25002375 -0.37863371 -1.3174226
0.49716124 -0.38308787 -1.3204145
0.49004197 -0.38333637 -1.3149447
0.46335596 -0.38330579 -1.315238
0.45647258 -0.38455874 -1.3164939
0.45067066 -0.38236454 -1.3186752
0.4442001 -0.38245904 -1.3147147
0.43777934 -0.3808763 -1.3163137
0.4291636 -0.38010246 -1.3155202
0.42258435 -0.3829782 -1.3141804
0.41779128 -0.38181549 -1.3144979
0.41118228 -0.38244194 -1.3159437
0.40325093 -0.38048118 -1.313445
0.39701411 -0.38136101 -1.3126469
0.38994303 -0.3810043 -1.3132402
0.38311082 -0.38202736 -1.3142824
0.37601349 -0.38222951 -1.3144968
0.36942074 -0.38184798 -1.3135781
0.36282626 -0.3814353 -1.3151761
0.35595882 -0.38235593 -1.3128093
0.34986028 -0.38266176 -1.315482
0.34333938 -0.38227326 -1.313804
0.3368535 -0.38284582 -1.3150816
0.32962799 -0.3830142 -1.3146614
0.32273942 -0.38228437 -1.3128225
0.31564012 -0.38180694 -1.3140436
0.30863929 -0.38389736 -1.3129855
0.30204293 -0.38428417 -1.3131869
0.29583624 -0.38313833 -1.3145591
0.28950363 -0.38406032 -1.3119575
0.28254461 -0.38448161 -1.3117508
0.27554116 -0.38302523 -1.3150671
0.26846048 -0.38405383 -1.3127344
0.26191154 -0.38345736 -1.3128493
0.25439879 -0.3836922 -1.3107789
0.24747689 -0.38517123 -1.3119519
0.24050161 -0.38410428 -1.3136415
0.23372811 -0.38429463 -1.3117753
0.22774416 -0.38529307 -1.3085275
0.22435948 -0.38578585 -1.309305
0.5141356 -0.28688127 -1.3365837
0.51266748 -0.31007022 -1.3371097
0.50677258 -0.30688497 -1.3331403
0.51617473 -0.31830496 -1.3376498
0.50740123 -0.31906912 -1.3359697
0.51613939 -0.32838494 -1.3361492
0.50881642 -0.3283121 -1.3356926
0.51610398 -0.33846492 -1.3346485
0.50672525 -0.33977038 -1.3331217
0.50145823 -0.33831921 -1.3337356
0.50874567 -0.348472 -1.3326914
0.51341307 -0.35865337 -1.3312691
0.51501757 -0.36459285 -1.3325617
0.50200605 -0.36977327 -1.3316505
0.49972302 -0.37097752 -1.332471
0.48991126 -0.37024218 -1.3306714
0.48210442 -0.37002432 -1.3287128
0.47704619 -0.37198356 -1.3317381
0.46999314 -0.37228185 -1.3302653
0.46360576 -0.36939031 -1.3232673
0.44056481 -0.37145549 -1.3314881
0.42595792 -0.37012661 -1.3297485
0.42061493 -0.36923283 -1.3236188
0.28042233 -0.36634362 -1.3234366
0.27533934 -0.37077093 -1.3281476
0.24286407 -0.36865363 -1.3274558
0.50863951 -0.37871188 -1.3281893
0.50710154 -0.38044444 -1.3317258
0.49897829 -0.37766078 -1.3270446
0.49048853 -0.37433636 -1.3258719
0.48506731 -0.37561381 -1.3259182
0.47811955 -0.37922317 -1.3247292
0.47289068 -0.37754548 -1.3251493
0.46575534 -0.37465107 -1.3284858
0.45737988 -0.3761121 -1.3274041
0.45110771 -0.37614742 -1.3271694
0.4443697 -0.37610343 -1.3264011
0.43714803 -0.37536508 -1.3261305
0.43075642 -0.37474555 -1.32587
0.42411548 -0.37529922 -1.3256236
0.41712266 -0.37599826 -1.3271049
0.41000956 -0.37678385 -1.3262748
0.40266821 -0.37718517 -1.3249513
0.39752445 -0.37719217 -1.3269368
0.39049354 -0.37767425 -1.3256528
0.38342807 -0.37748873 -1.3260474
0.37738112 -0.3782925 -1.3246537
0.36995426 -0.3785173 -1.3255717
0.36363873 -0.3787657 -1.3254017
0.35623193 -0.37907189 -1.3241968
0.35007131 -0.37862343 -1.3258771
0.34218398 -0.37873897 -1.3254739
0.33395803 -0.37789828 -1.3234463
0.32941625 -0.37766066 -1.3257643
0.32212818 -0.37875813 -1.3248022
0.31520709 -0.37909448 -1.3260894
0.30811739 -0.37873694 -1.3248709
0.30504033 -0.37943199 -1.3218771
0.29568079 -0.37840202 -1.3267519
0.29137737 -0.37965468 -1.3254944
0.28206187 -0.37754273 -1.3264961
0.27618262 -0.37896723 -1.3274571
0.27054054 -0.3756246 -1.3254488
0.26175043 -0.37818134 -1.3236965
0.2539556 -0.37756521 -1.3219353
0.248423 -0.37596339 -1.3218306
0.24317175 -0.37573937 -1.32327
0.2344503 -0.37746537 -1.3203619
0.49960607 -0.38706335 -1.3257282
0.49373192 -0.38752401 -1.3227174
0.4529061 -0.3816008 -1.3224003
0.41340992 -0.38140923 -1.3215729
0.39308834 -0.38108972 -1.3228711
0.38377622 -0.38055515 -1.3226889
0.37350965 -0.38088411 -1.3231989
0.37125599 -0.38197649 -1.325272
0.36339003 -0.38190675 -1.3248147
0.35695955 -0.38235098 -1.3222734
0.349915 -0.38163149 -1.323088
0.34313205 -0.38265824 -1.3238341
0.33685648 -0.38256365 -1.3238627
0.32991913 -0.3821395 -1.3244354
0.32290524 -0.38306379 -1.3219211
0.31661999 -0.38463199 -1.3225937
0.30916974 -0.38239604 -1.3235236
0.30226052 -0.38334668 -1.3218505
0.29564235 -0.38336623 -1.3241899
0.28914165 -0.38307142 -1.3223696
0.28197026 -0.38447496 -1.320822
0.27477044 -0.38338536 -1.3207335
0.26789609 -0.38453272 -1.3215777
0.26211551 -0.38423038 -1.3210515
0.25678539 -0.38590801 -1.3182764
0.52230239 -0.30218998 -1.3450789
0.51482421 -0.30212554 -1.3449546
0.52223796 -0.31249386 -1.3436145
0.5121038 -0.3130641 -1.3462961
0.52217358 -0.32279778 -1.3421501
0.51203924 -0.32339001 -1.3448285
0.5278492 -0.33118361 -1.34779
0.51294374 -0.33238456 -1.3416672
0.50361282 -0.32961267 -1.3408695
0.52019888 -0.34080526 -1.339873
0.51417315 -0.34074801 -1.3384374
0.51839119 -0.34913331 -1.3411236
0.5118565 -0.35180891 -1.3409648
0.50483137 -0.34967467 -1.3392555
0.51634705 -0.35809171 -1.3425105
0.51151735 -0.36181107 -1.3410399
0.50581807 -0.36030453 -1.3400986
0.49819025 -0.36414164 -1.3422484
0.49140891 -0.3643499 -1.3410597
0.51172167 -0.36987311 -1.3377829
0.50321335 -0.36920553 -1.3361509
0.49857691 -0.36944205 -1.3402539
0.49096844 -0.37032536 -1.3382999
0.48285401 -0.37134206 -1.3357798
0.4786824 -0.36894259 -1.3407295
0.47260025 -0.36661214 -1.3423419
0.46522161 -0.37033761 -1.3389971
0.4557738 -0.36956608 -1.3386689
0.45178485 -0.37144616 -1.3396853
0.44542634 -0.37125164 -1.336867
0.43835235 -0.37089875 -1.3382949
0.43141031 -0.37188351 -1.3374919
0.42475003 -0.36974347 -1.3379583
0.41753015 -0.37223625 -1.3392121
0.41205949 -0.36898232 -1.3370088
0.4043996 -0.37204373 -1.3391476
0.39814198 -0.37227237 -1.3382741
0.38942581 -0.37139177 -1.3369098
0.38216203 -0.37132138 -1.3339382
0.37715074 -0.37224662 -1.3342053
0.35511833 -0.36745894 -1.3392175
0.31284297 -0.37107474 -1.3388211
0.28662053 -0.37016475 -1.3362445
0.27643353 -0.36771899 -1.3356153
0.51010942 -0.3782438 -1.3393317
0.4993262 -0.37579399 -1.3341129
0.48927909 -0.37477219 -1.3414252
0.48211911 -0.37506986 -1.3405571
0.48079103 -0.3756372 -1.3332562
0.47277367 -0.37590706 -1.3339573
0.46441674 -0.37448794 -1.333938
0.45743933 -0.37603086 -1.3381569
0.4515298 -0.37581295 -1.3360378
0.44500464 -0.37544876 -1.3357364
0.43759072 -0.3755511 -1.3340274
0.43033659 -0.37568557 -1.3352643
0.4240756 -0.37553445 -1.3341744
0.41787273 -0.37625378 -1.3349634
0.41056231 -0.37546876 -1.3349798
0.40339431 -0.37546062 -1.3318021
0.39673999 -0.37614501 -1.3343015
0.39001331 -0.37514934 -1.3341357
0.38292408 -0.37675267 -1.3348947
0.37687585 -0.37621176 -1.3347427
0.37052959 -0.37705427 -1.3341892
0.36309668 -0.37725472 -1.3365228
0.35566533 -0.37817714 -1.3344018
0.34929091 -0.37778097 -1.33426
0.3424955 -0.37789217 -1.3347675
0.33587015 -0.3773028 -1.3340907
0.32996503 -0.37794292 -1.3346283
0.32272878 -0.37880322 -1.3338377
0.31562549 -0.37708545 -1.3345102
0.30917257 -0.37819624 -1.3349048
0.30240279 -0.37859803 -1.331948
0.29565543 -0.37547076 -1.3352892
0.28982317 -0.37833464 -1.3333668
0.28410119 -0.37887734 -1.3313196
0.27548432 -0.37710375 -1.3329705
0.26881909 -0.37823981 -1.3323464
0.26199046 -0.3776809 -1.3334556
0.25609303 -0.37593526 -1.3331448
0.24827404 -0.37993145 -1.3294349
0.24392834 -0.38056743 -1.3316648
0.38900414 -0.38187984 -1.3306602
0.36176845 -0.38176841 -1.3311206
0.34242433 -0.38196519 -1.3328106
0.33516219 -0.38301978 -1.3320446
0.32926676 -0.38215381 -1.3320018
0.32024261 -0.38310751 -1.3281645
0.31582341 -0.38231578 -1.3297362
0.30227941 -0.38214076 -1.3326167
0.29001537 -0.38427407 -1.327701
0.27534124 -0.38296616 -1.3307152
0.26962548 -0.38173598 -1.328776
0.26150429 -0.38166457 -1.3291479
0.25257277 -0.38230163 -1.3288879
0.24812651 -0.38081557 -1.3283592
0.51306403 -0.31614637 -1.3569872
0.51190346 -0.34584498 -1.3543036
0.52112353 -0.3548699 -1.3519707
0.51148462 -0.35441142 -1.3463537
0.50676179 -0.34889653 -1.3510448
0.49780491 -0.356325 -1.3509343
0.49412712 -0.34887967 -1.3543617
0.51924002 -0.35762948 -1.3451172
0.51232404 -0.36209485 -1.3466841
0.50674826 -0.36466852 -1.3488027
0.49904683 -0.36044663 -1.3503797
0.51859587 -0.37006056 -1.3468145
0.5117541 -0.37077168 -1.3449951
0.49819404 -0.36872849 -1.3473687
0.49131861 -0.37171572 -1.3451865
0.48610193 -0.36952162 -1.3481544
0.47977066 -0.37039301 -1.3470883
0.47167879 -0.37079057 -1.3472823
0.46349886 -0.36947373 -1.3469197
0.45766878 -0.37067461 -1.3464155
0.45022517 -0.37224495 -1.3456216
0.44421458 -0.37157679 -1.34746
0.43687397 -0.37088645 -1.3463446
0.43058702 -0.37037501 -1.3466716
0.42450157 -0.3698138 -1.3463956
0.41824481 -0.37066776 -1.3446847
0.41096044 -0.37169409 -1.3447373
0.40419576 -0.37164402 -1.3454053
0.39847392 -0.37137467 -1.3457954
0.39190233 -0.37221864 -1.3469751
0.38402972 -0.37274638 -1.3462751
0.37720966 -0.37196326 -1.3446927
0.36928535 -0.37262556 -1.3456721
0.36256823 -0.37175864 -1.3443855
0.35697749 -0.37209764 -1.3455431
0.35054228 -0.37357596 -1.3469322
0.34367082 -0.3722395 -1.3453414
0.33638027 -0.37119207 -1.3429261
0.31819803 -0.37393257 -1.3482909
0.30134571 -0.37268493 -1.3387613
0.29391325 -0.37269449 -1.3455884
0.29132944 -0.37113276 -1.3441889
0.2850078 -0.37355244 -1.3471295
0.27605528 -0.36965746 -1.3413204
0.27019551 -0.37087083 -1.342223
0.26445225 -0.37259752 -1.34368
0.25714374 -0.37290138 -1.3427939
0.51292944 -0.38260794 -1.3414
0.49692574 -0.37605047 -1.3418837
0.47918612 -0.37586129 -1.3434948
0.45872477 -0.3747395 -1.3447692
0.45164338 -0.37542495 -1.347017
0.44450432 -0.37647089 -1.3427187
0.43559387 -0.37430504 -1.3425614
0.42380574 -0.3753742 -1.3422244
0.41918942 -0.37380147 -1.340745
0.4113192 -0.37557656 -1.3457844
0.40281922 -0.37556118 -1.3412119
0.39528146 -0.37460861 -1.3454726
0.39017311 -0.37440547 -1.3423668
0.38380802 -0.37630564 -1.3440746
0.37718984 -0.37599245 -1.3450483
0.36995268 -0.37588084 -1.3435963
0.36240941 -0.3759883 -1.3437009
0.35651031 -0.37716693 -1.3426721
0.35017517 -0.37656248 -1.3433063
0.34325603 -0.37724012 -1.3438482
0.3366656 -0.37646812 -1.3427362
0.32926717 -0.37742507 -1.3434269
0.32268855 -0.37677473 -1.3439274
0.31629777 -0.37911826 -1.3420928
0.31021294 -0.37708724 -1.3418535
0.30206907 -0.37870961 -1.342984
0.29540911 -0.37847072 -1.3425444
0.28863752 -0.37672162 -1.3433509
0.28303662 -0.37731108 -1.3415138
0.27559182 -0.37794724 -1.3399477
0.26650044 -0.37550831 -1.3392595
0.26522785 -0.37387353 -1.3420771
0.25352684 -0.37328261 -1.3446279
0.51360339 -0.33741421 -1.3613522
0.51204979 -0.35575843 -1.3564491
0.50671053 -0.35633242 -1.3577049
0.49244475 -0.35257852 -1.3612714
0.48272681 -0.35115892 -1.3553313
0.52166539 -0.36688179 -1.3573294
0.50851375 -0.36084434 -1.3592293
0.49604189 -0.3598963 -1.3575844
0.49205863 -0.36406416 -1.3579481
0.4839246 -0.36478078 -1.3597507
0.47657755 -0.36304057 -1.3545742
0.47057685 -0.36350358 -1.3588499
0.46481818 -0.36428189 -1.3616427
0.45103639 -0.36545244 -1.3577685
0.4460808 -0.36530745 -1.3531307
0.43674818 -0.36444521 -1.3577785
0.43005896 -0.36486655 -1.3570249
0.42450052 -0.36614802 -1.3579082
0.41713318 -0.36530361 -1.3563937
0.40241015 -0.36592832 -1.3578387
0.38730741 -0.366283 -1.3595083
0.36764657 -0.36277723 -1.3556054
0.52333051 -0.37024027 -1.3592654
0.5033595 -0.36864644 -1.35773
0.49674186 -0.36908337 -1.3569176
0.49208596 -0.3695094 -1.3558793
0.48540661 -0.3687126 -1.3553081
0.47685176 -0.36905736 -1.3542987
0.46938789 -0.3693569 -1.3555462
0.46589965 -0.37109956 -1.3556244
0.45869207 -0.37099162 -1.3554596
0.45201868 -0.37092337 -1.3547196
0.44417644 -0.37005502 -1.3557851
0.43860665 -0.36964387 -1.355258
0.43134317 -0.37104034 -1.3554401
0.42380759 -0.37017733 -1.3548478
0.41811717 -0.37049973 -1.3562261
0.41098782 -0.3704685 -1.3550725
0.40433425 -0.37086016 -1.3555746
0.39720011 -0.37000763 -1.3550254
0.39059585 -0.3705104 -1.3529922
0.38452044 -0.3707906 -1.3551965
0.37751919 -0.37153518 -1.3547951
0.37048805 -0.37200218 -1.353801
0.36341265 -0.37193596 -1.3542004
0.35667381 -0.37337458 -1.3525252
0.35062766 -0.37269497 -1.3526121
0.34429535 -0.37236267 -1.3548621
0.33708492 -0.37267062 -1.3543433
0.33028576 -0.37259629 -1.3545315
0.32367796 -0.37282482 -1.3551824
0.31579202 -0.37330836 -1.3525679
0.30905887 -0.37265903 -1.3548158
0.30146536 -0.37326932 -1.3552817
0.29585594 -0.3704654 -1.3542231
0.28844517 -0.36941278 -1.3541986
0.28206152 -0.3709707 -1.3503451
0.27847522 -0.36728686 -1.3505914
0.27228484 -0.36807734 -1.355092
0.26280919 -0.36928582 -1.348794
0.25568819 -0.37365156 -1.3534936
0.52127481 -0.37934053 -1.352929
0.41479635 -0.37536138 -1.3514005
0.39983949 -0.37521261 -1.3504683
0.3923611 -0.37513819 -1.3500021
0.38394275 -0.37582159 -1.350587
0.37959844 -0.37502396 -1.3495518
0.37152243 -0.37594685 -1.3519418
0.36383146 -0.37647343 -1.3524454
0.35603896 -0.37651765 -1.3512744
0.3493804 -0.37609795 -1.3528968
0.34490663 -0.37762356 -1.3520479
0.33540103 -0.37626633 -1.3534058
0.3286106 -0.37611815 -1.3510146
0.32289293 -0.37607658 -1.3565639
0.31719995 -0.37619647 -1.352445
0.30981693 -0.37776977 -1.3517892
0.30326128 -0.37661892 -1.3529142
0.2937341 -0.37615117 -1.3501914
0.28770524 -0.37742311 -1.3522489
0.27996993 -0.37714314 -1.3552163
0.27283671 -0.37591931 -1.355759
0.27101293 -0.37662339 -1.3521017
0.26284438 -0.3758297 -1.349079
0.25589088 -0.37678862 -1.3474857
0.4984816 -0.35677105 -1.3680885
0.49174666 -0.35702339 -1.3649296
0.48629883 -0.35891283 -1.3715688
0.31117377 -0.35582894 -1.3663719
0.51038295 -0.36118537 -1.3663971
0.50542015 -0.36495411 -1.368439
0.49790969 -0.36418748 -1.3659449
0.49251804 -0.36393675 -1.3652817
0.48496738 -0.36512795 -1.367358
0.47891697 -0.36503047 -1.3682212
0.4719936 -0.36530882 -1.3677889
0.46547511 -0.36461145 -1.3675287
0.45889604 -0.36703795 -1.3673958
0.45260924 -0.36642978 -1.3680859
0.44453064 -0.36618763 -1.3662888
0.43750048 -0.36537379 -1.3659313
0.43240166 -0.36478746 -1.3672626
0.4254714 -0.36485696 -1.3663048
0.41723219 -0.3653959 -1.3678223
0.41055697 -0.36478826 -1.3657367
0.40452209 -0.36527807 -1.364495
0.39741355 -0.3665936 -1.3667876
0.39083081 -0.36407185 -1.3666147
0.38526127 -0.36741066 -1.3678336
0.37743008 -0.36759239 -1.367848
0.37249506 -0.36573935 -1.3623531
0.36575738 -0.36723489 -1.3676264
0.35552165 -0.3599337 -1.3640978
0.34882408 -0.36643606 -1.3644507
0.34329638 -0.3667706 -1.3656595
0.33838695 -0.36722851 -1.3656954
0.32593107 -0.36706597 -1.3671906
0.30980501 -0.36587411 -1.3665754
0.29532579 -0.36434084 -1.364143
0.49917552 -0.36971241 -1.3649213
0.49531901 -0.3724227 -1.3646433
0.46453303 -0.37062991 -1.3657589
0.45909962 -0.37053496 -1.3659875
0.45103067 -0.36928502 -1.3630381
0.44465724 -0.37051034 -1.3660599
0.43842167 -0.36887515 -1.3642669
0.43242547 -0.3688038 -1.3636014
0.42531109 -0.36960694 -1.3654526
0.41783279 -0.36888579 -1.3659757
0.41139007 -0.36923659 -1.3658566
0.40399709 -0.37039575 -1.3644139
0.39695925 -0.36944413 -1.3656574
0.39053556 -0.37035018 -1.363974
0.3833074 -0.37001806 -1.3641104
0.3761014 -0.3704688 -1.3631612
0.37039539 -0.37158209 -1.3624494
0.36353251 -0.3702082 -1.3656406
0.35733536 -0.37090456 -1.3642919
0.35092637 -0.37080556 -1.3621707
0.34442762 -0.37180448 -1.3639904
0.33685043 -0.37212262 -1.3627235
0.33043939 -0.37213156 -1.3621867
0.32406086 -0.37274161 -1.3622156
0.31764442 -0.37153232 -1.3625699
0.31063411 -0.3722831 -1.3633254
0.30345303 -0.3725079 -1.3631227
0.2954776 -0.37179297 -1.3638062
0.28894144 -0.37481511 -1.3585865
0.28185362 -0.37051138 -1.3634607
0.27478859 -0.36767513 -1.3623587
0.35316747 -0.3763327 -1.360132
0.34075227 -0.37734592 -1.3583598
0.30270639 -0.37672985 -1.358278
0.51377285 -0.35296392 -1.3776246
0.50355649 -0.3559618 -1.3820153
0.49630988 -0.3562187 -1.3810744
0.49248588 -0.35574931 -1.3772956
0.48589614 -0.35867929 -1.3776031
0.48011473 -0.35733795 -1.3767277
0.47350249 -0.3575632 -1.3751049
0.46689025 -0.3577885 -1.3734823
0.44474056 -0.35695124 -1.3759722
0.4367902 -0.35848546 -1.3747939
0.4318414 -0.3601262 -1.3787979
0.42763859 -0.35950458 -1.3805158
0.40931332 -0.35987839 -1.3783951
0.38501418 -0.35913074 -1.3779163
0.31666902 -0.35675293 -1.3732096
0.2968027 -0.35819864 -1.377468
0.28923127 -0.35810286 -1.3768107
0.50648189 -0.364959 -1.3782172
0.49844131 -0.36534706 -1.3786365
0.49277121 -0.36542165 -1.37771
0.48538744 -0.36530668 -1.3744628
0.47862875 -0.36406159 -1.3753755
0.47239056 -0.365044 -1.3759087
0.46575424 -0.36544025 -1.3764926
0.45817104 -0.36529732 -1.3767818
0.45174763 -0.36581635 -1.3764474
0.44409385 -0.3646386 -1.3757559
0.43751943 -0.364636 -1.3747638
0.43147343 -0.36421365 -1.3758535
0.42525956 -0.36488122 -1.374927
0.41744533 -0.36501107 -1.3750969
0.41065049 -0.36516106 -1.3756247
0.40393943 -0.36562419 -1.3745495
0.39747953 -0.36629486 -1.3753971
0.39010566 -0.36594182 -1.3737594
0.38419867 -0.3654623 -1.3746945
0.37706852 -0.36594978 -1.3737427
0.37120643 -0.36650509 -1.3721399
0.36330029 -0.36546269 -1.3734872
0.3572199 -0.36689708 -1.3762748
0.34945485 -0.36654788 -1.374851
0.34348056 -0.36709961 -1.3748472
0.33734834 -0.36796713 -1.3762866
0.3293404 -0.36682063 -1.3739237
0.32146698 -0.366014 -1.3750466
0.3171823 -0.36626869 -1.3740164
0.31280231 -0.367185 -1.3731132
0.30284446 -0.36529791 -1.3714151
0.29802629 -0.36396557 -1.3729216
0.29133099 -0.35949057 -1.3777722
0.28314561 -0.36203629 -1.3716075
0.46632534 -0.37141752 -1.3754305
0.46148169 -0.37113583 -1.3726059
0.44214007 -0.37030432 -1.3729061
0.43637148 -0.37062961 -1.3735007
0.42564103 -0.37050208 -1.3755963
0.41908431 -0.37056142 -1.3733107
0.41233617 -0.36952186 -1.3721437
0.4060623 -0.36948985 -1.3709978
0.39847928 -0.36948448 -1.3714738
0.39109468 -0.37002224 -1.3718449
0.38437441 -0.37066978 -1.3747302
0.37792531 -0.37019336 -1.3717257
0.37061268 -0.36987782 -1.3715727
0.36478606 -0.36930275 -1.3714476
0.35916656 -0.36987668 -1.373788
0.35225856 -0.36945888 -1.3731111
0.34365502 -0.37241381 -1.3732812
0.3363423 -0.369964 -1.3727213
0.32849357 -0.37023598 -1.3725989
0.32317811 -0.37168372 -1.371217
0.31668359 -0.37182188 -1.3702346
0.31119037 -0.37067589 -1.3743365
0.30347878 -0.37013054 -1.3719889
0.29730797 -0.37085482 -1.3742175
0.28988507 -0.36900419 -1.3738259
0.28220728 -0.37048638 -1.3758821
0.27327543 -0.36896229 -1.3697722
0.48279104 -0.34653133 -1.3867904
0.51804966 -0.35544801 -1.3838967
0.51080304 -0.3557049 -1.382956
0.49682501 -0.35776722 -1.3866493
0.48949927 -0.35693556 -1.3862358
0.48565421 -0.35803902 -1.3861431
0.47800454 -0.35939425 -1.3865337
0.47124431 -0.35931492 -1.3871789
0.46435359 -0.35964805 -1.3857611
0.45808202 -0.36083913 -1.3866737
0.45289189 -0.35943002 -1.3864726
0.44573021 -0.36118311 -1.3879787
0.43896699 -0.35958973 -1.3859806
0.43251079 -0.35891372 -1.3866502
0.42444262 -0.35879683 -1.3876586
0.41710627 -0.35900676 -1.3838044
0.41360083 -0.36033329 -1.3884836
0.40585381 -0.35961604 -1.3861799
0.39892817 -0.3601225 -1.3848789
0.39166912 -0.35828406 -1.3828485
0.37129414 -0.35852432 -1.3853834
0.3212164 -0.35614234 -1.387808
0.30631474 -0.35561776 -1.3840886
0.49219576 -0.36581105 -1.3886878
0.48375082 -0.36231187 -1.3860818
0.47857615 -0.36366737 -1.3902005
0.47238669 -0.36532754 -1.3868582
0.46443823 -0.36407822 -1.3837705
0.45918629 -0.36646533 -1.38597
0.45220709 -0.36405984 -1.3834462
0.44530457 -0.36254901 -1.3822409
0.43924356 -0.36405787 -1.3845873
0.43134466 -0.36310905 -1.3852928
0.42430592 -0.36411613 -1.3841879
0.41902861 -0.36556137 -1.3842022
0.41083297 -0.36435503 -1.3846471
0.40435916 -0.36423066 -1.3848614
0.39766788 -0.36403397 -1.3834039
0.39144072 -0.36398295 -1.3841259
0.38417622 -0.36463067 -1.3833054
0.37839395 -0.36544919 -1.3845419
0.37105164 -0.36513501 -1.3847603
0.3635987 -0.36633292 -1.3834887
0.35526827 -0.36621839 -1.3843139
0.35030243 -0.36677572 -1.3836539
0.34340131 -0.36554271 -1.3830544
0.33586419 -0.36567652 -1.3837932
0.32836241 -0.36633617 -1.3829018
0.32341188 -0.36672056 -1.3842788
0.31611606 -0.3655026 -1.3839314
0.30889547 -0.36528984 -1.3839588
0.30359206 -0.36539567 -1.3813689
0.39226547 -0.37078127 -1.3828264
0.38449174 -0.37087575 -1.3827623
0.37425277 -0.37121677 -1.3810072
0.37201324 -0.37008923 -1.3800884
0.35710421 -0.37122789 -1.3811567
0.34275445 -0.37006366 -1.3844726
0.33831704 -0.37076831 -1.3841883
0.33005294 -0.3708446 -1.3802049
0.32128185 -0.37015814 -1.3821435
0.31761256 -0.36992902 -1.3797979
0.30905354 -0.37045956 -1.3794534
0.31598186 -0.3420541 -1.4000815
0.4869971 -0.35175133 -1.397477
0.47930935 -0.35115182 -1.3954057
0.47374505 -0.35238007 -1.3970737
0.46722174 -0.3527903 -1.3951728
0.49357605 -0.36246243 -1.3928984
0.48543766 -0.35858697 -1.3966162
0.47956556 -0.35898054 -1.3952379
0.47237021 -0.36002004 -1.3959424
0.46527958 -0.36057222 -1.3965572
0.45803499 -0.36020216 -1.3958749
0.45110908 -0.36063284 -1.3959354
0.44569471 -0.35863316 -1.3959774
0.43836376 -0.35846201 -1.3954896
0.43204606 -0.35977691 -1.3954847
0.42564288 -0.35911125 -1.3952773
0.41866982 -0.36048627 -1.394266
0.41216093 -0.35938817 -1.3959398
0.40462938 -0.36047271 -1.3960177
0.39803883 -0.36068714 -1.3950677
0.39178544 -0.35984975 -1.3950665
0.3846404 -0.35976818 -1.3936642
0.3780399 -0.360347 -1.3972552
0.37167448 -0.35995311 -1.3968339
0.36569011 -0.36075866 -1.3944019
0.35880303 -0.36160922 -1.3972563
0.34629112 -0.36054245 -1.3957101
0.32947189 -0.36199158 -1.3958858
0.32703805 -0.35448804 -1.3959446
0.31637007 -0.35832033 -1.3927583
0.30920884 -0.36052901 -1.39358
0.46200642 -0.3645184 -1.3948883
0.45239943 -0.36325645 -1.3920497
0.44565478 -0.36399287 -1.3923985
0.43759334 -0.36384895 -1.3958465
0.43096 -0.36616665 -1.3952121
0.4251523 -0.36384496 -1.3901943
0.41875333 -0.36399898 -1.3933073
0.41073084 -0.36451215 -1.3911475
0.4037118 -0.36358425 -1.3928478
0.39751536 -0.36261463 -1.3931646
0.39017737 -0.36379695 -1.3936809
0.38522723 -0.3643384 -1.3937798
0.37792253 -0.36413774 -1.3913156
0.37063989 -0.36283934 -1.3924328
0.36388576 -0.36453894 -1.3933204
0.35771719 -0.3652221 -1.3936169
0.3505078 -0.36600465 -1.3925879
0.34380624 -0.36495548 -1.393066
0.33666149 -0.36606151 -1.3918014
0.32991052 -0.36545241 -1.3912213
0.32324818 -0.36463699 -1.39538
0.31632954 -0.36425439 -1.3927681
0.31075674 -0.36481643 -1.3937237
0.30336666 -0.36416236 -1.3922712
0.29516497 -0.36532071 -1.3921466
0.28589964 -0.36460409 -1.3958249
0.3429547 -0.37058419 -1.3880787
0.33555546 -0.37084651 -1.387118
0.48264778 -0.3531853 -1.4069915
0.47619888 -0.35306692 -1.4051569
0.47396845 -0.35058218 -1.4050922
0.46486476 -0.35394454 -1.4044493
0.45736912 -0.35425615 -1.4035406
0.45401815 -0.35434294 -1.4103571
0.4368645 -0.3540076 -1.4050772
0.42244408 -0.35377339 -1.4095935
0.41719183 -0.3533611 -1.4050323
0.40915367 -0.35354304 -1.4063449
0.39825058 -0.34654555 -1.407411
0.47794458 -0.35728717 -1.4039487
0.47347146 -0.36018026 -1.4053189
0.46418273 -0.35954297 -1.4045391
0.45790002 -0.359671 -1.4039755
0.45166546 -0.35884112 -1.4048666
0.44484913 -0.35760105 -1.4048492
0.43844903 -0.35867482 -1.4036319
0.43129885 -0.35743773 -1.4047369
0.42447412 -0.35849822 -1.4051455
0.41919288 -0.35792249 -1.4043552
0.41175798 -0.35998932 -1.4034179
0.40554193 -0.35822368 -1.40535
0.39852536 -0.35989678 -1.4047337
0.3917048 -0.35879609 -1.4040606
0.38488382 -0.3600955 -1.4056677
0.37789789 -0.35995349 -1.4030691
0.37105387 -0.36064816 -1.4036368
0.36432323 -0.35935605 -1.4052807
0.35756642 -0.36061198 -1.4043425
0.3516047 -0.3577013 -1.4024148
0.34480923 -0.3607015 -1.4066702
0.33810046 -0.36062765 -1.403366
0.33034149 -0.35866898 -1.4042209
0.32452646 -0.35880452 -1.4040588
0.31915805 -0.35809302 -1.401203
0.31227699 -0.35819355 -1.4008865
0.30443263 -0.35812595 -1.4007561
0.45116669 -0.36431935 -1.4039915
0.43577087 -0.36733583 -1.4010646
0.42879415 -0.36487788 -1.4048543
0.42235756 -0.36460108 -1.4077443
0.40968573 -0.36384436 -1.3996223
0.40683952 -0.36317101 -1.4001158
0.39284903 -0.36398038 -1.4008036
0.37784177 -0.36442116 -1.4018077
0.37006423 -0.36424333 -1.4006804
0.35721549 -0.36443216 -1.4042677
0.35157678 -0.36471909 -1.4027215
0.34502026 -0.3641277 -1.4020499
0.33677423 -0.36390704 -1.4021577
0.33132833 -0.36503181 -1.402349
0.32428271 -0.36534527 -1.3988931
0.3174302 -0.36343759 -1.3979388
0.31079751 -0.36593533 -1.4022565
0.44268376 -0.3330586 -1.4137523
0.4693872 -0.34399587 -1.4133997
0.46370012 -0.34542164 -1.4188563
0.47890776 -0.35298675 -1.4117895
0.47126168 -0.35244507 -1.4139794
0.46507096 -0.35224974 -1.4178305
0.4578754 -0.35230958 -1.4171852
0.45176971 -0.35471231 -1.4156597
0.44505391 -0.35379332 -1.4148898
0.43906456 -0.3535524 -1.4151675
0.43099374 -0.35284376 -1.4159458
0.42507523 -0.35406271 -1.4162908
0.4178336 -0.35231334 -1.4152606
0.40932912 -0.35507178 -1.4154575
0.40460512 -0.35137892 -1.4177032
0.39696693 -0.35188913 -1.4122472
0.39290059 -0.35320747 -1.4115183
0.38002852 -0.35489815 -1.4126005
0.35779971 -0.35470915 -1.4162321
0.35017401 -0.35502619 -1.4153075
0.32447618 -0.35205054 -1.4101347
0.47804195 -0.35849831 -1.4126859
0.47158068 -0.3578172 -1.4125072
0.46443099 -0.36064723 -1.4143003
0.45940039 -0.35895669 -1.4130063
0.45258072 -0.35796613 -1.4135159
0.44724631 -0.35829693 -1.4127824
0.43853435 -0.358877 -1.4149133
0.4316881 -0.35853392 -1.4127535
0.42516422 -0.35835922 -1.4139279
0.41825521 -0.35830119 -1.4140028
0.41164622 -0.35773873 -1.4133767
0.40402839 -0.35912064 -1.4126549
0.39838278 -0.35821855 -1.4138566
0.39132258 -0.35879359 -1.414049
0.38392273 -0.35933387 -1.4133915
0.37824237 -0.35874435 -1.4152832
0.37163365 -0.35825157 -1.4123889
0.36367893 -0.35928214 -1.4128156
0.35723528 -0.35889006 -1.4139621
0.35102567 -0.35961956 -1.4125427
0.34464696 -0.35941052 -1.412606
0.33808276 -0.36026579 -1.4128164
0.33005553 -0.35865262 -1.4120923
0.32364661 -0.36082953 -1.4115882
0.31791818 -0.35736996 -1.4101703
0.31135067 -0.35793376 -1.4137681
0.30308387 -0.35842276 -1.411745
0.36057475 -0.36481315 -1.4106182
0.45066535 -0.34731328 -1.4251815
0.428976 -0.34688202 -1.4266469
0.47257695 -0.35547227 -1.4246233
0.46546602 -0.35487399 -1.4242252
0.45924991 -0.35286444 -1.423332
0.45214918 -0.35401911 -1.4242904
0.44439715 -0.35123223 -1.4251333
0.43814009 -0.35195932 -1.42577
0.43238378 -0.3524614 -1.424474
0.42459849 -0.35283196 -1.4249052
0.41889393 -0.35386795 -1.4256535
0.412599 -0.35327131 -1.4238753
0.40543893 -0.35399276 -1.4239564
0.39864126 -0.35368186 -1.425899
0.3914454 -0.35524422 -1.4257488
0.38403639 -0.35417604 -1.4221181
0.37615702 -0.35315776 -1.4255151
0.37170181 -0.35473719 -1.4235436
0.36432746 -0.35345379 -1.4232625
0.35563946 -0.35470521 -1.4224933
0.34975192 -0.35423177 -1.4266721
0.3427214 -0.35238576 -1.4248937
0.33838925 -0.35431349 -1.4231405
0.33393183 -0.35527158 -1.4225566
0.32451946 -0.35215199 -1.4215227
0.31904522 -0.35078934 -1.4229785
0.4665316 -0.3579064 -1.4231546
0.45996451 -0.35785747 -1.4221683
0.44937289 -0.3584905 -1.4221178
0.44469675 -0.35903585 -1.4205728
0.43660736 -0.35747731 -1.4224904
0.43192926 -0.35858762 -1.423099
0.42626247 -0.35777077 -1.4253434
0.41966012 -0.35761511 -1.422662
0.41353753 -0.35915038 -1.4216981
0.40520585 -0.35907817 -1.4215986
0.39827946 -0.35915923 -1.4227087
0.39061838 -0.35770684 -1.4224883
0.38545415 -0.35822177 -1.422124
0.37940261 -0.35834906 -1.4237009
0.37203234 -0.35847035 -1.4222093
0.36590722 -0.3581481 -1.4209571
0.35782841 -0.36041558 -1.4205879
0.34921139 -0.35864452 -1.4209205
0.34308514 -0.35862213 -1.420866
0.33811533 -0.35949725 -1.4224304
0.33142871 -0.35919619 -1.4208838
0.32347283 -0.35944721 -1.4210221
0.3069545 -0.35997427 -1.4228259
0.44614136 -0.3354615 -1.4344143
0.440952 -0.33775282 -1.4363753
0.45797592 -0.34842759 -1.4352453
0.45277065 -0.34582686 -1.4341815
0.44607273 -0.34730601 -1.4369546
0.43991545 -0.34744883 -1.4353703
0.43323156 -0.34809443 -1.4346714
0.42846096 -0.34518427 -1.4327564
0.41349238 -0.34425417 -1.4307493
0.40080091 -0.34919491 -1.4365158
0.36478427 -0.34580696 -1.4328549
0.46540165 -0.35234249 -1.4342597
0.46000499 -0.35255933 -1.4347352
0.45317942 -0.35309789 -1.4338721
0.44523114 -0.35213178 -1.4337641
0.43874863 -0.35208154 -1.4340076
0.43164936 -0.35261357 -1.433822
0.42506456 -0.3528167 -1.4342697
0.42011949 -0.35366577 -1.4337127
0.41218305 -0.3534548 -1.4350259
0.40533897 -0.35315681 -1.4329392
0.39912283 -0.35435686 -1.4321668
0.39189735 -0.35313675 -1.4335726
0.38444796 -0.35389942 -1.4336765
0.37806731 -0.35407674 -1.4332112
0.37226629 -0.35280448 -1.432233
0.36566794 -0.35375059 -1.4346074
0.35827139 -0.35399556 -1.4307877
0.35102102 -0.35194188 -1.4321188
0.34490412 -0.35316956 -1.4314243
0.33770889 -0.35557565 -1.4348261
0.32968065 -0.35136977 -1.4312013
0.32323289 -0.3506231 -1.4315778
0.42544094 -0.35841054 -1.4310037
0.41675064 -0.35914353 -1.4305774
0.41045588 -0.35798502 -1.4286501
0.39559308 -0.35899541 -1.4319658
0.39204317 -0.35832468 -1.4307708
0.37906161 -0.35999233 -1.4342269
0.35285234 -0.35861066 -1.4297853
0.34611121 -0.36119682 -1.4300398
0.31636819 -0.3615154 -1.4294114
0.4405109 -0.34050399 -1.4430307
0.37529579 -0.33962363 -1.4490554
0.4633764 -0.34907636 -1.4455687
0.4576579 -0.34955868 -1.4452882
0.45136258 -0.34562731 -1.4444572
0.44549051 -0.34535986 -1.4443349
0.43940642 -0.34581703 -1.4449279
0.43307182 -0.34770894 -1.4450178
0.42619443 -0.34900784 -1.4453115
0.42001066 -0.34953263 -1.4445763
0.41216698 -0.34832236 -1.4454796
0.40580791 -0.34935889 -1.4417838
0.40000772 -0.34630734 -1.4457847
0.39437771 -0.34934795 -1.4462202
0.38661787 -0.34967059 -1.4452792
0.37795654 -0.34905005 -1.4430796
0.37007657 -0.34781903 -1.4397309
0.36312458 -0.34750426 -1.4429698
0.35844567 -0.34490889 -1.444925
0.35265288 -0.34552878 -1.4445589
0.3415567 -0.34231132 -1.4469966
0.33710527 -0.34595257 -1.4427571
0.32725424 -0.34240282 -1.4457651
0.46068275 -0.35381195 -1.4404502
0.45199996 -0.35465872 -1.4420418
0.44914085 -0.35519391 -1.443741
0.44050249 -0.35100567 -1.4444468
0.43241495 -0.35209861 -1.4423454
0.42586318 -0.35386476 -1.4418888
0.41800475 -0.35310823 -1.4437424
0.41318128 -0.35208023 -1.4437032
0.4053292 -0.35242814 -1.4436641
0.39829612 -0.35254326 -1.4422015
0.3918016 -0.35201633 -1.4418515
0.38561982 -0.35363835 -1.4429766
0.37865749 -0.35314181 -1.4413137
0.37193787 -0.35325602 -1.4413863
0.36371171 -0.35127151 -1.4419388
0.35903278 -0.35296446 -1.4439359
0.35272774 -0.353147 -1.4401426
0.34409815 -0.3541261 -1.444682
0.33826157 -0.35357213 -1.4421186
0.33214974 -0.35147578 -1.4381015
0.32729736 -0.35355967 -1.4441873
0.31677902 -0.35257405 -1.4368117
0.394182 -0.36092019 -1.4374884
0.44407195 -0.34055519 -1.4535265
0.4363479 -0.3400996 -1.4521658
0.4331845 -0.34133008 -1.4561278
0.42620608 -0.33657405 -1.4563079
0.4196932 -0.33708569 -1.4523268
0.39269352 -0.34248942 -1.4573438
0.3785021 -0.34125364 -1.4574209
0.45797238 -0.34349155 -1.4577209
0.45140499 -0.3459577 -1.4564157
0.44556907 -0.34893358 -1.4540375
0.43876603 -0.34596783 -1.4525492
0.43257609 -0.34559697 -1.4532092
0.42646006 -0.34659809 -1.4549954
0.4194425 -0.34653535 -1.4549382
0.41139385 -0.34765723 -1.4544456
0.40468282 -0.34670168 -1.4535701
