# .PCD v0.7 - Point Cloud Data file format
VERSION 0.7
FIELDS x y z
SIZE 4 4 4
TYPE F F F
COUNT 1 1 1
WIDTH 111
HEIGHT 1
VIEWPOINT 0 0 0 1 0 0 0
POINTS 111
DATA ascii
1.5114223 0.16588446 -1.2220778
1.5444795 0.14011148 -1.2185253
1.5183871 0.12345068 -1.2194867
1.523268 0.10639186 -1.2159756
1.5194814 0.15935966 -1.235395
1.5372273 0.14754862 -1.2347519
1.5512985 0.1409013 -1.2295557
1.5233352 0.14739035 -1.2285441
1.5444599 0.12209293 -1.2315829
1.5249295 0.1265958 -1.2277499
1.5327774 0.17073154 -1.2446193
1.5306473 0.15205973 -1.2450088
1.5314862 0.14013459 -1.2413287
1.5184702 0.13121727 -1.2372612
1.5368803 0.10798357 -1.2340305
1.5188619 0.10546707 -1.231235
1.5062931 0.11037481 -1.2295133
1.5247277 0.16407634 -1.2549353
1.54208 0.16396132 -1.2503773
1.5534015 0.15375718 -1.2485688
1.5446591 0.15262757 -1.250991
1.566906 0.14400542 -1.2519654
1.5323613 0.13167474 -1.243989
1.5266688 0.12042679 -1.2487476
1.5136051 0.11504416 -1.2459781
1.5277134 0.10787892 -1.2443509
1.54015 0.17577012 -1.2607296
1.5379595 0.15672909 -1.2614737
1.5390579 0.15073435 -1.2590121
1.5191295 0.14766596 -1.2613829
1.5257822 0.13588662 -1.253726
1.5189595 0.14371808 -1.2616644
1.5655664 0.13309865 -1.2529753
1.5409238 0.1270427 -1.2514424
1.5078007 0.12716432 -1.2515024
1.5075662 0.12109399 -1.2509198
1.527495 0.11580081 -1.2532263
1.5153562 0.1103743 -1.2509241
1.5134532 0.17385927 -1.2712245
1.5299739 0.16879298 -1.2744755
1.5520909 0.1577065 -1.2672304
1.5493259 0.15852977 -1.2680558
1.5633389 0.14899832 -1.2719983
1.5330943 0.14055602 -1.2701906
1.5231224 0.13923591 -1.262947
1.5319607 0.12518457 -1.2684584
1.5140154 0.12918596 -1.2693433
1.5209172 0.11971356 -1.2624428
1.5452715 0.16139844 -1.2779385
1.5267541 0.16494219 -1.2844492
1.5261363 0.15442 -1.278155
1.5472249 0.14183261 -1.2764676
1.5431776 0.14817491 -1.280862
1.5248921 0.14874212 -1.2803607
1.5614556 0.13791256 -1.2726312
1.5282292 0.12438291 -1.2789077
1.5546824 0.11900945 -1.2742193
1.534927 0.12087974 -1.2694656
1.5548955 0.18584736 -1.29295
1.5666702 0.17296356 -1.2899861
1.5543945 0.17116518 -1.2932659
1.5698665 0.16372448 -1.2927145
1.5426954 0.16506094 -1.2860036
1.559772 0.15399121 -1.2920309
1.5404062 0.14522538 -1.2866554
1.5203471 0.13424276 -1.2874755
1.5423585 0.12595871 -1.2857047
1.5372528 0.12994236 -1.288169
1.5657831 0.11726815 -1.2811451
1.5222917 0.1185018 -1.2848375
1.5669543 0.1678644 -1.2997087
1.5152957 0.16197067 -1.2970619
1.5649621 0.14742059 -1.3015018
1.5484697 0.15293267 -1.3005729
1.5308249 0.15376619 -1.2990569
1.5764502 0.14086245 -1.2955061
1.5546565 0.14691155 -1.2927067
1.5505717 0.12382336 -1.2938752
1.5355413 0.12905231 -1.2953722
1.5238423 0.17867772 -1.3106835
1.5600069 0.16644342 -1.3103544
1.5428656 0.17300126 -1.3123955
1.5452405 0.15435171 -1.3112776
1.5497904 0.13103768 -1.301944
1.5425447 0.13470013 -1.3078798
1.5615454 0.1230744 -1.3002784
1.5574408 0.17513815 -1.3182242
1.5219715 0.16701841 -1.3144855
1.478475 0.17050007 -1.319451
1.5345926 0.16015138 -1.3207998
1.5184275 0.16122602 -1.3185683
1.5532337 0.14754033 -1.3119426
1.5464607 0.12863727 -1.313531
1.5428532 0.13372166 -1.3118371
1.5231206 0.12535629 -1.3126897
1.4885467 0.16392565 -1.325291
1.5303842 0.15410666 -1.3280916
1.5090054 0.14665221 -1.3280801
1.499853 0.15259778 -1.3240047
1.4950274 0.14631617 -1.3271891
1.540413 0.13860388 -1.3204417
1.5573078 0.12888066 -1.319412
1.5168699 0.12912464 -1.3253244
1.5345761 0.1366076 -1.3349385
1.4950593 0.13579936 -1.3323498
1.5613246 0.13150625 -1.3367628
1.5388418 0.12603228 -1.3361863
1.5190459 0.12543346 -1.3317604
1.4876653 0.12921214 -1.3355279
1.4893624 0.16004655 -1.3422375
1.483331 0.14378195 -1.3419781
