# .PCD v0.7 - Point Cloud Data file format
VERSION 0.7
FIELDS x y z
SIZE 4 4 4
TYPE F F F
COUNT 1 1 1
WIDTH 346
HEIGHT 1
VIEWPOINT 0 0 0 1 0 0 0
POINTS 346
DATA ascii
1.4758012 0.011169471 -0.65117413
1.456483 0.015660264 -0.66311455
1.452037 0.01211305 -0.66326636
1.4614058 0.0072709098 -0.65599924
1.4673281 0.019450761 -0.67456412
1.4413178 0.021904409 -0.6709277
1.4531298 -0.002031289 -0.66921282
1.4428406 -0.0034766793 -0.6621567
1.4375645 -0.0070091784 -0.66448402
1.4766669 0.035661437 -0.67862785
1.4662707 0.020358197 -0.67669487
1.4432017 0.025727659 -0.67614424
1.480554 0.010552689 -0.67642605
1.469287 0.012303635 -0.67374533
1.4214056 0.017288037 -0.68210721
1.413258 0.0091753677 -0.68087971
1.4856085 0.003669709 -0.67789471
1.4555305 0.0054745525 -0.67798823
1.4536855 0.00031384081 -0.67360628
1.4368739 0.0053924471 -0.68118519
1.4646081 -0.0017585158 -0.67766351
1.4386433 -0.0061601549 -0.67258775
1.4200811 0.040707931 -0.69369113
1.4909947 0.027435966 -0.69431621
1.4742121 0.025785401 -0.69404757
1.4473919 0.019955173 -0.68522394
1.4644905 0.0051163584 -0.68711096
1.4601071 0.00048158318 -0.687599
1.4464568 -0.0011706203 -0.69018143
1.4333967 0.00047724694 -0.68284744
1.4739116 -0.0082071573 -0.68063849
1.4420605 -0.006908074 -0.68596655
1.4322066 -0.010749392 -0.68722737
1.4259791 -0.014684141 -0.68161875
1.4179347 0.033959262 -0.70260036
1.4638155 0.027056001 -0.69488102
1.4686433 0.020754412 -0.69397777
1.4596277 0.021430247 -0.69950122
1.4315985 0.021333963 -0.69553524
1.4843478 0.0089959428 -0.69808549
1.46119 0.013258129 -0.69791192
1.4493358 0.01375711 -0.70080084
1.462074 0.0032065585 -0.69658685
1.4438356 0.0043606833 -0.6957103
1.4176145 0.0015919209 -0.69256544
1.4583143 -0.010997757 -0.69060516
1.4897339 0.0327622 -0.71450698
1.4661092 0.025719494 -0.71290106
1.4421182 0.024791352 -0.70529234
1.4417917 0.025379889 -0.70896327
1.47729 0.007753253 -0.70526439
1.4297884 0.013901405 -0.70472509
1.4548399 0.00042425841 -0.70509154
1.438297 -0.001199089 -0.70180863
1.3782712 0.0010893345 -0.70777231
1.4777009 -0.0094440952 -0.70185477
1.45459 -0.0066363886 -0.70841324
1.4160413 -0.0070615262 -0.69958645
1.4311905 0.041702412 -0.72107249
1.4734461 0.038558006 -0.71884662
1.4603472 0.034547389 -0.71489292
1.4531461 0.031534277 -0.71961462
1.4271977 0.038509391 -0.71778554
1.4056535 0.041149467 -0.71521211
1.4610434 0.02420333 -0.72143632
1.4519846 0.029425815 -0.72239137
1.4249221 0.023140334 -0.71996713
1.4830869 0.014322162 -0.71827626
1.4469131 0.015703313 -0.71394974
1.4253768 0.013910778 -0.72023451
1.4517938 0.012562431 -0.71154708
1.4386308 0.010946967 -0.71833915
1.4142545 -0.0017278194 -0.71212769
1.4035866 0.0013182536 -0.71357262
1.4253765 -0.0071140081 -0.71489912
1.4477717 0.038254119 -0.72640949
1.4327279 0.033328004 -0.72931182
1.4432564 0.021901228 -0.7232343
1.4228266 0.022268802 -0.7278744
1.4407794 0.017502151 -0.72632164
1.3713201 0.014162481 -0.72720003
1.4380902 0.005644545 -0.72854614
1.4199351 0.011431552 -0.72117227
1.3841091 0.0036894009 -0.7272681
1.4441583 0.00059174746 -0.72428083
1.4293418 0.0015442297 -0.71945375
1.419665 0.00082034618 -0.72154295
1.4091924 0.0014781132 -0.72277808
1.3768424 -0.0044998527 -0.72351539
1.4569265 0.041926242 -0.7346037
1.4283525 0.037835315 -0.74252015
1.4607958 0.03490518 -0.7384854
1.4463084 0.033397391 -0.73407555
1.449622 0.024454318 -0.73320723
1.4431272 0.022401415 -0.73489076
1.4347328 0.019943371 -0.73848051
1.4217185 0.027624771 -0.7379598
1.4393411 0.0057861954 -0.73357201
1.4186026 0.0046404749 -0.73360944
1.3965802 0.0071447119 -0.73660785
1.4297397 -0.00043490529 -0.7287578
1.4387407 0.04698056 -0.75064963
1.4404098 0.038233481 -0.74660921
1.4337971 0.042774335 -0.7491042
1.4422147 0.032488115 -0.74533564
1.4276459 0.028714582 -0.74685681
1.4401085 0.024582602 -0.74412262
1.4320899 0.026818939 -0.74305964
1.4108021 0.020009927 -0.74486089
1.4058385 0.024250433 -0.74386907
1.4327838 0.017592631 -0.7410841
1.4267682 0.010396741 -0.74832928
1.3837366 0.015929662 -0.74314308
1.4064596 0.0047269017 -0.74446195
1.4439927 0.046567187 -0.76166719
1.4398042 0.052702703 -0.76211631
1.4567688 0.041191675 -0.75735182
1.4102181 0.043525495 -0.7569297
1.4396002 0.032077581 -0.75544757
1.4214787 0.033640884 -0.75316662
1.4024831 0.034634173 -0.75751251
1.4227484 0.019774757 -0.75068015
1.3999189 0.020396411 -0.75597703
1.4152018 0.009289369 -0.75306195
1.4037489 0.013809033 -0.75320649
1.3994021 0.010217622 -0.7481392
1.3674446 0.010083854 -0.74772513
1.3593637 0.003743507 -0.74660021
1.4165148 0.046491593 -0.7673496
1.3935714 0.046160154 -0.7664277
1.3769668 0.052598722 -0.76514626
1.4237555 0.040623732 -0.76881957
1.4089565 0.036787666 -0.7690838
1.3710617 0.036117941 -0.76653111
1.4189698 0.032282643 -0.76798159
1.3874496 0.029074326 -0.76145214
1.4176264 0.017784663 -0.76333827
1.4055856 0.024472587 -0.76838374
1.3958063 0.018148191 -0.76804626
1.3803437 0.017077632 -0.76673627
1.3650599 0.022925556 -0.76235968
1.4022882 0.012389518 -0.76512891
1.3810878 0.012080647 -0.76397884
1.3743477 0.0097162127 -0.76219279
1.3437601 0.0089449957 -0.76561958
1.4541882 0.050360054 -0.77423018
1.4077445 0.048372053 -0.77540129
1.3935416 0.042131864 -0.78028882
1.4157765 0.041430004 -0.77464306
1.3835282 0.041538037 -0.77676558
1.4125535 0.029109865 -0.7703259
1.4004396 0.028344959 -0.77696347
1.40253 0.018958747 -0.77272815
1.3975191 0.018067315 -0.77719069
1.3589979 0.0087101907 -0.76627058
1.397455 0.061976686 -0.78797811
1.4048502 0.055005148 -0.79176217
1.3814757 0.055414386 -0.78953713
1.4106498 0.045488842 -0.78781307
1.4077377 0.041937396 -0.78860545
1.4116307 0.038670011 -0.78777051
1.3838195 0.039297216 -0.781735
1.3536354 0.03881415 -0.78598982
1.3991132 0.023244239 -0.77842277
1.3933592 0.03218738 -0.78092575
1.3848048 0.028239347 -0.78240854
1.3619297 0.027307078 -0.77993959
1.3959299 0.021062158 -0.78358173
1.3949195 0.014114179 -0.78049481
1.3767323 0.021306545 -0.78400356
1.4064512 0.05923833 -0.80149019
1.4052711 0.053218581 -0.79387277
1.3880967 0.051484786 -0.79478174
1.4043465 0.041870505 -0.79252702
1.3961254 0.043533422 -0.79321867
1.3930063 0.04025726 -0.79863477
1.3990167 0.033293426 -0.79620028
1.392944 0.032801896 -0.79321176
1.3842782 0.030455783 -0.79467553
1.4013109 0.024108462 -0.7922498
1.3742737 0.029175647 -0.79628932
1.3555102 0.021081127 -0.79042226
1.3865945 0.071617618 -0.81121022
1.345776 0.075072937 -0.81310773
1.389271 0.061336569 -0.80473953
1.3863127 0.058913931 -0.81044072
1.4008672 0.054630898 -0.81125569
1.3949437 0.05258707 -0.80306476
1.3766981 0.049112186 -0.80388916
1.3718598 0.053386159 -0.80897367
1.4065187 0.047087088 -0.80812711
1.3805547 0.04144112 -0.80243814
1.3610066 0.043521307 -0.80258769
1.3880274 0.032814726 -0.8024984
1.3647223 0.033196196 -0.80542696
1.3717291 0.026436456 -0.80109197
1.392446 0.018960722 -0.79896629
1.3870702 0.014726989 -0.80045557
1.3424257 0.079876892 -0.8193
1.3849558 0.073356315 -0.81386888
1.4027973 0.058065109 -0.81234431
1.3877279 0.056492984 -0.81461656
1.3932141 0.04872451 -0.81321007
1.3855727 0.052260257 -0.81818265
1.3683778 0.048228443 -0.81918561
1.3972876 0.039227352 -0.81382155
1.3908418 0.043996006 -0.81633109
1.3815573 0.037543334 -0.81294858
1.4003556 0.030014567 -0.81298488
1.386799 0.031075016 -0.81289417
1.3749605 0.028801531 -0.81604552
1.351122 0.028552063 -0.81057763
1.3561021 0.027217403 -0.81137514
1.4166266 0.071594469 -0.82978362
1.3594664 0.069791369 -0.82575166
1.4093101 0.06031011 -0.82504857
1.3811275 0.058258891 -0.82238358
1.3748126 0.063386366 -0.83058143
1.4235089 0.049824484 -0.82993251
1.404335 0.052690625 -0.82759064
1.3897678 0.052432694 -0.82892478
1.3879709 0.045764819 -0.82369715
1.3740139 0.051075578 -0.82610387
1.4214618 0.038745917 -0.82751584
1.3891711 0.038837284 -0.82354951
1.3802729 0.039654277 -0.82193691
1.3676611 0.037786558 -0.81866437
1.3616493 0.044128388 -0.82700485
1.3984582 0.028989889 -0.81777352
1.3695098 0.029764391 -0.81853807
1.3563001 0.036448926 -0.81953406
1.3419874 0.031776339 -0.82192117
1.3650191 0.016813286 -0.81581318
1.3688583 0.082799293 -0.83652353
1.380896 0.078354627 -0.833538
1.3730814 0.073013671 -0.83601058
1.3908839 0.06314294 -0.8343814
1.3839951 0.065301076 -0.83222818
1.3783102 0.066376619 -0.83602583
1.413258 0.056822918 -0.83971667
1.4048496 0.058725439 -0.83191442
1.3929603 0.057059653 -0.8322928
1.3836652 0.054906443 -0.83881813
1.4027889 0.04587996 -0.83304095
1.3939111 0.045782723 -0.83336264
1.3662542 0.047918469 -0.83815449
1.4161576 0.037622213 -0.83344036
1.3398411 0.041613139 -0.83509147
1.415694 0.030440204 -0.82875359
1.3988733 0.034407884 -0.83129311
1.3812072 0.031524129 -0.83513653
1.3634734 0.031924553 -0.82797307
1.3787781 0.086266413 -0.84699625
1.3826599 0.076815642 -0.848629
1.3741869 0.071434274 -0.85028201
1.3652998 0.074731454 -0.84413552
1.431227 0.062946476 -0.84669548
1.4222555 0.060996965 -0.84950721
1.3967152 0.068266235 -0.84918582
1.3842723 0.06739933 -0.8439374
1.3752518 0.063937694 -0.84374017
1.439214 0.051924445 -0.84335947
1.4187096 0.052135177 -0.8450374
1.3991894 0.054390691 -0.84706575
1.3600233 0.056167819 -0.8411383
1.4267538 0.043503702 -0.84722656
1.3939035 0.050788887 -0.84239346
1.38597 0.04592362 -0.84293562
1.3721367 0.0477295 -0.84397918
1.4288582 0.032393344 -0.84601247
1.3861794 0.041906014 -0.84473032
1.3628312 0.04176037 -0.8398791
1.4688761 0.027839474 -0.84319019
1.3922384 0.080617622 -0.86124736
1.4052969 0.073412932 -0.85313791
1.3937318 0.071412258 -0.85729343
1.3810667 0.071513839 -0.85712367
1.3762189 0.072229296 -0.85659283
1.3790976 0.062065944 -0.85845661
1.4742621 0.051605761 -0.85961169
1.4239824 0.055333056 -0.85039961
1.3321052 0.052251875 -0.85270196
1.4247108 0.04554078 -0.84928346
1.3991218 0.050174139 -0.85057455
1.3698754 0.045626886 -0.85052514
1.3425472 0.043157227 -0.84998095
1.3333975 0.047960378 -0.84786922
1.4521691 0.036694095 -0.84873724
1.4410741 0.02565863 -0.85030633
1.4308687 0.079342403 -0.86586881
1.4287133 0.067871325 -0.86546552
1.4019164 0.072942384 -0.86855829
1.3681852 0.071747251 -0.86520994
1.4583725 0.060473174 -0.86508197
1.4429748 0.057922363 -0.86799639
1.4066206 0.059136271 -0.86379921
1.3953735 0.06718415 -0.86610317
1.3826597 0.059116267 -0.86575216
1.4318978 0.054260977 -0.8624258
1.4272064 0.049742118 -0.86724705
1.3927572 0.051055707 -0.86065042
1.3659792 0.055528753 -0.8603636
1.3513795 0.05800163 -0.86265063
1.4741617 0.042631567 -0.8645317
1.3819482 0.045970023 -0.86257118
1.3520541 0.046930768 -0.8625049
1.4862158 0.030149683 -0.86156332
1.4258596 0.08509168 -0.87977296
1.4018168 0.084419578 -0.87386578
1.3881135 0.077612482 -0.87592912
1.376967 0.084611647 -0.8809033
1.3921288 0.074067175 -0.87364793
1.4232762 0.057522744 -0.87520778
1.3886762 0.065867908 -0.87107497
1.4151874 0.052230448 -0.87242365
1.3615608 0.050704293 -0.87502885
1.3624704 0.044664107 -0.86632001
1.3711694 0.089283317 -0.88675076
1.4282457 0.075332209 -0.8827123
1.3978162 0.082603797 -0.89042038
1.3754052 0.075630061 -0.88102996
1.4433022 0.07040517 -0.88321084
1.3982546 0.069669895 -0.88369334
1.3914832 0.074044183 -0.88495243
1.4434525 0.063478984 -0.88864207
1.4140522 0.063881852 -0.88053268
1.3785195 0.056001902 -0.88275105
1.3609222 0.062805079 -0.88006467
1.349015 0.064639561 -0.87978953
1.3330598 0.061028972 -0.88550657
1.4078329 0.073471874 -0.89631176
1.3858562 0.081508249 -0.89421833
1.3581804 0.065060183 -0.89544731
1.4232903 0.057967752 -0.89133865
1.3946923 0.054920182 -0.89352089
1.355341 0.062956847 -0.89581829
1.3199182 0.050562836 -0.88919806
1.3674449 0.08357916 -0.90270978
1.3779504 0.064920835 -0.90630412
1.3226043 0.05724854 -0.90232241
1.3847697 0.089841142 -0.91433728
1.3796651 0.088837735 -0.91447765
1.374259 0.083940275 -0.91012961
1.3668721 0.069329612 -0.90969574
1.3614841 0.066160485 -0.9079603
1.3301665 0.064260699 -0.90691781
