# .PCD v0.7 - Point Cloud Data file format
VERSION 0.7
FIELDS x y z
SIZE 4 4 4
TYPE F F F
COUNT 1 1 1
WIDTH 160
HEIGHT 1
VIEWPOINT 0 0 0 1 0 0 0
POINTS 160
DATA ascii
0.095588118 0.058180436 -1.5923364
0.085964806 0.061983138 -1.601207
0.075719692 0.061818391 -1.6014886
0.070171386 0.062363267 -1.6034838
0.064196333 0.061224267 -1.6048316
0.059342038 0.06198068 -1.6038817
0.088580579 0.056619287 -1.5999101
0.08358708 0.055951133 -1.6037971
0.075386234 0.056796983 -1.6026515
0.089799598 0.06240581 -1.6077933
0.085622475 0.061015278 -1.6108693
0.078546293 0.06254591 -1.6081079
0.071724534 0.062853336 -1.6105748
0.064477675 0.061736792 -1.6122708
0.05823664 0.060378388 -1.6127959
0.051084094 0.061154619 -1.6123116
0.043426916 0.062213942 -1.6101907
0.03941118 0.060230166 -1.6124321
0.083634362 0.053900942 -1.6107202
0.077300549 0.051180169 -1.6098884
0.073938571 0.051020876 -1.6102446
0.066862218 0.053165346 -1.6129115
0.049889795 0.054294795 -1.6126395
0.044005491 0.051622257 -1.611569
0.036692325 0.05224137 -1.6067928
0.083821386 0.066903695 -1.6193641
0.083893776 0.059453085 -1.6183261
0.079198413 0.060680389 -1.619961
0.071832195 0.060812578 -1.6199136
0.064507142 0.059532404 -1.6189919
0.057849891 0.059203282 -1.6188538
0.05126632 0.058686048 -1.617123
0.044825982 0.059766293 -1.6180611
0.038217478 0.060571194 -1.6181247
0.031042987 0.0609238 -1.6202681
0.08302632 0.050749481 -1.6198885
0.079669066 0.050120875 -1.6185052
0.072391324 0.050008431 -1.6159774
0.064554192 0.049448371 -1.6186857
0.057894181 0.051401585 -1.6193745
0.051314149 0.050262421 -1.61814
0.044517659 0.049232632 -1.6184735
0.038642272 0.051920637 -1.6182576
0.077339381 0.067566425 -1.6310308
0.073300287 0.066533759 -1.6285012
0.064791523 0.068543047 -1.6297398
0.058069535 0.0680677 -1.6286557
0.052006744 0.067098632 -1.6277025
0.084016658 0.056625634 -1.627251
0.078117639 0.057632089 -1.6285167
0.072520941 0.060122043 -1.6278694
0.065483816 0.059059381 -1.6271211
0.058694564 0.058375686 -1.6279005
0.051364779 0.058590114 -1.6288791
0.044294029 0.058626235 -1.6293193
0.038277782 0.058205009 -1.629225
0.032673799 0.05873847 -1.6297625
0.025174683 0.05958499 -1.6315261
0.082340077 0.049271449 -1.6273775
0.072627656 0.049282372 -1.6277535
0.064410061 0.050201699 -1.6258401
0.057957493 0.048688874 -1.6263186
0.03824456 0.049375981 -1.6280985
0.032810319 0.050286964 -1.6271348
0.082411282 0.064308211 -1.641643
0.079555593 0.065861642 -1.6390996
0.071709104 0.061154261 -1.6405342
0.064500585 0.069848686 -1.6366963
0.036037177 0.064348072 -1.6353115
0.031670637 0.067324892 -1.6379777
0.023791365 0.066257656 -1.6383975
0.018234689 0.065954536 -1.638773
0.08286494 0.056125969 -1.638608
0.0786964 0.056360841 -1.6374509
0.072583936 0.057301283 -1.6371499
0.068083607 0.05935204 -1.6341773
0.044527143 0.05755198 -1.6341348
0.037436604 0.057231396 -1.6355624
0.030692559 0.057154641 -1.6363225
0.024511635 0.05719997 -1.6372763
0.019176595 0.056968719 -1.6392165
0.088956878 0.06369552 -1.6482742
0.083123356 0.064451322 -1.6500633
0.081149198 0.063851193 -1.6464273
0.030056529 0.065595001 -1.6459336
0.023691246 0.06488654 -1.6475724
0.01831953 0.065608382 -1.6481715
0.012736524 0.064367071 -1.647758
0.08288271 0.055144072 -1.6479487
0.080900438 0.054484025 -1.6459203
0.032170422 0.057713181 -1.6446137
0.023929134 0.055715635 -1.6459364
0.017318845 0.056796476 -1.6460583
0.013516692 0.057859525 -1.6470555
0.083670102 0.072230145 -1.6591477
0.081881665 0.0726275 -1.6592793
0.018722421 0.072409928 -1.6585294
0.083811261 0.062801138 -1.6580647
0.081319578 0.063792095 -1.6563215
0.029155865 0.064786494 -1.6526517
0.024263633 0.062741458 -1.6563131
0.018896159 0.063230708 -1.657001
0.012008877 0.063638628 -1.6563896
0.083313629 0.070952013 -1.667446
0.081257597 0.071189448 -1.6695491
0.018961519 0.071512073 -1.6679337
0.011762457 0.071043238 -1.6682001
0.007455755 0.073364601 -1.6652788
0.083626278 0.061751828 -1.6666887
0.081450179 0.062284708 -1.6679226
0.02234243 0.061498567 -1.6642982
0.019205473 0.062730521 -1.6663826
0.011448531 0.06189017 -1.6649407
0.075634487 0.078336522 -1.6831193
0.084152535 0.070524305 -1.6755592
0.079636686 0.069650397 -1.6778297
0.075385392 0.072064012 -1.6821539
0.022696121 0.070838898 -1.6790338
0.020091414 0.070291176 -1.6766382
0.010969277 0.070559338 -1.6754482
0.007535411 0.072202176 -1.6812136
0.077220991 0.07661441 -1.6852801
0.073051296 0.078296721 -1.688907
0.068912052 0.080633521 -1.6923494
0.029911909 0.079271197 -1.6903577
0.02588916 0.078063011 -1.6867204
0.0074800504 0.076932967 -1.6888046
0.077333704 0.068278909 -1.6853178
0.07386373 0.069000632 -1.689003
0.029028878 0.070067331 -1.6898545
0.02518411 0.068887219 -1.6864414
0.01841194 0.069111183 -1.6847212
0.01201678 0.068759218 -1.6865152
0.0064727869 0.070987016 -1.6887084
0.070797399 0.075703144 -1.6937786
0.065860726 0.077025443 -1.6966943
0.059650797 0.076911554 -1.7002714
0.052364796 0.078738898 -1.7010683
0.045365229 0.077725306 -1.7006712
0.038735546 0.076725826 -1.6990694
0.032662436 0.076764628 -1.6954795
0.026639149 0.074122772 -1.6952856
0.019416548 0.074717388 -1.6945169
0.01352598 0.076668531 -1.692837
0.076538198 0.065858483 -1.6920075
0.071334779 0.066808015 -1.6941911
0.066339195 0.067588598 -1.6982347
0.060742706 0.070071906 -1.7002127
0.043187272 0.071324974 -1.7007664
0.036786862 0.067974091 -1.6989154
0.031782657 0.067712069 -1.6954416
0.026896127 0.067793801 -1.6927557
0.045052074 0.082916498 -1.7051758
0.030932516 0.080546394 -1.7057073
0.058037724 0.073879525 -1.7029132
0.052499227 0.075453222 -1.7033143
0.046089415 0.074705511 -1.7036455
0.039634563 0.075563878 -1.703591
0.023889285 0.071835652 -1.7033145
0.018334331 0.083094105 -1.7118332
