# .PCD v0.7 - Point Cloud Data file format
VERSION 0.7
FIELDS x y z
SIZE 4 4 4
TYPE F F F
COUNT 1 1 1
WIDTH 246
HEIGHT 1
VIEWPOINT 0 0 0 1 0 0 0
POINTS 246
DATA ascii
1.1242054 -0.41994932 0.06958814
1.112294 -0.41939893 0.070320338
1.1522319 -0.41556025 0.060755603
1.1142949 -0.40774268 0.061960123
1.1382188 -0.41775477 0.065171868
1.1263222 -0.41660288 0.062992886
1.1485544 -0.44163078 0.070065707
1.1365545 -0.44152832 0.067921706
1.1469963 -0.46690798 0.072983935
1.1427736 -0.48756871 0.067965612
1.1301363 -0.48650289 0.071713418
1.1403502 -0.41380686 0.055665441
1.13632 -0.43532714 0.052015636
1.1507028 -0.43870834 0.060531519
1.1481138 -0.45762989 0.057845544
1.1323853 -0.46236843 0.062842593
1.1443815 -0.48427197 0.067224011
1.1684066 -0.40821475 0.041010547
1.1553826 -0.40562746 0.039521087
1.1401896 -0.40873423 0.041368514
1.1261532 -0.41097444 0.047103371
1.165808 -0.4292345 0.044218674
1.1517947 -0.43142909 0.048634943
1.1493073 -0.45546502 0.048054326
1.1692824 -0.40345073 0.035140604
1.142701 -0.40302047 0.031335067
1.1633053 -0.41159138 0.035240348
1.2152719 -0.42200428 0.03221608
1.1529948 -0.42762527 0.035966732
1.1513577 -0.44729781 0.036514267
1.1353331 -0.4516716 0.039776783
1.1476731 -0.47362891 0.045625377
1.1337636 -0.47504175 0.042967319
1.1456634 -0.47657272 0.044669069
1.1705209 -0.39747545 0.016803639
1.1430303 -0.39865783 0.01886625
1.1766967 -0.40792772 0.024854982
1.2179662 -0.41314417 0.024019379
1.181051 -0.42203316 0.021311833
1.1688488 -0.41919094 0.023118135
1.1670229 -0.42482921 0.028639283
1.1532478 -0.42270309 0.02349625
1.1392111 -0.42494327 0.029231098
1.2277004 -0.43757814 0.029368872
1.1793841 -0.44290879 0.027681742
1.1653708 -0.44510329 0.03209801
1.151611 -0.44423977 0.023595462
1.1776037 -0.44982505 0.03327395
1.1479117 -0.47222176 0.035577133
1.1472323 -0.48962799 0.033405211
1.1446682 -0.49305502 0.032327063
1.1900882 -0.40426403 0.014469611
1.244974 -0.42137864 0.018495973
1.217455 -0.41670531 0.011645621
1.1827486 -0.41701421 0.018737646
1.2388151 -0.4387731 0.014590111
1.1382324 -0.44115233 0.017093686
1.2057731 -0.44832087 0.014516389
1.1762083 -0.46658179 0.020796757
1.1649338 -0.46097204 0.019977342
1.1497104 -0.46446192 0.023074374
1.1613606 -0.4874154 0.028952697
1.1589414 -0.49077705 0.026495548
1.1465162 -0.48897848 0.023099937
1.132368 -0.49179846 0.030490125
1.2184165 -0.40790728 0.0045616291
1.2446171 -0.41653246 -0.00069721043
1.1876353 -0.42110983 0.0018504336
1.1823149 -0.43275443 0.0067151785
1.1796674 -0.43864763 0.0089405701
1.1522691 -0.43891212 0.011358829
1.2220073 -0.45003188 0.004959058
1.2326564 -0.45616755 0.010684248
1.1502274 -0.4608542 0.011224195
1.1903565 -0.46376175 0.013406569
1.1969688 -0.40840498 -0.0099948347
1.1841764 -0.40880269 -0.0049750991
1.2123199 -0.42549562 -0.00018986687
1.2010267 -0.41744617 -0.0085349344
1.2384584 -0.43392688 -0.004603073
1.1679816 -0.45067137 -0.00092681125
1.1842171 -0.45889476 -8.5305423e-05
1.1512903 -0.45512119 -0.00077858195
1.2158604 -0.46776596 0.00016820058
1.2264975 -0.47356203 0.006778378
1.1889609 -0.48051849 0.00092937797
1.1785097 -0.47464636 0.0034404099
1.1644965 -0.47684085 0.0078566745
1.2203387 -0.49095646 0.0028725117
1.1935802 -0.48349759 0.0050133951
1.1748127 -0.48333848 0.0083195604
1.1977451 -0.40584657 -0.015922375
1.2442602 -0.41168627 -0.019890387
1.2286083 -0.42701754 -0.0098690316
1.2224525 -0.42771119 -0.017315436
1.1852168 -0.42277622 -0.01388754
1.1689317 -0.42636594 -0.016584598
1.2084157 -0.4299514 -0.011580579
1.1816869 -0.42765194 -0.014996164
1.1550103 -0.42858776 -0.010896862
1.2224613 -0.44475159 -0.014659889
1.1851825 -0.43795556 -0.010768745
1.2322994 -0.45132136 -0.0085089356
1.1923119 -0.45246607 -0.010758147
1.1818813 -0.44849467 -0.0053072982
1.1793637 -0.4506408 -0.012248289
1.1653272 -0.45288095 -0.0065134391
1.2031091 -0.47769853 -0.0064608082
1.1488438 -0.47746864 -0.0011470765
1.2097135 -0.48550001 -0.0046226643
1.2032509 -0.39617077 -0.024545535
1.2025229 -0.40305662 -0.029811211
1.2451762 -0.42856792 -0.019705482
1.2381014 -0.42908072 -0.023796249
1.1828531 -0.42414421 -0.02227233
1.1985739 -0.43429196 -0.021154109
1.2389778 -0.4464502 -0.024536375
1.2074372 -0.44616044 -0.023718003
1.20634 -0.44967002 -0.018085595
1.1934005 -0.44840065 -0.01798315
1.2163144 -0.46248567 -0.019450746
1.1814476 -0.46423486 -0.017329767
1.2261405 -0.46871582 -0.012414806
1.1643484 -0.46909004 -0.018650848
1.1503117 -0.4713302 -0.012916006
1.2261232 -0.48753917 -0.014415268
1.2199816 -0.48611024 -0.016320672
1.1777602 -0.39006704 -0.03806711
1.219317 -0.39743343 -0.034353886
1.2001035 -0.39588267 -0.037760094
1.2439034 -0.40684009 -0.03908357
1.2015949 -0.4057062 -0.035386451
1.1880958 -0.4129732 -0.034128308
1.2534727 -0.43089187 -0.034066431
1.2119652 -0.43062827 -0.031539485
1.1985749 -0.4362309 -0.0301589
1.1847866 -0.43839017 -0.025813557
1.2319425 -0.44647515 -0.027702115
1.2214738 -0.44392022 -0.029452853
1.1827298 -0.45480138 -0.023387924
1.2327794 -0.46433249 -0.029367276
1.2257837 -0.46386963 -0.031607978
1.2049563 -0.46628448 -0.03045686
1.178385 -0.46684983 -0.024385698
1.1869656 -0.38999987 -0.049628071
1.2356633 -0.39872286 -0.044316068
1.2148707 -0.40207422 -0.045682028
1.2593222 -0.40846956 -0.049478602
1.1974616 -0.41408759 -0.045744255
1.1836679 -0.41683686 -0.038539276
1.245634 -0.42324352 -0.039488398
1.2253567 -0.42696458 -0.041924849
1.2394354 -0.44112578 -0.044319294
1.2081347 -0.4385815 -0.041794632
1.2204951 -0.46012929 -0.04159027
1.1971329 -0.45149124 -0.037929103
1.1843565 -0.45400408 -0.037739567
1.2495223 -0.46621063 -0.03945075
1.2064584 -0.46236944 -0.03585542
1.2088134 -0.47562161 -0.038113207
1.1949137 -0.47779834 -0.033732727
1.226581 -0.48221475 -0.03419818
1.2196249 -0.48126405 -0.035513852
1.1810142 -0.4799751 -0.029352233
1.1806121 -0.38064572 -0.057860389
1.2874482 -0.39191961 -0.061623819
1.2022341 -0.39194015 -0.05694541
1.200645 -0.38727331 -0.056773342
1.25229 -0.40003681 -0.054440409
1.2286373 -0.39686576 -0.052577011
1.1909075 -0.40330943 -0.054081775
1.2859199 -0.4081443 -0.055089593
1.2669507 -0.40770388 -0.054486025
1.2112552 -0.41133827 -0.052949242
1.2124071 -0.41694325 -0.053285159
1.2531129 -0.42600611 -0.053416368
1.2013477 -0.42632097 -0.050270431
1.2315856 -0.44162899 -0.046895295
1.2095126 -0.447474 -0.044158667
1.1809117 -0.45629594 -0.046347711
1.2410544 -0.46596491 -0.041941963
1.1936684 -0.46798345 -0.046392471
1.2432717 -0.4842436 -0.044322371
1.2348453 -0.4835014 -0.045879729
1.2035726 -0.48289892 -0.042828135
1.2589624 -0.40358379 -0.068828546
1.2812769 -0.40903938 -0.0651232
1.2608285 -0.42468843 -0.057957768
1.2460917 -0.4179191 -0.059271313
1.2796164 -0.42633045 -0.060002595
1.2686843 -0.42778578 -0.064042538
1.2098948 -0.42767507 -0.065113768
1.2562345 -0.44280833 -0.05452878
1.2547061 -0.44167301 -0.061429515
1.2469038 -0.44354263 -0.057354145
1.2009211 -0.44181094 -0.062101722
1.2229038 -0.44381037 -0.054544032
1.2499839 -0.46084133 -0.059400395
1.2067627 -0.45505595 -0.054061688
1.2070597 -0.4643198 -0.056777842
1.2176007 -0.48010287 -0.05015558
1.1799412 -0.47237179 -0.058385402
1.3020211 -0.39312652 -0.072419994
1.2863855 -0.40272933 -0.075208738
1.2958008 -0.41038331 -0.075947382
1.2751061 -0.42615911 -0.068622574
1.2733126 -0.44451666 -0.064915612
1.2689351 -0.44327885 -0.072121963
1.2624241 -0.44546628 -0.068012647
1.2670088 -0.4627029 -0.0698286
1.2406946 -0.46107912 -0.061291896
1.1938623 -0.47015002 -0.06407313
1.2430974 -0.47725824 -0.066322528
1.3008413 -0.38814202 -0.091315195
1.2745817 -0.40517947 -0.079581246
1.3105937 -0.41176277 -0.086929128
1.2800819 -0.42091551 -0.080121748
1.2683216 -0.42285994 -0.083551332
1.2782159 -0.44742796 -0.078839794
1.2403349 -0.45619336 -0.080641851
1.2334476 -0.45206499 -0.07281436
1.2060612 -0.45090741 -0.077467233
1.2627639 -0.46039861 -0.075621337
1.2004943 -0.45730087 -0.07393302
1.2607051 -0.48088905 -0.074741617
1.2499039 -0.48082721 -0.075952828
1.304323 -0.42915913 -0.090485051
1.2739354 -0.42121425 -0.087367713
1.2677646 -0.43833402 -0.090867102
1.2737782 -0.43910176 -0.08503475
1.2674744 -0.45728794 -0.08994776
1.2719039 -0.4652549 -0.082842782
1.256593 -0.47751835 -0.07912071
1.274219 -0.40025359 -0.099090025
1.2679589 -0.41793406 -0.10306013
1.2821802 -0.43991247 -0.10189738
1.2778502 -0.44246125 -0.098510206
1.2615936 -0.45545372 -0.094366468
1.2611706 -0.47547412 -0.094860762
1.2709191 -0.47941053 -0.090056948
1.2742435 -0.43368679 -0.1051539
1.2759597 -0.45716929 -0.10542478
1.2679399 -0.451873 -0.11006691
1.2715381 -0.4602882 -0.10251319
1.2968628 -0.44153076 -0.113089
1.2905922 -0.45892712 -0.11664493
