# .PCD v0.7 - Point Cloud Data file format
VERSION 0.7
FIELDS x y z
SIZE 4 4 4
TYPE F F F
COUNT 1 1 1
WIDTH 529
HEIGHT 1
VIEWPOINT 0 0 0 1 0 0 0
POINTS 529
DATA ascii
-0.40864223 -0.28602177 0.53693879
-0.39860675 -0.28585052 0.52791166
-0.38763872 -0.28026044 0.51359361
-0.38774297 -0.28978479 0.51921344
-0.38203341 -0.27829319 0.50800651
-0.35495287 -0.27626118 0.49403134
-0.36857644 -0.28444695 0.49354243
-0.38174194 -0.28571421 0.49622148
-0.39518297 -0.2833913 0.49457523
-0.36826193 -0.28000784 0.48535132
-0.37274432 -0.27973929 0.48342198
-0.42225954 -0.27836034 0.484514
-0.34968856 -0.28356367 0.48630959
-0.35541084 -0.2831797 0.49086332
-0.36299345 -0.28431392 0.48493797
-0.3683286 -0.28256094 0.489959
-0.36520952 -0.27521753 0.47330928
-0.36877581 -0.27628028 0.47928753
-0.40888858 -0.27784038 0.48320737
-0.41933623 -0.27780712 0.48000467
-0.35187042 -0.28408131 0.47610912
-0.35169491 -0.2722694 0.46963075
-0.38505566 -0.27131021 0.46418267
-0.35290691 -0.27691919 0.46792379
-0.36443496 -0.28034994 0.47321483
-0.34633142 -0.26985684 0.45735765
-0.35881752 -0.2718122 0.46129268
-0.33589596 -0.27665251 0.45689592
-0.34184107 -0.27821076 0.45810983
-0.35731798 -0.28085595 0.45949295
-0.39372253 -0.27667361 0.46164986
-0.40411189 -0.2758913 0.46403179
-0.33732781 -0.26903585 0.44746715
-0.3480863 -0.26737192 0.45167542
-0.39171579 -0.26831242 0.45115334
-0.40461889 -0.27023304 0.4526237
-0.32976764 -0.26805034 0.43893874
-0.41132414 -0.26721498 0.43950602
-0.32016048 -0.26933837 0.43798086
-0.35041735 -0.26790383 0.42548627
-0.32870102 -0.27250922 0.42900386
-0.36237311 -0.26981193 0.43037093
-0.33320549 -0.25641567 0.41950125
-0.32759839 -0.26700488 0.41809779
-0.33846152 -0.26599574 0.42060158
-0.31227651 -0.2754561 0.41628659
-0.31267649 -0.25872865 0.41009492
-0.32027912 -0.25632396 0.40850267
-0.31400734 -0.26905894 0.41058359
-0.31306925 -0.260241 0.39788345
-0.2982423 -0.26821595 0.39576495
-0.29956579 -0.25101322 0.3874093
-0.3167721 -0.24969493 0.38485929
-0.30691051 -0.26439947 0.38779843
-0.3191019 -0.26334476 0.38839021
-0.29147199 -0.27216953 0.39072478
-0.30168843 -0.2700358 0.3902787
-0.3057434 -0.24749672 0.37909856
-0.28368604 -0.2431003 0.36757711
-0.27925801 -0.25383228 0.36709467
-0.2916292 -0.25704744 0.37029535
-0.3054578 -0.25497335 0.36543542
-0.31785992 -0.26275691 0.37513319
-0.26162866 -0.23870391 0.35605568
-0.26905736 -0.24927288 0.35396385
-0.2973735 -0.24771366 0.36038613
-0.28407872 -0.25572795 0.35806009
-0.29315665 -0.25575969 0.36110389
-0.27722856 -0.23981848 0.34647056
-0.28893685 -0.24168706 0.35125417
-0.26271647 -0.25176594 0.3463296
-0.29249325 -0.24751168 0.34495077
-0.25428289 -0.26027057 0.34728098
-0.27374518 -0.25396413 0.3520903
-0.2785275 -0.25888941 0.35258043
-0.28904098 -0.25269392 0.35325205
-0.30633509 -0.25528836 0.35392278
-0.27983132 -0.26474783 0.35047761
-0.25808331 -0.23975958 0.33673033
-0.27072978 -0.24049675 0.33887586
-0.28337619 -0.24123394 0.34102139
-0.27387771 -0.24622156 0.33766681
-0.28126967 -0.24837759 0.33966979
-0.26943585 -0.26301304 0.34346905
-0.26512691 -0.23253915 0.3255153
-0.26231304 -0.24421142 0.33331686
-0.2546283 -0.24960162 0.32677937
-0.25903788 -0.2545951 0.32709473
-0.26633662 -0.25147015 0.33156297
-0.27102315 -0.25451773 0.32812262
-0.28366965 -0.25525492 0.33026811
-0.26010248 -0.25881997 0.3275879
-0.27007371 -0.26222101 0.32785931
-0.24621512 -0.23564199 0.31640413
-0.25577796 -0.23639485 0.31717515
-0.24411242 -0.24033976 0.31676054
-0.25773311 -0.24069595 0.32081825
-0.27221763 -0.24425873 0.32152665
-0.24292004 -0.24773301 0.32199582
-0.26022267 -0.25280493 0.32357207
-0.24174693 -0.2604315 0.32508206
-0.24506254 -0.25981358 0.3227697
-0.24966075 -0.25756189 0.32107937
-0.25696006 -0.26182666 0.32560322
-0.24448389 -0.2282739 0.30549249
-0.24438073 -0.2330928 0.30784628
-0.25142482 -0.23920663 0.31015104
-0.2447553 -0.24728556 0.30694339
-0.24355678 -0.25405103 0.31053203
-0.25263652 -0.25734568 0.31564754
-0.2561512 -0.24994384 0.30682635
-0.23238608 -0.22932073 0.29596928
-0.23568346 -0.23051383 0.3007496
-0.24333631 -0.22917576 0.29734045
-0.25664622 -0.22810817 0.30235058
-0.24886745 -0.23923153 0.30008632
-0.26142916 -0.23961991 0.30224568
-0.24453163 -0.24437234 0.30075094
-0.23146802 -0.26047629 0.30236781
-0.22967945 -0.22738506 0.29232794
-0.23866539 -0.23095207 0.28711
-0.25099748 -0.2319922 0.28771484
-0.22801769 -0.23945896 0.29000962
-0.24328147 -0.24199478 0.29069474
-0.2633296 -0.23303236 0.28831971
-0.23073135 -0.24775814 0.28918326
-0.23678842 -0.25292438 0.28748488
-0.24935012 -0.2533128 0.28964421
-0.26191184 -0.25370121 0.2918036
-0.21547279 -0.21939045 0.27883175
-0.22740559 -0.22393651 0.280258
-0.21885921 -0.22764701 0.27825198
-0.23137039 -0.22713366 0.28118825
-0.2377633 -0.23005788 0.27812693
-0.21994235 -0.23890987 0.27957353
-0.2301487 -0.24059087 0.28225666
-0.22422668 -0.25253597 0.28532553
-0.20804712 -0.22549199 0.27260441
-0.2245907 -0.22440952 0.27054793
-0.22968464 -0.22480448 0.26921895
-0.20199175 -0.23056915 0.27212602
-0.21398489 -0.23040575 0.26902786
-0.23060985 -0.23252268 0.2709094
-0.23889937 -0.23302768 0.26724178
-0.2199257 -0.2404525 0.2687169
-0.23063879 -0.24173959 0.27088389
-0.21284527 -0.24974558 0.27135384
-0.21747051 -0.25068614 0.27146661
-0.23170599 -0.24837014 0.27551487
-0.23906922 -0.25022504 0.27319878
-0.20914012 -0.22679684 0.26085308
-0.2176505 -0.22162089 0.26286644
-0.22152442 -0.22717975 0.26298195
-0.23012656 -0.23094793 0.2595939
-0.21837977 -0.24831085 0.25920492
-0.22221325 -0.24980895 0.26153868
-0.23169436 -0.24689037 0.26391509
-0.19648816 -0.21484394 0.25165725
-0.20505106 -0.21518733 0.24464206
-0.21709719 -0.21462257 0.24772474
-0.20841202 -0.2223049 0.24732761
-0.2192055 -0.22268796 0.25001797
-0.22251509 -0.22680199 0.25124091
-0.20926079 -0.23324457 0.2485244
-0.2179065 -0.23258048 0.25299922
-0.23086527 -0.23402297 0.25415871
-0.20890659 -0.24286211 0.25018138
-0.2228699 -0.24479836 0.25622225
-0.21018007 -0.25110298 0.25353426
-0.088573702 -0.21033479 0.23854357
-0.095041409 -0.21083851 0.2376491
-0.10383019 -0.21034005 0.23365262
-0.18271416 -0.2196469 0.23476601
-0.19526872 -0.21938667 0.23824893
-0.20910051 -0.21261662 0.23870993
-0.19814295 -0.22275341 0.23669294
-0.20488641 -0.22351006 0.2376862
-0.21011747 -0.22554459 0.24141191
-0.089018695 -0.23726077 0.24368821
-0.094595455 -0.24109522 0.23820451
-0.10637494 -0.23215987 0.24016011
-0.19826102 -0.23787379 0.24575466
-0.2086059 -0.23353037 0.241023
-0.21999988 -0.23584417 0.24016654
-0.22234949 -0.23216595 0.24420092
-0.19885735 -0.24096903 0.2412329
-0.20591064 -0.24740659 0.23947963
-0.21856776 -0.24699913 0.24226436
-0.086624116 -0.21190831 0.23094296
-0.1045054 -0.21252733 0.22451317
-0.19302079 -0.21376228 0.22443266
-0.096031561 -0.22054465 0.22548231
-0.099871278 -0.21651745 0.22277546
-0.10592707 -0.22184221 0.22578909
-0.1828379 -0.21427093 0.22888157
-0.19534139 -0.21743198 0.22621427
-0.17874387 -0.23078252 0.22706324
-0.19151182 -0.22675735 0.23001245
-0.19873379 -0.22613372 0.22860421
-0.20525843 -0.2285725 0.23425762
-0.18473145 -0.23542394 0.22699454
-0.19673093 -0.23502898 0.2307553
-0.20860687 -0.23402593 0.23551178
-0.21471275 -0.23819825 0.23617458
-0.088957414 -0.24511027 0.23490253
-0.19957867 -0.24382563 0.23344064
-0.20965764 -0.24430014 0.23292796
-0.22181956 -0.24532592 0.23352447
-0.10052751 -0.25383425 0.23229007
-0.16842043 -0.20946324 0.21817322
-0.18352157 -0.20532821 0.22224888
-0.18729587 -0.2065607 0.21830611
-0.089245945 -0.2195577 0.21527986
-0.096161246 -0.21778151 0.21711455
-0.18190683 -0.21652067 0.21931568
-0.19282717 -0.22209485 0.21623483
-0.20360851 -0.22205333 0.22036393
-0.081482962 -0.2308283 0.22077262
-0.097936198 -0.23165545 0.21560588
-0.10964999 -0.22962129 0.21855058
-0.1839529 -0.22593601 0.21783739
-0.18806159 -0.22400656 0.22302969
-0.19541414 -0.22916484 0.21679394
-0.10146691 -0.2402591 0.21759135
-0.19339199 -0.24079548 0.22141629
-0.20479527 -0.23868455 0.22528958
-0.08997827 -0.24535227 0.21782669
-0.18002865 -0.24351631 0.22123112
-0.19708301 -0.24653278 0.22128284
-0.20503698 -0.24810101 0.22759122
-0.090619653 -0.25762671 0.22577792
-0.095211111 -0.25565591 0.21951735
-0.10798123 -0.20191441 0.20429109
-0.090766065 -0.21069691 0.20852828
-0.10155724 -0.21332115 0.20891783
-0.10946064 -0.21283232 0.21225062
-0.1532996 -0.21470785 0.20913351
-0.18403287 -0.21245347 0.20672548
-0.097286917 -0.2173955 0.21004304
-0.10064487 -0.22384809 0.21334444
-0.10625162 -0.21826692 0.21085021
-0.16671716 -0.21975225 0.21188065
-0.18299885 -0.21830851 0.21171822
-0.19499469 -0.2193203 0.21230659
-0.099344976 -0.22958678 0.2121726
-0.1070132 -0.23080623 0.20871335
-0.11447091 -0.23352313 0.21075091
-0.12215988 -0.23527835 0.20822287
-0.16986829 -0.23260641 0.21125332
-0.19188774 -0.2303784 0.20768982
-0.19793117 -0.22959307 0.20871806
-0.20665281 -0.23166065 0.21632126
-0.10761032 -0.23678187 0.21115392
-0.18101095 -0.23528464 0.21392408
-0.18890345 -0.24025124 0.215932
-0.19596983 -0.23773651 0.21691181
-0.090330787 -0.2539137 0.21252975
-0.094987042 -0.24918999 0.21187788
-0.10367645 -0.25208485 0.20917153
-0.10727885 -0.24990653 0.21396324
-0.18375316 -0.24759072 0.21612547
-0.083671398 -0.20901783 0.19338986
-0.093882635 -0.20268704 0.19881582
-0.11075797 -0.20402877 0.19280335
-0.11711537 -0.20296402 0.19409469
-0.12202444 -0.20801064 0.19378233
-0.15165225 -0.20255268 0.19657986
-0.16237459 -0.20407565 0.1976368
-0.16903797 -0.20581043 0.19399284
-0.17556868 -0.20251563 0.20031475
-0.18113813 -0.20445769 0.19394729
-0.084399149 -0.21228771 0.19843262
-0.099930115 -0.21164444 0.20172951
-0.11271691 -0.21399981 0.19583464
-0.12314871 -0.21619587 0.19895145
-0.17247055 -0.21064274 0.20308161
-0.17773807 -0.21700589 0.20341608
-0.18056732 -0.21573091 0.19853204
-0.18907872 -0.21402574 0.20048189
-0.19657502 -0.21394561 0.20479473
-0.08800038 -0.22438546 0.20055047
-0.10201241 -0.22467569 0.19932327
-0.10992987 -0.22652161 0.2020992
-0.11611107 -0.21969542 0.19839817
-0.15533714 -0.2258846 0.20149246
-0.16953507 -0.22352523 0.19810607
-0.17733166 -0.21948789 0.2005067
-0.18239905 -0.22335657 0.19926792
-0.089065924 -0.23231928 0.1960479
-0.095735624 -0.22986382 0.19940272
-0.10205906 -0.2295526 0.19705841
-0.11422834 -0.23404695 0.20121111
-0.16776986 -0.23239204 0.20246895
-0.17814219 -0.23382445 0.20149896
-0.18247616 -0.23128882 0.2011876
-0.18920957 -0.22752546 0.20111483
-0.087187454 -0.24024713 0.20393465
-0.09357246 -0.24498783 0.20058842
-0.1009209 -0.24307412 0.20433044
-0.18308313 -0.24201798 0.2046572
-0.19052614 -0.24336876 0.20510742
-0.20877217 -0.24300386 0.20824504
-0.084544726 -0.24918242 0.20428374
-0.095556654 -0.24783418 0.20339197
-0.10227646 -0.24750705 0.20176867
-0.11425243 -0.24992944 0.2050769
-0.12434285 -0.24696183 0.19990435
-0.17723462 -0.24649675 0.2056603
-0.10596588 -0.19947562 0.18869369
-0.16691229 -0.19987898 0.18654969
-0.094624765 -0.20861988 0.18948497
-0.10794308 -0.20779832 0.18609835
-0.11335613 -0.20911649 0.18400809
-0.12272267 -0.20271321 0.18472478
-0.14674653 -0.2078387 0.1893305
-0.17313664 -0.20244993 0.19290474
-0.18544282 -0.20134573 0.18993059
-0.089612938 -0.21609727 0.19303876
-0.095928304 -0.21508364 0.18978108
-0.099958286 -0.21526478 0.18789998
-0.10819335 -0.2134812 0.19093385
-0.11356325 -0.21259698 0.18418869
-0.13104512 -0.21399103 0.19042261
-0.1580181 -0.21551418 0.19057932
-0.16440199 -0.21627668 0.19352062
-0.16682586 -0.21644793 0.19207913
-0.17923239 -0.20983423 0.18967602
-0.095544577 -0.22405149 0.19277503
-0.11980742 -0.22677867 0.19042394
-0.16126892 -0.22192541 0.18943699
-0.16724476 -0.22359934 0.18818036
-0.17283124 -0.22373608 0.19308084
-0.17988569 -0.22487946 0.19186719
-0.094705701 -0.23426047 0.19391665
-0.099476993 -0.23148151 0.19087645
-0.15737471 -0.23706131 0.19385141
-0.17711425 -0.23300658 0.19546451
-0.18077186 -0.22893327 0.18828943
-0.18858008 -0.23093569 0.19109854
-0.095666729 -0.24194974 0.19453678
-0.10119745 -0.2431618 0.19151838
-0.1084347 -0.2415283 0.19071379
-0.16894113 -0.24283105 0.1916689
-0.17318274 -0.24210662 0.19800895
-0.18175334 -0.241289 0.19745956
-0.084038429 -0.2513659 0.19492255
-0.10086124 -0.25152686 0.19491774
-0.12214503 -0.24851263 0.19649132
-0.12272097 -0.19458124 0.17594334
-0.12654458 -0.19841406 0.17373239
-0.13211009 -0.20101529 0.17683667
-0.1410905 -0.1947464 0.17637549
-0.15130174 -0.1949221 0.18038981
-0.15506014 -0.19733523 0.1779515
-0.16165996 -0.19436081 0.17506087
-0.16888388 -0.19560795 0.1775538
-0.1764515 -0.19812316 0.18117358
-0.097205117 -0.20770693 0.18156852
-0.1016641 -0.21110363 0.17847285
-0.10630649 -0.20537385 0.18179119
-0.11505347 -0.20369433 0.17405947
-0.12418807 -0.20837402 0.17774731
-0.12632957 -0.20657548 0.17839426
-0.13287622 -0.20383616 0.17955852
-0.14469185 -0.20817095 0.17703933
-0.15700947 -0.20800094 0.1785678
-0.16297808 -0.207001 0.17927375
-0.16851921 -0.20772061 0.18118045
-0.1081728 -0.21622095 0.1808234
-0.11807168 -0.21434991 0.18353178
-0.12090581 -0.21358855 0.17792548
-0.13894153 -0.21178615 0.18189377
-0.14877261 -0.21895252 0.18173245
-0.16994898 -0.21370517 0.18378204
-0.17510027 -0.21323493 0.17753127
-0.18643196 -0.21524379 0.18385121
-0.096021578 -0.2268243 0.17991415
-0.1007237 -0.22472952 0.18336263
-0.1062457 -0.22472599 0.1826504
-0.11256469 -0.22521393 0.17693602
-0.12079851 -0.22479628 0.18233812
-0.12877022 -0.22671485 0.17967844
-0.14394026 -0.22418283 0.18161783
-0.15413979 -0.22639184 0.18305503
-0.16380863 -0.2267478 0.18179384
-0.17046501 -0.22415648 0.18578444
-0.10080653 -0.23701307 0.182854
-0.10891028 -0.23321998 0.18553317
-0.11431888 -0.2361642 0.18176627
-0.12222531 -0.23507661 0.17876245
-0.12861978 -0.23304315 0.18355939
-0.14947635 -0.23430069 0.18551275
-0.15375017 -0.23230687 0.17820086
-0.16071822 -0.23484072 0.17946027
-0.16744903 -0.2363095 0.1867947
-0.17892039 -0.23164977 0.18582448
-0.17956276 -0.23764823 0.1799863
-0.2007893 -0.23650108 0.18873546
-0.095764622 -0.24609366 0.18396522
-0.10704805 -0.2418898 0.18566427
-0.11827844 -0.24054122 0.17942725
-0.12855037 -0.24393703 0.1857855
-0.11543151 -0.20077309 0.16828102
-0.12899595 -0.20048366 0.16831997
-0.13196252 -0.20036931 0.16798866
-0.1418808 -0.19828595 0.16834705
-0.15431592 -0.19927244 0.16622643
-0.16108894 -0.19888546 0.17003314
-0.11181552 -0.20926262 0.17308497
-0.12029404 -0.20770831 0.17247696
-0.12984325 -0.21135671 0.17163321
-0.14219067 -0.20714101 0.17040804
-0.14647329 -0.20590091 0.17306435
-0.15307246 -0.20596725 0.16781345
-0.16253091 -0.20828383 0.17177534
-0.16857271 -0.20833339 0.16650826
-0.17601943 -0.20512685 0.17242891
-0.097409628 -0.22090928 0.17132589
-0.11462136 -0.21953183 0.17124569
-0.12137903 -0.21609697 0.17358311
-0.12509657 -0.22013722 0.17039703
-0.13405898 -0.21806116 0.16825677
-0.13995238 -0.21521235 0.17231438
-0.15578125 -0.21832222 0.16995482
-0.10931852 -0.2220556 0.17374925
-0.11946617 -0.22515595 0.17245421
-0.13694477 -0.22590186 0.17401353
-0.14112127 -0.22813033 0.17019072
-0.15434274 -0.22565947 0.17148422
-0.16470504 -0.22709748 0.17430088
-0.16854863 -0.2233455 0.17171064
-0.10247009 -0.23205753 0.17603618
-0.11542837 -0.23678893 0.17170291
-0.121866 -0.23464797 0.17157093
-0.1367698 -0.23535544 0.17112222
-0.14008425 -0.2349979 0.1741368
-0.15026148 -0.23726949 0.17553073
-0.15555994 -0.23785053 0.17268723
-0.16516405 -0.23266579 0.17022893
-0.17001931 -0.231088 0.17185277
-0.17388567 -0.2347334 0.17783216
-0.1075346 -0.24196325 0.17546174
-0.11534528 -0.24745113 0.17877817
-0.11929683 -0.24555701 0.17505585
-0.16823365 -0.24069753 0.17755887
-0.14961718 -0.19078171 0.16036281
-0.10233112 -0.19842897 0.15862367
-0.11594442 -0.20153113 0.16108322
-0.12070405 -0.20015919 0.15776414
-0.1340614 -0.201141 0.1593262
-0.14138782 -0.20274346 0.15839645
-0.14737375 -0.19954666 0.15764405
-0.15654168 -0.203245 0.16379735
-0.1154179 -0.20962122 0.16017905
-0.12068933 -0.21299984 0.15742408
-0.12726448 -0.21250884 0.16090935
-0.14326371 -0.20971958 0.16327944
-0.14907083 -0.20956132 0.16093442
-0.15689279 -0.21192108 0.16477209
-0.10204524 -0.21492344 0.16164379
-0.11486456 -0.21658298 0.16175392
-0.12027405 -0.21912137 0.16233537
-0.12785628 -0.21753846 0.15961915
-0.13441093 -0.2162957 0.16235904
-0.13953547 -0.21769239 0.1587245
-0.14640382 -0.21854717 0.16311705
-0.15292716 -0.21989751 0.15845743
-0.16267459 -0.21885875 0.1617762
-0.17606039 -0.21812735 0.1621023
-0.11702941 -0.22626901 0.16032106
-0.12004009 -0.2285637 0.15933979
-0.12755364 -0.22602171 0.16126826
-0.13184485 -0.22944734 0.15878066
-0.14288209 -0.22805524 0.16113769
-0.14809506 -0.22781038 0.16332057
-0.1551304 -0.22946326 0.16068402
-0.10808499 -0.23762348 0.16576122
-0.11650322 -0.2354034 0.16455351
-0.12198928 -0.2376481 0.16344385
-0.12636143 -0.24148522 0.16415301
-0.13529597 -0.23649694 0.16435802
-0.14114374 -0.23558033 0.16339435
-0.14822844 -0.23487383 0.1635804
-0.15408804 -0.23464198 0.16372135
-0.16300347 -0.23576923 0.16467869
-0.17185614 -0.23383358 0.16111428
-0.17716943 -0.23655422 0.16659941
-0.1808534 -0.23629507 0.16809191
-0.1269448 -0.19491793 0.1482867
-0.14049305 -0.19256927 0.14980376
-0.14984407 -0.19221875 0.15200002
-0.15415336 -0.19567961 0.1517521
-0.13437803 -0.20148753 0.15046281
-0.14142628 -0.20091897 0.1505668
-0.11481351 -0.20741419 0.14591898
-0.12834531 -0.21079613 0.15005933
-0.13469443 -0.21373719 0.15000424
-0.14168561 -0.21235828 0.15296493
-0.12663125 -0.21913494 0.1494384
-0.13342774 -0.22459075 0.15071559
-0.14158696 -0.21826851 0.1538121
-0.15139303 -0.21795923 0.15630856
-0.15221362 -0.21759236 0.15563747
-0.10883121 -0.22566439 0.15625209
-0.1151704 -0.2323043 0.15582442
-0.1215665 -0.23111956 0.15107876
-0.12631066 -0.23133156 0.15415829
-0.13464321 -0.23079041 0.15579084
-0.14530654 -0.22917859 0.15433228
-0.11703354 -0.23754297 0.15191312
-0.12308551 -0.2391381 0.15420251
-0.12748411 -0.23798658 0.15390933
-0.14272024 -0.23887202 0.1588212
-0.15005308 -0.23858558 0.15513216
-0.15502788 -0.23782873 0.15904152
-0.16190329 -0.23595932 0.15647669
-0.11560676 -0.19294322 0.14252287
-0.14923197 -0.19873944 0.14213596
-0.13421905 -0.21266933 0.14168221
-0.1287204 -0.22326306 0.14139493
-0.13766935 -0.22529891 0.14492252
-0.13898255 -0.22115169 0.14310551
-0.12358901 -0.22968313 0.14800881
-0.12841278 -0.22927314 0.14711556
-0.13706936 -0.23035282 0.14597349
-0.1393224 -0.23403159 0.14616816
-0.10572007 -0.23664944 0.1473484
-0.15328148 -0.23639944 0.14888847
-0.12321405 -0.2332904 0.13188498
