# .PCD v0.7 - Point Cloud Data file format
VERSION 0.7
FIELDS x y z
SIZE 4 4 4
TYPE F F F
COUNT 1 1 1
WIDTH 105
HEIGHT 1
VIEWPOINT 0 0 0 1 0 0 0
POINTS 105
DATA ascii
-0.077688754 -0.52408803 -0.85695535
-0.08112675 -0.52627617 -0.86205757
-0.084984981 -0.52847254 -0.86585855
-0.088345975 -0.52504784 -0.86810195
-0.092118099 -0.52176499 -0.87474543
-0.097495243 -0.51892602 -0.88024467
-0.090836756 -0.5250892 -0.87456542
-0.097459987 -0.52364922 -0.87586415
-0.10214747 -0.52164871 -0.88690925
-0.10776963 -0.51914871 -0.89226896
-0.11660548 -0.51737392 -0.88549489
-0.12351277 -0.52000248 -0.89374292
-0.129894 -0.51758492 -0.90155244
-0.11826009 -0.5148626 -0.9075135
-0.12226974 -0.51441556 -0.90969831
-0.11723322 -0.51250345 -0.91263008
-0.13157272 -0.51436847 -0.92047763
-0.13636427 -0.50978142 -0.92679399
-0.13430372 -0.51444888 -0.92966384
-0.13626669 -0.50830495 -0.93380356
-0.14051919 -0.50763983 -0.93460256
-0.14309722 -0.50540578 -0.94349265
-0.14846043 -0.50675029 -0.94354391
-0.15247616 -0.51002902 -0.94764727
-0.15688547 -0.50076836 -0.95626092
-0.16159476 -0.50208962 -0.95680118
-0.15495187 -0.50658333 -0.95142114
-0.15948679 -0.50714028 -0.95771223
-0.16314162 -0.50130033 -0.96460867
-0.1571704 -0.50720513 -0.96219021
-0.16828631 -0.50417483 -0.97161931
-0.17467406 -0.50141019 -0.9777658
-0.17695421 -0.49609333 -0.98315752
-0.18017738 -0.49531138 -0.9867503
-0.18467179 -0.49454561 -0.99207985
-0.18662632 -0.49592596 -0.99576187
-0.18914995 -0.49638754 -0.999973
-0.19451953 -0.49710068 -1.0058004
-0.20131657 -0.48782483 -1.0127077
-0.20712875 -0.4897806 -1.0165806
-0.20985928 -0.49041754 -1.0251945
-0.2118161 -0.48350829 -1.0302073
-0.2165394 -0.48223996 -1.0350403
-0.21927872 -0.48674557 -1.0371155
-0.21186763 -0.49174929 -1.029036
-0.21705841 -0.48983306 -1.031267
-0.22301635 -0.48325789 -1.0405158
-0.22873975 -0.48262346 -1.043327
-0.21765529 -0.49158794 -1.0383136
-0.22973268 -0.480535 -1.0514108
-0.23378755 -0.48720658 -1.0555359
-0.23474862 -0.47930282 -1.065075
-0.2415134 -0.47805363 -1.0637718
-0.23471768 -0.48494291 -1.0586218
-0.24269763 -0.48071599 -1.0698771
-0.2479701 -0.48313805 -1.0732261
-0.25354221 -0.47508281 -1.0745707
-0.25185215 -0.47608495 -1.082566
-0.25271603 -0.47969115 -1.0809127
-0.2591441 -0.47772256 -1.0858448
-0.26130626 -0.47373948 -1.0921013
-0.25327623 -0.47984707 -1.0874239
-0.26806355 -0.47307575 -1.0989481
-0.27337706 -0.47164798 -1.1023183
-0.2830205 -0.46647435 -1.118031
-0.28569281 -0.46576509 -1.1188313
-0.28861067 -0.46973354 -1.1303792
-0.30887762 -0.46514988 -1.1253043
-0.28857368 -0.47253898 -1.1268628
-0.30514583 -0.45906335 -1.1431994
-0.29749724 -0.46643409 -1.1377317
-0.30839601 -0.45909941 -1.1526972
-0.29823563 -0.46715733 -1.1457031
-0.31617287 -0.45396438 -1.1596236
-0.30804464 -0.46235165 -1.1574
-0.31937647 -0.46063566 -1.1629418
-0.31679192 -0.45595551 -1.1650261
-0.32230559 -0.45634604 -1.1697142
-0.32598886 -0.45362929 -1.1710147
-0.31877282 -0.45899743 -1.1743073
-0.32869115 -0.45419157 -1.1784189
-0.33273518 -0.45030108 -1.1751227
-0.32679623 -0.46194834 -1.1749712
-0.34140977 -0.44641891 -1.1910915
-0.33503279 -0.4564451 -1.1871611
-0.34367415 -0.4458245 -1.1974843
-0.346057 -0.44914246 -1.1992258
-0.33951327 -0.45705593 -1.1961353
-0.35474536 -0.45155251 -1.2073585
-0.35720801 -0.44483954 -1.2147048
-0.3612085 -0.445382 -1.2199734
-0.35787606 -0.44897133 -1.216668
-0.36782035 -0.44015643 -1.2276665
-0.36717707 -0.44850874 -1.2251452
-0.3777107 -0.43512756 -1.2380697
-0.38149011 -0.43603885 -1.2480582
-0.38633591 -0.4368054 -1.2428998
-0.37944657 -0.44547254 -1.2423869
-0.3982307 -0.43219307 -1.2594839
-0.38760129 -0.43692988 -1.251575
-0.3940585 -0.4299798 -1.2636559
-0.40454018 -0.43156755 -1.2679994
-0.40518412 -0.42622206 -1.2767456
-0.41194019 -0.42846364 -1.2811173
-0.40626198 -0.43844771 -1.2842491
