# .PCD v0.7 - Point Cloud Data file format
VERSION 0.7
FIELDS x y z
SIZE 4 4 4
TYPE F F F
COUNT 1 1 1
WIDTH 345
HEIGHT 1
VIEWPOINT 0 0 0 1 0 0 0
POINTS 345
DATA ascii
-0.14083651 0.54012334 -2.647728
-0.16025399 0.54525876 -2.6528962
-0.13530622 0.58303249 -2.6658707
-0.12527457 0.56639838 -2.6660831
-0.13042727 0.5683136 -2.662112
-0.13542706 0.56370914 -2.6631241
-0.15627298 0.5670259 -2.6657269
-0.12892263 0.55292082 -2.6662874
-0.13664377 0.54607636 -2.6611817
-0.13554788 0.54438579 -2.6603777
-0.14957203 0.54450667 -2.6601448
-0.13322552 0.53249413 -2.6636117
-0.13618279 0.51815867 -2.6619208
-0.15481628 0.52058458 -2.6575668
-0.13141088 0.59499478 -2.6767979
-0.12246227 0.57392848 -2.6800816
-0.18217051 0.57462132 -2.6791956
-0.12273644 0.56268537 -2.6739893
-0.12943733 0.56534696 -2.6769876
-0.16501001 0.56537783 -2.6739938
-0.17205001 0.56153911 -2.6774035
-0.11929946 0.55826616 -2.677701
-0.1254714 0.54819214 -2.6730394
-0.13618077 0.54971373 -2.6717958
-0.14210394 0.55222762 -2.6693184
-0.17036647 0.54384243 -2.673861
-0.13037525 0.53614736 -2.6723418
-0.13606887 0.53400403 -2.6682739
-0.13989265 0.5351094 -2.6685152
-0.15407723 0.53437054 -2.6691966
-0.12884548 0.52704918 -2.6678412
-0.13516875 0.52886397 -2.673981
-0.14238806 0.53286248 -2.671114
-0.13077593 0.52049679 -2.6706338
-0.1333639 0.52055264 -2.6710756
-0.14473109 0.51789963 -2.6715362
-0.13715614 0.49960148 -2.6650028
-0.12979412 0.58236992 -2.6890528
-0.15793046 0.58665437 -2.6865244
-0.17043985 0.58303487 -2.6869993
-0.11223698 0.57260084 -2.6875663
-0.12609659 0.57391143 -2.6840639
-0.14155926 0.57657385 -2.6831942
-0.16815203 0.5744437 -2.6804128
-0.11558808 0.56677306 -2.6862712
-0.12237485 0.56810033 -2.68468
-0.12884317 0.56549239 -2.6849923
-0.14211652 0.56442696 -2.6831136
-0.15064768 0.56834388 -2.6842098
-0.15711448 0.56546116 -2.6839945
-0.15946713 0.56286883 -2.6827543
-0.12614878 0.55464584 -2.6809373
-0.14016724 0.55482328 -2.6797202
-0.12249663 0.54862225 -2.6819115
-0.12883967 0.54602301 -2.6821663
-0.13778031 0.54559565 -2.6771677
-0.14202049 0.54442 -2.6817229
-0.15696926 0.54471016 -2.680409
-0.16490591 0.54898763 -2.6812065
-0.17904232 0.54910946 -2.6809716
-0.14021944 0.53555775 -2.6765933
-0.15513849 0.53282142 -2.6822009
-0.12261844 0.52914429 -2.6791432
-0.1288362 0.52655357 -2.6793401
-0.13675486 0.529266 -2.6789083
-0.14315364 0.52729392 -2.6795673
-0.15610006 0.52747571 -2.6756697
-0.16102773 0.52703851 -2.6766496
-0.13420804 0.51754957 -2.676625
-0.15172051 0.51870811 -2.6799896
-0.15588276 0.51589447 -2.6767414
-0.12883273 0.50708425 -2.6765139
-0.13683978 0.50669801 -2.6737573
-0.14323524 0.51065207 -2.6764882
-0.14758311 0.50846398 -2.6792424
-0.15507624 0.50818288 -2.6759849
-0.13147821 0.5017935 -2.6743553
-0.15094404 0.50091052 -2.6752748
-0.13121915 0.58820355 -2.6963978
-0.14319682 0.59030819 -2.7004638
-0.15439554 0.59117907 -2.6941245
-0.13496426 0.58044362 -2.6989648
-0.10571817 0.57570207 -2.698308
-0.12865448 0.57164967 -2.6989954
-0.14141724 0.57242227 -2.6958818
-0.15515271 0.57126772 -2.6948953
-0.17064598 0.56990409 -2.6939039
-0.12819231 0.55848348 -2.6966493
-0.13562641 0.56336665 -2.694612
-0.14676335 0.56423068 -2.6925929
-0.15475449 0.56288707 -2.6903355
-0.12810931 0.55240947 -2.6958294
-0.15610366 0.55124563 -2.6924353
-0.17017329 0.55699515 -2.6911991
-0.15212423 0.54603583 -2.6871259
-0.11291602 0.53343832 -2.691386
-0.12434693 0.53813142 -2.6862249
-0.12756415 0.53316915 -2.6926637
-0.15006074 0.53681731 -2.6914411
-0.14183745 0.52700782 -2.688411
-0.14921668 0.52678603 -2.6858504
-0.12711707 0.51692581 -2.6901376
-0.13618135 0.51678234 -2.6859787
-0.14111248 0.51638675 -2.688381
-0.14912835 0.51864642 -2.6879938
-0.1554551 0.52001953 -2.6888447
-0.16363873 0.51794171 -2.6826634
-0.1254136 0.50610662 -2.6839125
-0.14462592 0.50525665 -2.6839209
-0.15245484 0.50679123 -2.6879287
-0.16950279 0.59842116 -2.7049482
-0.11484763 0.58846021 -2.7092109
-0.14334509 0.58811378 -2.7089753
-0.15773711 0.58768845 -2.7018337
-0.11385988 0.578273 -2.7040527
-0.11477174 0.56882334 -2.7064335
-0.1435792 0.57194173 -2.7052472
-0.17176664 0.56813049 -2.7059634
-0.17352228 0.57194662 -2.704442
-0.18036763 0.57318622 -2.705446
-0.099579707 0.55908144 -2.7025304
-0.11308515 0.55886602 -2.703552
-0.15547729 0.5594027 -2.6998715
-0.10923664 0.55293685 -2.7038398
-0.11411215 0.55299139 -2.6975265
-0.14311042 0.55367804 -2.7026272
-0.15857083 0.55133319 -2.702786
-0.1593399 0.55218804 -2.7024097
-0.16771241 0.55737996 -2.7027674
-0.18593948 0.54832053 -2.7030683
-0.19474117 0.55367351 -2.7024183
-0.12726846 0.53962517 -2.6991735
-0.1544604 0.53991342 -2.6999156
-0.10935941 0.53330123 -2.7010491
-0.11461997 0.52954972 -2.7008789
-0.13881344 0.53761923 -2.6980882
-0.15211166 0.53366953 -2.7003384
-0.15652896 0.53417939 -2.6998317
-0.16798331 0.53549623 -2.6990497
-0.18061319 0.5339151 -2.6998644
-0.19486395 0.53403789 -2.6996276
-0.12538056 0.52327216 -2.7021182
-0.15233284 0.52147412 -2.6995904
-0.16559628 0.52064002 -2.6957257
-0.1858636 0.52868378 -2.7002912
-0.11320593 0.52022266 -2.6949213
-0.12732106 0.52020526 -2.6960218
-0.14145176 0.52038419 -2.6947949
-0.15223445 0.51403397 -2.6975474
-0.15614848 0.51666272 -2.6922081
-0.16329731 0.51928413 -2.7002025
-0.11454407 0.50991291 -2.6981015
-0.14304151 0.50956649 -2.6978667
-0.15581658 0.50731337 -2.6922827
-0.17865689 0.58629644 -2.7188153
-0.14420669 0.58147424 -2.7190046
-0.15831238 0.58097428 -2.7171733
-0.16036467 0.58259737 -2.7110605
-0.15794089 0.57276291 -2.7150023
-0.16941427 0.57198 -2.7106199
-0.18632805 0.57371831 -2.713557
-0.14358254 0.55906165 -2.7157714
-0.15613444 0.5598768 -2.7104232
-0.15547642 0.55601251 -2.7116878
-0.16403629 0.54990751 -2.7118597
-0.17166929 0.55491066 -2.7120764
-0.17350233 0.55213201 -2.7127588
-0.14924133 0.54635346 -2.7100382
-0.17143309 0.54160476 -2.7094233
-0.14290133 0.53668946 -2.712307
-0.17032227 0.5294975 -2.7101123
-0.17353015 0.53240645 -2.7080281
-0.15110402 0.52118897 -2.7066455
-0.156461 0.51670861 -2.7074049
-0.17182125 0.5144431 -2.7044325
-0.11140022 0.50548697 -2.7046561
-0.1567395 0.58346224 -2.7248094
-0.14578095 0.57543814 -2.7233052
-0.196208 0.5779916 -2.7273042
-0.14349091 0.55799013 -2.7198994
-0.16852061 0.54757559 -2.7184081
-0.16753605 0.53984821 -2.7181749
-0.17800656 0.5451051 -2.7218359
-0.09600924 0.51773727 -2.7205355
-0.099279054 0.52481079 -2.7150497
-0.11037639 0.51786101 -2.7202969
-0.11413334 0.51846826 -2.7125371
-0.16335621 0.52478802 -2.7141142
-0.16949429 0.5216341 -2.7166913
-0.18241897 0.52157748 -2.7115018
-0.16077451 0.51716667 -2.718591
-0.17437452 0.59833777 -2.7402401
-0.1742065 0.58474976 -2.7369385
-0.15154578 0.56922162 -2.73437
-0.17554143 0.56901354 -2.736078
-0.17924219 0.56837106 -2.7295153
-0.18586758 0.56969023 -2.7346895
-0.18748991 0.55864406 -2.7320819
-0.17869413 0.54935157 -2.7259867
-0.19584426 0.55240834 -2.7278523
-0.088866867 0.53622913 -2.7260132
-0.15848926 0.54027557 -2.7323141
-0.16964763 0.54190767 -2.7258203
-0.17453668 0.53784049 -2.7273822
-0.18075702 0.54013187 -2.726696
-0.19198394 0.53832781 -2.7275293
-0.17481863 0.52605557 -2.7271817
-0.11767159 0.51673782 -2.721278
-0.0737032 0.5633747 -2.745878
-0.17249283 0.56863052 -2.742538
-0.18579261 0.56366944 -2.7386549
-0.20540537 0.56174612 -2.7441337
-0.18471807 0.54501384 -2.7350798
-0.19347617 0.54591405 -2.7336946
-0.17909929 0.52534854 -2.7345195
-0.18856144 0.53054595 -2.7342229
-0.10104191 0.52308965 -2.7359953
-0.16023433 0.59764266 -2.7534192
-0.19670261 0.59220791 -2.7523563
-0.19520664 0.57199013 -2.7481554
-0.17944822 0.56356734 -2.7455747
-0.19012994 0.56579626 -2.7498894
-0.21242857 0.56290281 -2.7466156
-0.19327796 0.55651462 -2.7483687
-0.20352915 0.55719507 -2.7474151
-0.071097374 0.54680914 -2.7525969
-0.082187489 0.54182112 -2.7459462
-0.18498456 0.54301178 -2.7471745
-0.18936205 0.54909039 -2.7510474
-0.087587774 0.53864378 -2.7455478
-0.1020708 0.53846776 -2.7454286
-0.1620186 0.54137444 -2.7438741
-0.20345202 0.53723538 -2.7445922
-0.18886152 0.52933848 -2.7480395
-0.082312293 0.52186263 -2.7431095
-0.088585645 0.51969928 -2.7440729
-0.10306996 0.5196833 -2.7435613
-0.20859182 0.58775926 -2.7609868
-0.19836298 0.57885396 -2.7579262
-0.20653011 0.57258332 -2.7569778
-0.18830486 0.56154597 -2.7569206
-0.20616753 0.56376958 -2.7579134
-0.17402135 0.55335724 -2.761745
-0.18850058 0.55354047 -2.760488
-0.18596303 0.54370362 -2.753438
-0.19941883 0.53938818 -2.7542286
-0.2499526 0.60483944 -2.776118
-0.19452737 0.58818352 -2.7696459
-0.20703068 0.58652741 -2.7698581
-0.2140626 0.58768988 -2.7722299
-0.19390172 0.57250774 -2.7651947
-0.21142256 0.5756588 -2.767051
-0.22072816 0.57206172 -2.7725394
-0.22879353 0.56769198 -2.7691269
-0.17789008 0.56613237 -2.7686856
-0.19249566 0.56627762 -2.7677753
-0.21984299 0.56165087 -2.7700641
-0.234446 0.56147337 -2.7699437
-0.19679554 0.55676657 -2.7659323
-0.20576994 0.55266011 -2.7713835
-0.17796066 0.5460276 -2.7656927
-0.19256626 0.54617286 -2.7647822
-0.20717184 0.54631817 -2.7638717
-0.21431425 0.54744226 -2.7665095
-0.22177744 0.54646349 -2.7629611
-0.22891936 0.54756814 -2.7662668
-0.1962387 0.53744221 -2.762347
-0.21530566 0.59829807 -2.7869132
-0.23674567 0.59826827 -2.7829726
-0.19232559 0.59300053 -2.7793245
-0.21919875 0.58207893 -2.7827966
-0.21961583 0.56237471 -2.7769141
-0.203354 0.55120993 -2.7720585
-0.20656231 0.55556232 -2.7729125
-0.1904344 0.54762566 -2.77332
-0.21650195 0.54037511 -2.771452
-0.22318918 0.54134047 -2.7701905
-0.18795578 0.59526294 -2.794806
-0.20461187 0.59839565 -2.7885242
-0.23057877 0.59272838 -2.7951536
-0.24530591 0.59285522 -2.7949088
-0.22772335 0.59158528 -2.7908969
-0.26695609 0.59053916 -2.7915871
-0.19006701 0.57814729 -2.7865353
-0.24295492 0.58063865 -2.7923672
-0.20472054 0.55826831 -2.7820117
-0.21316013 0.56035066 -2.7851706
-0.22218521 0.55610406 -2.7841387
-0.24117911 0.5619719 -2.7886307
-0.21978986 0.55394799 -2.7889791
-0.23835275 0.55120027 -2.7851319
-0.22346905 0.59645063 -2.7981915
-0.23145808 0.60070807 -2.8017473
-0.24362698 0.59240603 -2.8023517
-0.21640961 0.58344406 -2.8036551
-0.22251545 0.59085774 -2.799144
-0.23709244 0.59025174 -2.7973766
-0.25166944 0.58964568 -2.7956095
-0.22968227 0.58204126 -2.7980111
-0.23753361 0.5758549 -2.793242
-0.24083689 0.57453048 -2.7989471
-0.21463376 0.56477726 -2.7999187
-0.23652467 0.57021439 -2.7940798
-0.22245145 0.55629253 -2.7920766
-0.22790644 0.56337464 -2.7942746
-0.23981038 0.61448389 -2.8171973
-0.21662778 0.60371876 -2.8145535
-0.2309276 0.60327965 -2.8120468
-0.23870142 0.59522998 -2.8135073
-0.25977412 0.59323907 -2.813982
-0.20313694 0.58484679 -2.809299
-0.20643634 0.58312225 -2.8084669
-0.23036164 0.58363986 -2.8084033
-0.22860214 0.57680702 -2.8066554
-0.23759243 0.57597619 -2.8098171
-0.26998755 0.57660818 -2.8097947
-0.28483933 0.576756 -2.8088689
-0.23648342 0.5567224 -2.8061268
-0.23986217 0.61522079 -2.8238678
-0.24043888 0.60048115 -2.8192916
-0.26222464 0.59797966 -2.8182175
-0.21636739 0.57908356 -2.8143637
-0.26235259 0.57751667 -2.8153093
-0.22344585 0.5552175 -2.8156765
-0.24182276 0.55950832 -2.8148878
-0.256807 0.61777836 -2.8347585
-0.24783823 0.60729867 -2.8319478
-0.25568902 0.59836876 -2.8310385
-0.26454961 0.60566282 -2.8322299
-0.22308163 0.58818114 -2.8307691
-0.23792693 0.58836901 -2.8294799
-0.24726766 0.58749771 -2.8282745
-0.25457108 0.57895923 -2.8273184
-0.26178095 0.58399934 -2.8281121
-0.23513103 0.56805336 -2.8266487
-0.24669708 0.56769669 -2.8246009
-0.25282747 0.56815511 -2.8248801
-0.26102784 0.56749427 -2.8233559
-0.28922057 0.60655481 -2.8436167
-0.28718114 0.60229707 -2.8358006
-0.25715697 0.58841705 -2.8330009
-0.27408624 0.62113357 -2.8526428
-0.26503131 0.61138815 -2.8521993
-0.27295914 0.60156548 -2.8488925
-0.26029798 0.60927618 -2.8645
