# .PCD v0.7 - Point Cloud Data file format
VERSION 0.7
FIELDS x y z
SIZE 4 4 4
TYPE F F F
COUNT 1 1 1
WIDTH 419
HEIGHT 1
VIEWPOINT 0 0 0 1 0 0 0
POINTS 419
DATA ascii
0.14940901 -0.83669323 0.77795905
0.15503424 -0.84229517 0.76451445
0.17047097 -0.82833302 0.75021267
0.15942809 -0.83383149 0.74724674
0.1669945 -0.83811486 0.75188738
0.18100192 -0.82415301 0.73633945
0.16085102 -0.82673967 0.73868901
0.17039038 -0.82975346 0.73373902
0.14174399 -0.83505887 0.73755348
0.19153289 -0.81997293 0.72246623
0.16961025 -0.82243699 0.72432983
0.19091505 -0.82975429 0.72663337
0.15166238 -0.83085132 0.72354954
0.15069863 -0.83764708 0.73255157
0.17398368 -0.81891805 0.71914715
0.18135269 -0.82567525 0.72023118
0.17417169 -0.822456 0.71739411
0.19231498 -0.82159716 0.70672345
0.17836948 -0.81813443 0.70997071
0.18694684 -0.82341576 0.70674169
0.17441045 -0.83167863 0.71053648
0.19949731 -0.81137383 0.69487196
0.18712871 -0.81383181 0.69561166
0.21483555 -0.82139361 0.7013793
0.20327727 -0.81751913 0.69321573
0.17149918 -0.82243609 0.69554192
0.18719091 -0.82893831 0.70116991
0.19588795 -0.80952924 0.68125248
0.22679582 -0.8172133 0.68875223
0.19719031 -0.82469636 0.68705171
0.19083446 -0.82341093 0.69086921
0.23875611 -0.81303298 0.67612523
0.2142396 -0.81344104 0.67970794
0.18833603 -0.81081086 0.67692304
0.20138203 -0.8189224 0.67952186
0.19247642 -0.82106423 0.67751467
0.22520189 -0.80936289 0.66620016
0.20464718 -0.80522662 0.66689336
0.20107931 -0.80087537 0.66576523
0.23200835 -0.81685197 0.66361284
0.2144393 -0.81582695 0.66813892
0.20292088 -0.81691855 0.66375542
0.23336688 -0.82268316 0.66412592
0.19175476 -0.82488632 0.67171246
0.21398959 -0.7978096 0.65231335
0.23616418 -0.80528486 0.65269244
0.20428018 -0.80202091 0.65541899
0.22861841 -0.81610042 0.65646231
0.21761066 -0.81632882 0.65848005
0.245324 -0.79758704 0.64227515
0.23699267 -0.8022579 0.64178741
0.2466369 -0.81126988 0.64606047
0.24344836 -0.81840634 0.64989185
0.21336532 -0.81277281 0.64999622
0.20496291 -0.81541085 0.65173197
0.20321295 -0.81580573 0.65334719
0.24712647 -0.80120677 0.63918465
0.24298663 -0.79795182 0.6351735
0.22216566 -0.79662144 0.63817513
0.25361112 -0.80654067 0.63399023
0.23161045 -0.81106514 0.64217865
0.21784948 -0.805951 0.63953936
0.25352988 -0.81412959 0.63565773
0.24027118 -0.81528914 0.64229524
0.25627998 -0.79111707 0.62654305
0.24478093 -0.79435521 0.62532812
0.26033738 -0.79953563 0.62729353
0.25808883 -0.79712868 0.62567693
0.24582042 -0.79792166 0.627316
0.23053433 -0.79662097 0.62750334
0.22047697 -0.80652183 0.62830579
0.26904625 -0.79117399 0.61470234
0.25985312 -0.78815937 0.61972123
0.25464812 -0.79358536 0.61284453
0.23343757 -0.79665267 0.61461651
0.28614229 -0.79992491 0.6189478
0.26133317 -0.80692899 0.6145488
0.24660456 -0.79771221 0.62115693
0.26361135 -0.80985272 0.62142354
0.24643803 -0.81180733 0.62263095
0.28090018 -0.78515255 0.6047157
0.25925511 -0.78801477 0.60767627
0.27876735 -0.7949059 0.60176092
0.27972564 -0.80034977 0.61122447
0.27369288 -0.80557609 0.60718942
0.26598224 -0.80607837 0.60576314
0.25880185 -0.80253983 0.61088556
0.24469864 -0.80033565 0.60871845
0.2484154 -0.81075788 0.61002517
0.29275891 -0.78100771 0.59219593
0.28631166 -0.78235239 0.59760725
0.26347587 -0.78924906 0.59837317
0.29278296 -0.79725432 0.59984154
0.26100147 -0.79529124 0.59845471
0.27680919 -0.80290222 0.59424788
0.27186412 -0.80274898 0.60067558
0.26220793 -0.80221707 0.59482437
0.23555093 -0.80337328 0.59991682
0.29684266 -0.77817225 0.58373404
0.28932035 -0.7877149 0.58616436
0.28239512 -0.79856884 0.58680236
0.24431017 -0.79907072 0.58555764
0.29948643 -0.80520743 0.59250718
0.28377435 -0.80129927 0.59295535
0.25931036 -0.80472636 0.58875847
0.30737361 -0.77399224 0.56986082
0.28161609 -0.77542984 0.57633644
0.29706851 -0.79008949 0.57426757
0.27406049 -0.79026377 0.58081365
0.29385588 -0.79702252 0.57872123
0.28969967 -0.79778874 0.58072352
0.31796619 -0.77222157 0.5606755
0.27061823 -0.77295232 0.56175637
0.30035949 -0.78272974 0.56726366
0.28628513 -0.77751434 0.56450248
0.31367233 -0.78991377 0.56563485
0.30274788 -0.79319477 0.56634539
0.2750411 -0.79975599 0.56744272
0.2957291 -0.77011335 0.55192
0.31330389 -0.77966112 0.55597919
0.30372819 -0.78146499 0.55877775
0.28747636 -0.78093785 0.55580133
0.31341711 -0.78949904 0.55568385
0.30345705 -0.7902087 0.55905592
0.2897718 -0.79697329 0.55593354
0.28603891 -0.78767759 0.55703193
0.29721394 -0.79956502 0.55527717
0.29236403 -0.80176443 0.5628984
0.32804769 -0.76794481 0.54644132
0.31477588 -0.77004409 0.54213285
0.29887342 -0.76717556 0.54918307
0.32650694 -0.77702945 0.54485524
0.31435761 -0.77742368 0.54341733
0.30595362 -0.77901858 0.54404128
0.29773122 -0.77885062 0.54609716
0.28615049 -0.7726056 0.54948038
0.31401888 -0.7884689 0.55025297
0.31398803 -0.78602868 0.5451827
0.30179217 -0.78750324 0.54326522
0.30916587 -0.79311442 0.547126
0.30260068 -0.79707503 0.54726726
0.28869367 -0.79227674 0.55135208
0.33812919 -0.763668 0.53220725
0.30930796 -0.76820475 0.5368219
0.30660054 -0.76606894 0.53852421
0.31922925 -0.77538657 0.53374571
0.32410035 -0.78419214 0.53601885
0.31496152 -0.78231615 0.54102302
0.30126238 -0.78181833 0.53613919
0.34130326 -0.79046082 0.5403738
0.31015831 -0.79649633 0.54399264
0.33896652 -0.76145202 0.52824122
0.31670657 -0.76203847 0.5243187
0.33250481 -0.77175456 0.52345014
0.32722053 -0.77203977 0.52604824
0.32325518 -0.77305317 0.52883142
0.31929657 -0.7743727 0.52311695
0.30499333 -0.78079057 0.53047454
0.32451898 -0.78184855 0.53130955
0.31670317 -0.78553396 0.52891397
0.32825407 -0.79353315 0.53128409
0.32310274 -0.79342765 0.53270817
0.31015915 -0.79302335 0.53372663
0.30105257 -0.79218394 0.53402734
0.34949756 -0.75727201 0.514368
0.34821066 -0.75939131 0.51797312
0.33090347 -0.76016563 0.5122835
0.37792265 -0.77203214 0.51363373
0.3457804 -0.76812261 0.51315457
0.33215275 -0.7686826 0.51424551
0.32386744 -0.77473921 0.51284927
0.31271663 -0.76795948 0.51222008
0.33504996 -0.77766854 0.51743633
0.32468709 -0.78130358 0.51540643
0.31266788 -0.77742893 0.51493979
0.33604708 -0.79035896 0.5214237
0.31905672 -0.78865284 0.51914078
0.359056 -0.7644906 0.50285894
0.34629673 -0.75930858 0.50164688
0.33502364 -0.76622343 0.50251937
0.32251498 -0.75785434 0.50870639
0.360852 -0.77291971 0.50560457
0.34492216 -0.77456355 0.50555682
0.33015519 -0.77238041 0.51129794
0.31206235 -0.77347744 0.50557774
0.34110633 -0.78114212 0.51110005
0.34899154 -0.78729028 0.51013923
0.33036187 -0.79022503 0.50987023
0.35912997 -0.75626618 0.49045926
0.34601384 -0.7577939 0.4922713
0.33850065 -0.75272369 0.49521008
0.32908884 -0.75365633 0.49390388
0.37802583 -0.76431763 0.49955672
0.35768205 -0.7682972 0.49203315
0.34281421 -0.76615286 0.49828821
0.34132588 -0.76398033 0.4974106
0.32428735 -0.75890487 0.50013494
0.3698017 -0.77490324 0.49509171
0.35434487 -0.77136183 0.49331653
0.34060562 -0.77491128 0.49628937
0.32463995 -0.77422094 0.50081176
0.34334886 -0.7848227 0.50064445
0.3155565 -0.78161818 0.49985996
0.37546992 -0.7888779 0.50101459
0.38560715 -0.75722659 0.4822678
0.3499479 -0.75994158 0.48507375
0.33568349 -0.74998683 0.48823193
0.39097017 -0.76124901 0.48827225
0.35217363 -0.76536429 0.48316041
0.32471496 -0.7681967 0.48606694
0.35611191 -0.76930839 0.48968989
0.35338065 -0.77289736 0.49220628
0.33551139 -0.77017653 0.48741597
0.32710555 -0.77245986 0.48786876
0.37488028 -0.7811529 0.48757023
0.35662442 -0.78119075 0.49034888
0.33827156 -0.77926224 0.49071628
0.31376714 -0.78693497 0.49303252
0.36095774 -0.74584746 0.47154516
0.33566272 -0.74945837 0.4791013
0.39888278 -0.75359464 0.4719722
0.37500635 -0.76098704 0.47285306
0.36625165 -0.75748605 0.47265562
0.35374829 -0.75298536 0.47872028
0.44484147 -0.76819682 0.47528481
0.38456947 -0.76463008 0.48056492
0.36553466 -0.76610672 0.47744951
0.34955502 -0.76169038 0.47927648
0.38782465 -0.77808422 0.47628573
0.36500046 -0.77580386 0.47788191
0.35601145 -0.77295691 0.47857568
0.34923804 -0.77073705 0.48055476
0.34462318 -0.7772125 0.47877148
0.32655334 -0.77800977 0.48349828
0.36965156 -0.78555584 0.48161232
0.36180606 -0.78111607 0.47778726
0.34223655 -0.74526036 0.46429873
0.44947022 -0.76010895 0.46324673
0.38521841 -0.75424439 0.46895012
0.37659067 -0.75497872 0.46628368
0.3714276 -0.75987566 0.46647921
0.3651602 -0.75636685 0.46990839
0.36040571 -0.75555849 0.47050926
0.44612622 -0.76995128 0.46969464
0.37702253 -0.76988631 0.46454811
0.35562846 -0.76809669 0.46582448
0.33128881 -0.76399869 0.47126436
0.40076905 -0.77501559 0.46500126
0.38317564 -0.77392673 0.46975774
0.35718769 -0.78049695 0.47133085
0.35365051 -0.77788806 0.47003061
0.34514841 -0.77606523 0.47091156
0.33481431 -0.77910733 0.47416934
0.39302707 -0.74445546 0.45421213
0.37979338 -0.74561661 0.45187479
0.43259218 -0.74850702 0.45590699
0.42761868 -0.74918681 0.4528999
0.39762971 -0.74713916 0.45689648
0.37291431 -0.74679554 0.45904279
0.35923553 -0.75288272 0.45370299
0.46193558 -0.76428878 0.45186684
0.3839747 -0.75658172 0.4581511
0.3771739 -0.7609483 0.46194345
0.33786267 -0.75980073 0.45646185
0.41371346 -0.77194679 0.45371675
0.39645123 -0.77029473 0.45946211
0.38561177 -0.76939678 0.45593798
0.37067035 -0.77198648 0.4563432
0.36762223 -0.77269959 0.4584671
0.35545945 -0.77326941 0.45708925
0.43324 -0.78018653 0.46253863
0.39336896 -0.77726614 0.45657268
0.37077448 -0.77671081 0.46308526
0.3627263 -0.78134483 0.46501178
0.34127748 -0.77689236 0.46388456
0.32691488 -0.778539 0.46342742
0.43870956 -0.74269867 0.44108549
0.41137007 -0.74225521 0.44596815
0.40495983 -0.74072051 0.44149584
0.39790753 -0.73984653 0.44688481
0.38604498 -0.74058068 0.44551188
0.38270065 -0.73775887 0.44475353
0.36981636 -0.74473572 0.44403547
0.36220047 -0.7455157 0.44875062
0.34881043 -0.7410624 0.44949621
0.42014563 -0.7521956 0.44300547
0.39139625 -0.75094479 0.44604
0.43465927 -0.7652024 0.44313088
0.42632401 -0.76310933 0.44778559
0.40949157 -0.75758839 0.4455817
0.38614711 -0.75764984 0.44934219
0.37894702 -0.76070321 0.44344705
0.36699104 -0.75882488 0.4468894
0.46865737 -0.76813787 0.44398326
0.45330414 -0.76873505 0.44548357
0.44242677 -0.77055955 0.44908771
0.43202683 -0.77009946 0.44664615
0.4097268 -0.76666272 0.44916657
0.39189118 -0.77112353 0.45148486
0.37814039 -0.77201307 0.45068422
0.3719089 -0.77811021 0.45278221
0.45198509 -0.73906666 0.43078989
0.43086356 -0.73827541 0.43553245
0.37489733 -0.73655689 0.43759823
0.36257491 -0.73780942 0.43752229
0.44926924 -0.74060929 0.43733147
0.43404865 -0.74120122 0.43881881
0.40160826 -0.74560326 0.4362165
0.38088462 -0.74639285 0.43342781
0.37249467 -0.74492931 0.43555713
0.36882198 -0.74128717 0.43384069
0.42801455 -0.75545961 0.43224949
0.41293424 -0.75673157 0.43298912
0.397854 -0.75800347 0.43372875
0.39467087 -0.7542547 0.43638006
0.38643795 -0.75133967 0.43583813
0.37899718 -0.75399941 0.43383271
0.34443653 -0.75560272 0.44165927
0.42300239 -0.76303071 0.43887097
0.41245845 -0.76027536 0.43990952
0.39446574 -0.75998515 0.44093943
0.37893891 -0.76306045 0.44080392
0.37136295 -0.76480556 0.44007242
0.36578012 -0.76022482 0.43875301
0.40522578 -0.77343798 0.43573567
0.38446581 -0.77125907 0.43828306
0.38064206 -0.77477884 0.44019172
0.37210768 -0.77113849 0.44165355
0.43560889 -0.73451465 0.42410174
0.42219388 -0.73603892 0.42363474
0.40622097 -0.73505002 0.42456982
0.38101858 -0.73760033 0.4208847
0.46441734 -0.74502563 0.42819265
0.39704287 -0.74272013 0.42472243
0.44309482 -0.75418764 0.43150982
0.43399638 -0.75779849 0.42563528
0.41877589 -0.75839043 0.42712259
0.4123452 -0.7548753 0.43116289
0.39024121 -0.75099707 0.42981565
0.37297127 -0.75740069 0.4325707
0.36158893 -0.7561841 0.42555958
0.35101038 -0.75140476 0.42685673
0.40355536 -0.75898236 0.42860997
0.39857486 -0.76224291 0.42484072
0.38386649 -0.76091319 0.42699963
0.37888685 -0.76650548 0.42684019
0.45927647 -0.76824594 0.43256962
0.41708642 -0.76897651 0.43153301
0.39331397 -0.77300841 0.42681217
0.38871118 -0.76790011 0.43368131
0.37983418 -0.77403927 0.43298346
0.41506523 -0.7305758 0.41916257
0.40132302 -0.72827917 0.41406578
0.40749604 -0.73424208 0.41379696
0.39085713 -0.73672354 0.41830251
0.40876681 -0.74840814 0.42032379
0.39051294 -0.74484396 0.41827112
0.38950482 -0.74574447 0.41921139
0.37647474 -0.74329305 0.42045364
0.41817123 -0.75142491 0.41650027
0.41176888 -0.7567457 0.41887119
0.40394819 -0.75156707 0.42047754
0.3934195 -0.76688355 0.42038369
0.38917309 -0.76449513 0.42393348
0.38114825 -0.76186103 0.42116195
0.42867163 -0.77177745 0.41901112
0.41004613 -0.76971799 0.42360258
0.37570989 -0.77015281 0.42200887
0.41780168 -0.72590572 0.40306392
0.41583198 -0.72678095 0.40647519
0.38679266 -0.73323447 0.40581453
0.44683021 -0.73518854 0.40675825
0.41201273 -0.7405985 0.40742314
0.40363503 -0.73762429 0.40230522
0.4064036 -0.75166082 0.40925658
0.40074003 -0.74591082 0.4070411
0.39269242 -0.75147396 0.40571457
0.40065411 -0.75734073 0.40866038
0.38719246 -0.75640148 0.41092795
0.41448399 -0.76980466 0.40705383
0.40631181 -0.76416296 0.40928113
0.40014079 -0.76618975 0.41185629
0.38591558 -0.76403409 0.41077143
0.39944491 -0.73154265 0.39855638
0.44485864 -0.74178565 0.40101475
0.43125573 -0.74160033 0.39750069
0.41765276 -0.74141496 0.39398667
0.46264365 -0.74965096 0.39518806
0.4482452 -0.75046289 0.3937037
0.43566123 -0.76678503 0.40375268
0.41976669 -0.76758736 0.40199605
0.42953229 -0.72552085 0.38569054
0.41525117 -0.72632617 0.38421828
0.4103272 -0.72226578 0.38555336
0.43809384 -0.73684323 0.38249934
0.4338468 -0.75127476 0.39221936
0.41944844 -0.7520867 0.39073503
0.44667938 -0.75641972 0.3885262
0.39452761 -0.7662245 0.39312667
0.44902572 -0.71662349 0.37563193
0.45227498 -0.7231822 0.37631181
0.44060564 -0.72224313 0.37051532
0.4279677 -0.73340845 0.37940776
0.41885859 -0.72949201 0.37503082
0.41255412 -0.73591524 0.37339434
0.45677376 -0.74510777 0.38098115
0.44502097 -0.7441619 0.37514326
0.41679949 -0.75951666 0.37864062
0.44860616 -0.72759932 0.36971971
0.43326816 -0.74321622 0.36930534
0.45943055 -0.75788611 0.36941776
0.44032082 -0.75049269 0.37034029
0.42755091 -0.75002867 0.3657878
0.44913846 -0.75940847 0.37199256
0.45081645 -0.74114668 0.35765171
0.42151535 -0.74227041 0.36346745
0.46090162 -0.75421029 0.36273855
0.43592495 -0.75599456 0.35774192
0.44588149 -0.74761844 0.34755275
