# .PCD v0.7 - Point Cloud Data file format
VERSION 0.7
FIELDS x y z
SIZE 4 4 4
TYPE F F F
COUNT 1 1 1
WIDTH 136
HEIGHT 1
VIEWPOINT 0 0 0 1 0 0 0
POINTS 136
DATA ascii
1.1986865 0.06484101 0.16168994
1.190491 0.056607515 0.1614477
1.1855224 0.062740095 0.16706826
1.2036263 0.059225589 0.15458663
1.1662301 0.057806518 0.15142629
1.1846046 0.047538754 0.15568542
1.1714406 0.045437835 0.16106373
1.2078418 0.03042772 0.15569268
1.1945747 0.028310368 0.16111305
1.2009028 0.070644148 0.13965102
1.2109326 0.051740587 0.14492877
1.1977687 0.049639672 0.15030709
1.1891955 0.041050557 0.14986385
1.2211087 0.032545067 0.15027231
1.2125053 0.024034161 0.14824165
1.1705227 0.030236498 0.14968091
1.1922789 0.013334347 0.15222383
1.2053248 0.065598741 0.13100563
1.2023307 0.043668635 0.14300281
1.1649448 0.042372394 0.13993391
1.1878997 0.025493605 0.13828002
1.2201837 0.017224841 0.13880043
1.2069167 0.01510749 0.14422081
1.2183563 0.068196148 0.12419875
1.1636596 0.026938276 0.12844153
1.1979301 0.018988127 0.13647892
1.2200298 -0.0045124646 0.13986893
1.2059916 -0.00021273643 0.13274895
1.2230968 -0.016151685 0.13671315
1.2030776 0.076360963 0.11793821
1.2313879 0.070793554 0.11739187
1.2040395 0.050164618 0.11951326
1.2141702 0.030729761 0.1245579
1.2049522 0.024297703 0.11815135
1.1997395 0.012554729 0.11983512
1.1702703 0.012760667 0.12153257
1.1866043 0.0099366512 0.12669617
1.1928461 0.0011732411 0.12762883
1.2149725 -0.012056382 0.1317554
1.2301025 0.055359431 0.10589948
1.2021737 0.061392263 0.10672958
1.2333531 0.016669076 0.11718865
1.2128747 0.015172809 0.11297407
1.2231867 8.9446083e-05 0.12009155
1.2081792 0.0061365766 0.11078024
1.1924572 -0.0043107849 0.11409917
1.1853087 -0.0056203045 0.11511233
1.2057016 0.056565434 0.096363321
1.20127 0.046423562 0.095520929
1.2157855 0.037327908 0.10121401
1.2119744 0.029607277 0.099823818
1.2213433 0.0082374942 0.10540194
1.1821291 0.016905498 0.10901274
1.2302411 -0.00040213205 0.10551779
1.1998682 0.0064828154 0.10930127
1.2130337 -0.0070286542 0.10428239
1.1984439 -0.0030022245 0.10825129
1.1672111 -0.0040202886 0.11006014
1.2043188 0.067137197 0.085426241
1.2464689 0.046259768 0.086732395
1.2418486 0.042522721 0.087600231
1.2288171 0.039925314 0.094407111
1.2145001 0.021893784 0.08972162
1.1939877 0.021050327 0.096492901
1.2459067 0.0057616923 0.092197679
1.2068905 0.011792392 0.090973727
1.2263436 0.0046913549 0.10031415
1.2115792 -0.00038414635 0.10139022
1.2044175 -0.00013046525 0.10147215
1.204046 -0.0034789331 0.099403352
1.1947842 -0.011332072 0.10045118
1.2342991 0.08316233 0.071539178
1.2189966 0.034916852 0.081496261
1.2133287 0.033523627 0.079016276
1.2314235 0.025154812 0.087788746
1.2275317 0.024491195 0.08291474
1.2003661 0.031454857 0.084312283
1.2378497 0.0048520118 0.087668106
1.2297817 0.013247768 0.086000688
1.2190686 -0.0019177012 0.085262686
1.2034218 0.052282244 0.074302785
1.2419935 0.036573894 0.076440565
1.2405632 0.027088601 0.076107845
1.2490903 0.010402702 0.072252251
1.228338 0.008230174 0.076218106
1.2132148 0.006459666 0.078229249
1.2307111 0.0020935591 0.073134497
1.2246535 -0.0047224816 0.07707341
1.2092472 0.001197217 0.080030821
1.2458625 0.070525184 0.053524416
1.2330337 0.06796816 0.060225472
1.2561433 0.051560529 0.057947271
1.2444818 0.054410603 0.057886042
1.2490768 0.041929778 0.05795319
1.2666262 0.032283414 0.062494081
1.2295638 0.033484817 0.058933444
1.2397881 0.012032487 0.064103283
1.2124249 0.01855492 0.06780763
1.2525221 0.0030120043 0.066096485
1.225104 0.003193249 0.066242985
1.222474 -0.00060721301 0.072501794
1.2856148 0.093390428 0.044734951
1.2586915 0.073082209 0.04682336
1.2690728 0.054137558 0.0511938
1.2317681 0.052773993 0.048911761
1.2153889 0.039480336 0.05792354
1.2796578 0.034880824 0.0556872
1.2653409 0.016849294 0.051001705
1.252274 0.015043712 0.052306823
1.2843493 0.078196265 0.033421244
1.2715204 0.07563924 0.0401223
1.2414228 0.037629649 0.046413623
1.2783725 0.019446701 0.044194825
1.2406636 0.018357504 0.041896358
1.2311392 0.008304202 0.047223285
1.2971783 0.080753297 0.026720185
1.270255 0.06044507 0.028808594
1.2807267 0.041401576 0.033038154
1.2305028 0.037579827 0.037598062
1.2554576 0.019684723 0.032361396
1.2383635 0.020848695 0.034941204
1.253536 0.0096259378 0.040785313
1.3100073 0.083310314 0.020019133
1.295913 0.065559119 0.015406482
1.2830839 0.063002102 0.022107538
1.2794513 0.02608858 0.021635963
1.3087418 0.068116151 0.0087054223
1.2818185 0.047807924 0.010793835
1.2923806 0.028665602 0.014882496
1.295783 0.022117576 0.014686201
1.2946476 0.050364949 0.004092779
1.3053099 0.031242626 0.0081290267
1.3074764 0.052921981 -0.0026082806
1.2990218 0.026838858 -0.005604215
1.306211 0.037727814 -0.013921984
1.3197351 0.028129397 -0.014853621
