# .PCD v0.7 - Point Cloud Data file format
VERSION 0.7
FIELDS x y z
SIZE 4 4 4
TYPE F F F
COUNT 1 1 1
WIDTH 338
HEIGHT 1
VIEWPOINT 0 0 0 1 0 0 0
POINTS 338
DATA ascii
0.81555712 0.41294238 -2.7506595
0.80178291 0.41245407 -2.7488713
0.81603807 0.39396435 -2.7477696
0.76878357 0.42198989 -2.7531486
0.85687989 0.41440743 -2.7560239
0.84241557 0.41335601 -2.7548597
0.82933146 0.41343072 -2.7524476
0.80837917 0.41509226 -2.7592845
0.77309245 0.41348079 -2.7522118
0.84358656 0.394941 -2.7513461
0.82981235 0.39445266 -2.749558
0.82280672 0.3965812 -2.7578273
0.80892009 0.3960039 -2.7561438
0.75264943 0.38904032 -2.7535899
0.84468257 0.42805359 -2.769506
0.83031505 0.42819649 -2.7686105
0.81594735 0.42833942 -2.767715
0.76345062 0.42326513 -2.766407
0.85003912 0.41682416 -2.7643356
0.847435 0.41076455 -2.7649117
0.83632511 0.41694322 -2.7647409
0.82226586 0.41566965 -2.7609682
0.7747404 0.41558534 -2.7611039
0.76941776 0.41778746 -2.7678847
0.85898083 0.40813354 -2.7674575
0.84461331 0.40827644 -2.7665617
0.83024561 0.4084194 -2.765666
0.81587797 0.40856236 -2.7647707
0.77287829 0.40713871 -2.768121
0.83669335 0.39715847 -2.7595112
0.83325166 0.39152354 -2.7605333
0.81912094 0.3917025 -2.7593064
0.7770102 0.3987425 -2.7661815
0.84454381 0.38849935 -2.7636173
0.83017617 0.38864231 -2.7627218
0.81580853 0.38878521 -2.7618263
0.82197839 0.37806305 -2.7643557
0.77612925 0.38118643 -2.761528
0.80061007 0.41765314 -2.7793453
0.77001745 0.42382258 -2.7797844
0.75821459 0.42433131 -2.7795105
0.87421292 0.41629392 -2.7804859
0.86089069 0.41588473 -2.7781506
0.83424616 0.41506642 -2.7734802
0.82092392 0.41465732 -2.7711449
0.77864307 0.40090632 -2.7757025
0.75479269 0.40813476 -2.7681358
0.86375695 0.39814705 -2.7745528
0.86141789 0.3975876 -2.774756
0.84809572 0.3971785 -2.7724209
0.83477336 0.39676929 -2.7700856
0.80822426 0.39617828 -2.7673435
0.80115521 0.39841288 -2.7761793
0.76704538 0.39185274 -2.769995
0.74933982 0.39291596 -2.7694147
0.77104574 0.38361663 -2.7673678
0.84949064 0.37870407 -2.7694321
0.83588797 0.37825334 -2.7673631
0.80985749 0.43309274 -2.7880976
0.78584802 0.43457517 -2.7881131
0.87176955 0.42071956 -2.7891369
0.85821587 0.42100313 -2.7901983
0.82876164 0.42125693 -2.7897089
0.79980361 0.41655025 -2.7870455
0.86847627 0.41386467 -2.7884352
0.83998632 0.41422534 -2.7859616
0.82574129 0.41440567 -2.7847252
0.80979598 0.41333449 -2.7850246
0.7693637 0.41195434 -2.7839901
0.87114108 0.40132248 -2.7846646
0.85714394 0.40074056 -2.7829678
0.84336185 0.40083805 -2.7870696
0.81375921 0.39852518 -2.7859783
0.80033493 0.39811295 -2.7836251
0.77330965 0.40307957 -2.7819648
0.76541126 0.40521261 -2.7784517
0.85417831 0.39446813 -2.7840211
0.81144321 0.3950091 -2.7803109
0.75949854 0.39023519 -2.7800879
0.84369195 0.38091832 -2.778105
0.81429052 0.380088 -2.7825577
0.77268875 0.3858234 -2.7773502
0.82563525 0.37525186 -2.7783706
0.77168196 0.43205601 -2.7979853
0.76668459 0.42772543 -2.7957201
0.75362641 0.43110493 -2.7985067
0.81322789 0.41696247 -2.7893987
0.79978675 0.41770306 -2.7901268
0.77557367 0.42254254 -2.7965615
0.76119328 0.41239986 -2.797008
0.82718343 0.39893746 -2.7883313
0.75022048 0.40119725 -2.7883835
0.86596805 0.39156729 -2.7872045
0.82149839 0.39515334 -2.7886932
0.76353073 0.39666834 -2.7858639
0.88141191 0.38214943 -2.7943237
0.86798763 0.38173714 -2.7919703
0.77782017 0.43705079 -2.8066316
0.74078894 0.4344399 -2.8013098
0.87587154 0.42079556 -2.8026848
0.8313241 0.42025411 -2.8023171
0.81647491 0.42007354 -2.8021948
0.80266523 0.41900244 -2.8034859
0.80039579 0.41428187 -2.8056982
0.79061341 0.41859019 -2.8046043
0.76584899 0.41677001 -2.799859
0.8314032 0.39978975 -2.799423
0.81655401 0.39960933 -2.7993004
0.81394207 0.39703667 -2.8052456
0.80214912 0.39813426 -2.8009889
0.79085428 0.39943206 -2.8012793
0.7557022 0.39707434 -2.7982957
0.86434895 0.3843928 -2.8018534
0.86111188 0.37879878 -2.800127
0.84633136 0.37950602 -2.7966514
0.8361305 0.38321966 -2.7984321
0.82202119 0.38263306 -2.7967212
0.75482428 0.4411163 -2.8161757
0.81255156 0.43240267 -2.8124585
0.80530727 0.44006684 -2.815062
0.80026096 0.43576995 -2.8117263
0.76816726 0.43687171 -2.8138542
0.82089514 0.42493519 -2.8129737
0.80604386 0.42506316 -2.8127267
0.88987285 0.41702107 -2.8123803
0.80019045 0.41566536 -2.8087332
0.76233429 0.42158574 -2.8157279
0.75786042 0.41630274 -2.8129437
0.74486375 0.41976172 -2.8156104
0.86532092 0.40408835 -2.810806
0.83561844 0.40434429 -2.8103123
0.82076716 0.4044722 -2.8100653
0.80591589 0.40460017 -2.8098185
0.77957171 0.40776521 -2.8109913
0.77176207 0.41018045 -2.8073471
0.875458 0.39746603 -2.8079302
0.81472546 0.39541543 -2.8066506
0.80629224 0.40119746 -2.8091433
0.76580769 0.39509749 -2.8089948
0.75236934 0.40097713 -2.8142314
0.86519295 0.38362536 -2.8078976
0.85034174 0.38375333 -2.8076508
0.8352434 0.38332206 -2.8086252
0.78273404 0.44210547 -2.8260884
0.77838087 0.44375238 -2.8285601
0.76966381 0.43956289 -2.825423
0.80485159 0.43456683 -2.8292308
0.76817238 0.43121648 -2.8281281
0.74803662 0.43804893 -2.8263168
0.89043391 0.42363265 -2.8230901
0.79890627 0.42348421 -2.8221207
0.79343605 0.4232963 -2.8257647
0.78291404 0.42334637 -2.82394
0.7742759 0.42990041 -2.8215215
0.74903256 0.4259384 -2.8180366
0.89092642 0.40419793 -2.8201303
0.88336766 0.4037503 -2.8235872
0.86839235 0.4035683 -2.8234639
0.85341698 0.40338629 -2.8233402
0.79946035 0.40393311 -2.8189037
0.79351574 0.40265813 -2.8228459
0.78437579 0.40253401 -2.8208654
0.75650132 0.40629974 -2.8176019
0.73941088 0.40454292 -2.816889
0.79330605 0.39849755 -2.8187873
0.8773132 0.38426307 -2.81534
0.79720694 0.44270286 -2.8356187
0.78298712 0.44219869 -2.8337727
0.75133443 0.44589791 -2.8319328
0.71958971 0.43917936 -2.8381588
0.83074427 0.43544909 -2.8355846
0.7979148 0.42880371 -2.8363755
0.7708354 0.43453747 -2.8373439
0.74554265 0.43072009 -2.8337932
0.73248529 0.43497992 -2.8360057
0.79770339 0.42311093 -2.8326354
0.78348362 0.42260683 -2.8307893
0.74216509 0.42317587 -2.8279417
0.83144456 0.41763496 -2.8319516
0.81849831 0.41719386 -2.8287745
0.7921561 0.41930896 -2.8312864
0.77584481 0.4121331 -2.8268869
0.75298667 0.41111538 -2.8334711
0.88765049 0.40739259 -2.8349364
0.79799283 0.40584293 -2.831547
0.7828083 0.40829584 -2.8331935
0.8068127 0.39888978 -2.8291864
0.76236719 0.39973453 -2.8248172
0.88643789 0.38734275 -2.8290186
0.79704225 0.43676624 -2.8462753
0.77598321 0.44529682 -2.8447294
0.77216953 0.43906695 -2.8458643
0.76150894 0.44340599 -2.8437393
0.75104421 0.4393208 -2.8462486
0.74652761 0.44280514 -2.8417501
0.73778331 0.44303447 -2.8485258
0.78399903 0.43632179 -2.8430748
0.77095592 0.43587744 -2.8398738
0.76447183 0.43555352 -2.8439114
0.73877239 0.42774844 -2.8435438
0.78533393 0.42027587 -2.8428051
0.77609968 0.42462447 -2.8424406
0.77318859 0.42137399 -2.842473
0.7782377 0.4152202 -2.8367
0.77188963 0.41721556 -2.8394978
0.74583268 0.40865362 -2.8429339
0.79143971 0.40647119 -2.8399813
0.78619629 0.40245581 -2.8392792
0.77665079 0.40533394 -2.8390687
0.77420771 0.40368089 -2.839082
0.76143301 0.40287751 -2.8353598
0.89823478 0.38745594 -2.8395908
0.7722826 0.44613251 -2.8536756
0.72474527 0.44669929 -2.8508272
0.71181446 0.45030928 -2.8529959
0.79891014 0.4433099 -2.8581898
0.78494418 0.43987045 -2.8495865
0.76283586 0.43810517 -2.8571417
0.76031274 0.44437057 -2.8528268
0.74969435 0.43765733 -2.8539166
0.73833001 0.43916613 -2.8546672
0.78510052 0.42675486 -2.8498445
0.76999694 0.42657125 -2.8497198
0.70601368 0.43559849 -2.8541498
0.78398657 0.42301407 -2.8542206
0.77514923 0.42512691 -2.85168
0.7747727 0.41989028 -2.8526349
0.76354676 0.42002246 -2.8534541
0.76081324 0.42461869 -2.8498192
0.73935664 0.42134187 -2.8512509
0.72487801 0.42259443 -2.8505003
0.74947196 0.41593105 -2.84934
0.73290092 0.41287526 -2.8451686
0.79876661 0.40242279 -2.8521028
0.78998566 0.40588328 -2.8505335
0.78557998 0.40458918 -2.8478279
0.77564973 0.405375 -2.8486724
0.77007735 0.40575644 -2.8467758
0.8909862 0.38641024 -2.8448288
0.70821548 0.45452723 -2.868346
0.73912412 0.44428498 -2.8614993
0.7640689 0.44078481 -2.8621674
0.75119948 0.43997547 -2.8584173
0.72527599 0.4438597 -2.8590717
0.78964108 0.43260539 -2.8604107
0.77139133 0.43052411 -2.8615053
0.76736861 0.42611602 -2.8628256
0.75942969 0.43286568 -2.8599083
0.7536552 0.42670125 -2.8607481
0.74144679 0.42860731 -2.8630998
0.72825259 0.43239561 -2.8652594
0.80297112 0.42136574 -2.8631287
0.76839083 0.42086884 -2.8586781
0.76509547 0.42296064 -2.8587511
0.75480676 0.42476463 -2.8608811
0.73967218 0.42526546 -2.8579705
0.77440524 0.41192198 -2.8572013
0.76132393 0.45109338 -2.8772514
0.74135274 0.43991646 -2.8714297
0.72992092 0.44090033 -2.8711798
0.7795009 0.42901811 -2.8711131
0.76140499 0.43009824 -2.8742819
0.75531042 0.4221476 -2.8709633
0.75090116 0.45773935 -2.8874056
0.79072589 0.44724897 -2.8815379
0.7757479 0.44739798 -2.880604
0.76076996 0.44754693 -2.8796704
0.74579203 0.44769588 -2.8787367
0.71651012 0.44648778 -2.8787432
0.75076985 0.43674552 -2.8844218
0.71165621 0.44038096 -2.8829024
0.77567554 0.42678079 -2.8775344
0.75879204 0.42575169 -2.8759475
0.74571961 0.42707878 -2.8756671
0.73102093 0.42774558 -2.8776333
0.7658751 0.41562051 -2.8816915
0.77122045 0.45318013 -2.8972538
0.7569499 0.45186153 -2.8966992
0.74295133 0.44983831 -2.8955417
0.74152988 0.45355594 -2.8946764
0.73288333 0.44221008 -2.8892105
0.72138834 0.44266248 -2.8879559
0.77116513 0.43277824 -2.8939428
0.75803351 0.43027595 -2.894376
0.74520397 0.42703229 -2.8906121
0.73360521 0.42385057 -2.8854663
0.72243047 0.42456964 -2.8844881
0.73707741 0.45170325 -2.902441
0.72197127 0.45185363 -2.9014995
0.71272755 0.44445235 -2.9049938
0.7370044 0.43090963 -2.8993452
0.7218982 0.43105984 -2.8984036
0.75068384 0.45411551 -2.9100277
0.72428149 0.44453821 -2.9072585
0.75125641 0.43391073 -2.9067032
0.70287603 0.46463954 -2.9258134
0.7327981 0.45755515 -2.9178905
0.71299255 0.45594233 -2.9256742
0.73405838 0.45264369 -2.9174554
0.71272737 0.45230103 -2.9214823
0.70393413 0.44626957 -2.9222925
0.76268506 0.43660095 -2.917151
0.74771374 0.43679044 -2.9158511
0.73274225 0.43697992 -2.9145515
0.7345714 0.43239686 -2.9143724
0.71480972 0.46554536 -2.9293745
0.74197048 0.45715636 -2.9325423
0.7271477 0.45654011 -2.9307451
0.74254781 0.43678129 -2.9291897
0.72772509 0.43616506 -2.9273925
0.72391176 0.46161973 -2.941483
0.69310248 0.4671239 -2.9440153
0.72501552 0.45549637 -2.9397392
0.70365411 0.45506802 -2.9421847
0.69500345 0.44811383 -2.9398508
0.69300652 0.44883165 -2.9407992
0.6816377 0.44727331 -2.9359565
0.71815771 0.45962605 -2.9536173
0.70488524 0.46409169 -2.9491053
0.70320916 0.45900458 -2.9518049
0.68847674 0.46024859 -2.94927
0.72031856 0.44976225 -2.9475019
0.70666248 0.44929698 -2.9441504
0.68400288 0.46942601 -2.9624126
0.71581686 0.4583962 -2.9623921
0.69965833 0.46595827 -2.9642305
0.70087188 0.45786634 -2.9604521
0.69441557 0.45787027 -2.9631543
0.68491048 0.45430431 -2.959116
0.67098212 0.45680675 -2.9565716
0.71488875 0.46576539 -2.9655528
0.67885596 0.46150815 -2.9732058
0.66205436 0.46983033 -2.9753883
0.69393259 0.46213496 -2.9750338
0.69033456 0.47017121 -2.9886658
0.67497134 0.47036567 -2.9873319
0.65960819 0.4705601 -2.9859979
0.68502849 0.46072197 -2.9844923
