# .PCD v0.7 - Point Cloud Data file format
VERSION 0.7
FIELDS x y z
SIZE 4 4 4
TYPE F F F
COUNT 1 1 1
WIDTH 1356
HEIGHT 1
VIEWPOINT 0 0 0 1 0 0 0
POINTS 1356
DATA ascii
1.1464957 -0.035574175 -1.166381
1.1242957 -0.04740864 -1.1651595
1.1535194 -0.028000623 -1.1825297
1.1276281 -0.025888607 -1.1797162
1.1549492 -0.043186508 -1.1823182
1.1307898 -0.042970493 -1.1793499
1.1635573 -0.035460904 -1.1919878
1.1440995 -0.039502293 -1.1864903
1.1354306 -0.042458743 -1.184527
1.1140693 -0.015740812 -1.1980532
1.1361247 -0.028172776 -1.1963404
1.1553575 -0.03930214 -1.193302
1.1372839 -0.038532332 -1.1935401
1.1328253 -0.039308667 -1.201105
1.1425143 -0.02409251 -1.2107279
1.1437781 -0.03409417 -1.2077307
1.1216731 -0.032024607 -1.2029238
1.1282288 -0.037504241 -1.2067213
1.1633493 -0.020996854 -1.2217164
1.1484894 -0.033150539 -1.2211064
1.1249851 -0.013445899 -1.228953
1.1627779 -0.01275526 -1.2436535
1.1567662 -0.025217861 -1.2361114
1.1399437 -0.028646454 -1.2372965
1.1436838 -0.00061294436 -1.2472023
1.1293429 -0.0073940903 -1.2447609
1.1538105 -0.018391252 -1.2482988
1.1482494 -0.027210116 -1.2472528
1.1389594 -0.026681647 -1.248903
1.1383097 0.0068340749 -1.263549
1.1368233 -0.0037196875 -1.2570235
1.1686777 -0.0082942396 -1.2590519
1.1512676 -0.017506793 -1.2527542
1.1341451 -0.0067513734 -1.2714546
1.1644063 -0.023262024 -1.2664877
1.144451 -0.020127773 -1.2624524
1.1333953 -0.019335553 -1.2648429
1.1630644 0.00047196448 -1.2789394
1.1773585 -0.010564461 -1.2782574
1.1519812 -0.016428933 -1.2747965
1.1516496 -0.018577963 -1.2774776
1.1595112 -0.012730092 -1.2871406
1.1703061 -0.018801004 -1.2818862
1.1760672 -0.015459731 -1.2962797
1.145998 -0.011287645 -1.2932208
1.1403323 -0.0040727109 -1.3087587
1.1999469 0.033647835 -1.324199
1.1730199 0.036106601 -1.3264034
1.1821059 -0.0098789632 -1.3126832
1.1737059 -0.0094923973 -1.3144826
1.1928215 0.042957067 -1.3313783
1.2268178 0.037853897 -1.335142
1.1827872 0.022784859 -1.3277533
1.1508346 0.029683709 -1.3331132
1.193764 0.017968282 -1.325429
1.1875811 0.0022887737 -1.3266588
1.2055455 0.042773604 -1.3431314
1.1694022 0.041063219 -1.342737
1.1580588 0.043922216 -1.3449712
1.1811271 0.038113669 -1.3392768
1.2164664 0.029940292 -1.3392708
1.1792204 0.027591616 -1.3441545
1.1474253 0.026910901 -1.336738
1.1447847 0.014341086 -1.3343168
1.1413968 0.01080735 -1.3391323
1.2033703 0.0019333065 -1.3354994
1.1742115 0.0020072907 -1.3333386
1.1527648 0.048308849 -1.3558332
1.142671 0.04469578 -1.355211
1.1608566 0.036920533 -1.3531913
1.1563617 0.037060767 -1.350392
1.1497035 0.037096709 -1.3542479
1.134464 0.036386579 -1.3462027
1.1316453 0.033946738 -1.3515476
1.2135698 0.023783863 -1.3477182
1.1633985 0.025329798 -1.3446656
1.1521852 0.027767539 -1.3467126
1.1284571 0.021152943 -1.3473977
1.1730483 0.011956692 -1.3458625
1.1937352 0.0098120421 -1.3459009
1.1838893 0.0089453906 -1.3503977
1.1705673 0.0070005208 -1.3497928
1.1642801 -0.0051246583 -1.3434238
1.1489508 0.038932532 -1.361746
1.1420177 0.043769121 -1.3646183
1.1468048 0.03268984 -1.3577479
1.136276 0.032504976 -1.3606671
1.1561542 0.019952923 -1.3586994
1.1506871 0.022582605 -1.3570436
1.1830389 0.014155373 -1.3597285
1.1652881 0.017175183 -1.3543384
1.1408447 0.017070815 -1.3596627
1.1390711 0.015363768 -1.3564981
1.1733468 0.0063997209 -1.3543544
1.1582814 0.0017208308 -1.3578
1.134981 0.0033976287 -1.3515296
1.1477095 0.044967264 -1.3709062
1.1444727 0.04004696 -1.3690164
1.1390256 0.044105768 -1.3654526
1.1304771 0.039938807 -1.3706481
1.1221707 0.044022888 -1.3712823
1.1401052 0.026424661 -1.3720962
1.1332685 0.027257591 -1.364259
1.1481916 0.025200143 -1.3701448
1.1434963 0.02267009 -1.3670174
1.1372775 0.023139358 -1.3663354
1.1443222 0.013490275 -1.366074
1.1312275 0.0077967495 -1.3675388
1.1633096 0.0011285096 -1.3639718
1.1489366 0.0014240891 -1.3638387
1.1446608 0.0018249005 -1.3689229
1.1409007 0.048488662 -1.3825091
1.1366408 0.047096699 -1.3805642
1.1270101 0.04512237 -1.3779941
1.1357338 0.036957994 -1.3782288
1.1083935 0.038628861 -1.3757379
1.0989922 0.043188944 -1.3794602
1.1419891 0.02846396 -1.3753648
1.1278735 0.033667788 -1.3776505
1.1246159 0.034237638 -1.3807908
1.1181058 0.029778928 -1.3783585
1.1538695 0.024581656 -1.3745782
1.1503496 0.017314553 -1.3766093
1.1372534 0.021991402 -1.3758774
1.1420702 0.0088663995 -1.371776
1.1340219 0.011015147 -1.3737795
1.103317 0.01324971 -1.3769151
1.1522307 0.0031792074 -1.3729085
1.148132 0.04988116 -1.3891636
1.1439683 0.047503158 -1.386897
1.1396222 0.042531028 -1.3901774
1.1277853 0.048268154 -1.3859363
1.1133209 0.042801723 -1.3912666
1.1121902 0.050437152 -1.3904864
1.1050611 0.0473364 -1.3927212
1.1404487 0.040580183 -1.3888353
1.1489105 0.029474631 -1.3882426
1.1428422 0.029785514 -1.3868334
1.135057 0.029350296 -1.3853029
1.1323217 0.029874548 -1.3842716
1.12468 0.027668312 -1.382529
1.1170115 0.024654806 -1.3841377
1.1473157 0.015838653 -1.384969
1.1402371 0.020115599 -1.382569
1.1211252 0.018551812 -1.3850412
1.1162684 0.020992145 -1.3821136
1.1401668 0.009694308 -1.386767
1.1371477 0.011652738 -1.3841401
1.1622571 0.0050178617 -1.3801897
1.1343634 0.0039609522 -1.38431
1.1394709 0.052258641 -1.4015713
1.1320673 0.052254125 -1.3987236
1.1214155 0.055314898 -1.4009902
1.1182007 0.054275319 -1.4040201
1.1405802 0.050160989 -1.3968649
1.1358203 0.047280252 -1.3971506
1.1419903 0.037955746 -1.3961492
1.1171129 0.040832683 -1.3957615
1.1099969 0.037048027 -1.3955582
1.1535292 0.029203668 -1.3928835
1.1465421 0.024466246 -1.395595
1.13581 0.024421796 -1.3954281
1.1104177 0.029908851 -1.3983999
1.1366912 0.016874462 -1.3980805
1.130507 0.015752599 -1.3899443
1.1206275 0.014196828 -1.3897899
1.1476554 0.012613878 -1.3966087
1.1415887 0.0095025599 -1.3939749
1.112985 0.011519864 -1.3917812
1.1590629 0.050415456 -1.4074636
1.1485543 0.054795012 -1.4074211
1.1111296 0.051483825 -1.4059821
1.1059537 0.049779862 -1.4068493
1.1503329 0.043938681 -1.4095951
1.1216725 0.044479594 -1.4115076
1.11579 0.04107514 -1.4096016
1.1504868 0.034027979 -1.4087296
1.1428341 0.038291678 -1.4118794
1.1372522 0.033955947 -1.4028441
1.1330752 0.035899565 -1.4044259
1.1424797 0.029578671 -1.4016801
1.1261576 0.022006422 -1.4004009
1.1112158 0.026033998 -1.4031266
1.1041921 0.023848876 -1.4048169
1.1492614 0.020561084 -1.4033012
1.1335627 0.017773226 -1.4049459
1.1297538 0.017883226 -1.4073277
1.1196554 0.019780234 -1.4000885
1.1080501 0.018585891 -1.4065216
1.1042497 0.013565451 -1.4044759
1.1313262 0.0082123131 -1.4013677
1.1242111 0.0581135 -1.417554
1.152594 0.055450574 -1.4209328
1.143275 0.052627385 -1.4167596
1.1356436 0.056046531 -1.4189073
1.1171986 0.05563131 -1.4192429
1.0986633 0.056666762 -1.4222152
1.1424164 0.044653863 -1.4151309
1.1390244 0.041471332 -1.417432
1.1204913 0.045045197 -1.4133836
1.1146523 0.031162351 -1.4164131
1.107156 0.038521245 -1.4135252
1.15599 0.026973471 -1.4156097
1.1456635 0.026496097 -1.4116029
1.1341629 0.028618336 -1.416684
1.1148745 0.02800113 -1.4160334
1.1102026 0.027687073 -1.4183507
1.1495446 0.015748098 -1.4168285
1.1418499 0.017765656 -1.4096359
1.1396947 0.018039957 -1.4096131
1.1489769 0.059708878 -1.4256785
1.1323354 0.061220109 -1.4314542
1.1232672 0.059778765 -1.4325038
1.1585582 0.051426917 -1.427945
1.1493944 0.047311842 -1.4266872
1.1369992 0.049024388 -1.4320003
1.125051 0.048692107 -1.4291296
1.1528486 0.038447693 -1.4294941
1.1440657 0.040174842 -1.4262116
1.1215832 0.045102268 -1.423645
1.1132247 0.0426687 -1.4267861
1.1502371 0.033644542 -1.4226608
1.1187788 0.033884317 -1.4292634
1.1512067 0.025283515 -1.4216335
1.143132 0.019396931 -1.4254005
1.1325989 0.022030786 -1.4251523
1.1141589 0.022760734 -1.41987
1.1282891 0.012463674 -1.4184252
1.1092409 0.015307918 -1.4210384
1.1062034 0.014392942 -1.4255159
1.1514683 0.06020622 -1.4389606
1.1448685 0.05862616 -1.4387861
1.1381023 0.058214933 -1.4357543
1.1035223 0.060781583 -1.437528
1.1538541 0.051684693 -1.4363064
1.1443468 0.04933989 -1.4333218
1.1170044 0.05017814 -1.4386654
1.1477164 0.036119163 -1.4375274
1.1408572 0.042317241 -1.4377458
1.1570823 0.028545395 -1.4322866
1.1523459 0.031966701 -1.4320639
1.1444238 0.030442506 -1.4373064
1.1387708 0.032951325 -1.4384735
1.1202677 0.026935607 -1.4332186
1.1187166 0.032777309 -1.4339001
1.1547701 0.01975286 -1.4303973
1.1504232 0.022096112 -1.4329973
1.1469746 0.021857888 -1.4332192
1.1144924 0.019502342 -1.4360793
1.1462978 0.016117066 -1.4340068
1.1531992 0.067276567 -1.4509832
1.1351593 0.065336362 -1.4491446
1.163758 0.062051758 -1.4458308
1.1583821 0.059659436 -1.4440743
1.1500461 0.056147754 -1.4525484
1.1462773 0.054025903 -1.4515128
1.1222557 0.056577295 -1.4517239
1.1159472 0.055425823 -1.4451878
1.1563715 0.049114883 -1.4484495
1.1470515 0.051902607 -1.4441841
1.1668047 0.040368125 -1.4502257
1.1596165 0.041136846 -1.4451728
1.1501756 0.03887856 -1.4463943
1.1454186 0.039767683 -1.4409188
1.1233584 0.035409406 -1.4447845
1.1112357 0.043551326 -1.4442478
1.1354442 0.02617836 -1.4429771
1.1153198 0.033853546 -1.4475901
1.1545463 0.018079385 -1.4424149
1.1396011 0.023531631 -1.442283
1.1122139 0.018231124 -1.4390497
1.1561487 0.062760174 -1.4606718
1.1503427 0.06496188 -1.4569885
1.1206326 0.062210873 -1.4531095
1.1477052 0.060138449 -1.4564372
1.1208513 0.057377219 -1.4569076
1.1608114 0.048690587 -1.4564748
1.1437025 0.046464801 -1.4555706
1.1286589 0.045538843 -1.4569265
1.1253622 0.050963625 -1.4533079
1.156893 0.038254663 -1.4575459
1.1407015 0.037637338 -1.4566644
1.1300693 0.039671391 -1.4587038
1.1239376 0.037333056 -1.4515917
1.1170002 0.041934386 -1.4592423
1.1547853 0.032731742 -1.4540794
1.152932 0.026666924 -1.4516907
1.1466341 0.0264799 -1.4515245
1.1190321 0.026084036 -1.4510621
1.1585534 0.022701114 -1.4498422
1.1426535 0.021110281 -1.450461
1.1204565 0.021309569 -1.4511781
1.1182452 0.021698922 -1.4546283
1.1113462 0.020890936 -1.4551332
1.1641836 0.067003787 -1.4642301
1.1310925 0.066423506 -1.4692708
1.1160539 0.06346184 -1.4661269
1.1132401 0.069011182 -1.4681535
1.1584498 0.052258626 -1.4669192
1.1496567 0.058257312 -1.4663665
1.1323583 0.056254923 -1.4627141
1.1269439 0.058954313 -1.4655693
1.1204188 0.05767864 -1.4674544
1.1638199 0.044159979 -1.4666586
1.1584821 0.045929193 -1.4633396
1.1450573 0.041953176 -1.4649723
1.12872 0.041771218 -1.4683235
1.1213887 0.038001001 -1.4608511
1.1549604 0.027543381 -1.4663647
1.1525016 0.02933754 -1.4667311
1.13718 0.028996155 -1.4599838
1.1247423 0.027229995 -1.4661466
1.1194446 0.022760063 -1.4580666
1.1634247 0.073537394 -1.4814719
1.1577014 0.068903491 -1.4806849
1.1633284 0.06731312 -1.4781151
1.150689 0.066045702 -1.475365
1.1474611 0.062796026 -1.4794835
1.13671 0.059719279 -1.4798063
1.122786 0.065489158 -1.479176
1.1584842 0.055717945 -1.4732332
1.1465477 0.050612345 -1.4733955
1.1530571 0.042750388 -1.4739069
1.1383568 0.048037127 -1.4746839
1.1334226 0.049047917 -1.4755149
1.1233778 0.04623127 -1.4729224
1.1164711 0.044800475 -1.4749485
1.166297 0.035287187 -1.4710519
1.1570432 0.039450765 -1.4766302
1.1526541 0.033740729 -1.4732162
1.140511 0.03782323 -1.4691823
1.1605422 0.028307363 -1.4724272
1.1238207 0.026694357 -1.4743657
1.1174148 0.025038391 -1.4683942
1.1606077 0.073719651 -1.4893367
1.1407251 0.070988432 -1.4873637
1.1180991 0.073126003 -1.4834661
1.1554037 0.062925637 -1.4890378
1.1501384 0.063397929 -1.4878948
1.1445237 0.057947099 -1.4849092
1.1354343 0.057551742 -1.489717
1.1700852 0.056421712 -1.4863673
1.1661189 0.049683943 -1.4871206
1.1573477 0.050721511 -1.4815065
1.1289421 0.049560353 -1.4861327
1.1175719 0.053666517 -1.487415
1.1560487 0.046377331 -1.4834012
1.1440995 0.041777447 -1.4863776
1.1333112 0.046000749 -1.4859977
1.1654375 0.03416957 -1.4794977
1.1513677 0.032385677 -1.4828873
1.1411345 0.034473479 -1.4786267
1.1302469 0.031305686 -1.4806849
1.1457441 0.029373407 -1.4801824
1.1234837 0.029185876 -1.4816551
1.1738734 0.077556252 -1.5016825
1.1436303 0.077685222 -1.5022155
1.1621941 0.072105497 -1.496282
1.1581684 0.069290072 -1.4984045
1.129419 0.067425281 -1.4940556
1.1255928 0.069031879 -1.4943932
1.1562134 0.055513844 -1.4996735
1.1683387 0.055040583 -1.495163
1.1510202 0.051437467 -1.496753
1.1259147 0.055982336 -1.490508
1.1631405 0.042447448 -1.4915825
1.1589887 0.044173181 -1.4949626
1.1439797 0.038621038 -1.4964515
1.1388034 0.041443765 -1.4893677
1.1655952 0.031431988 -1.4880956
1.1601993 0.032965288 -1.4908748
1.1288745 0.031980991 -1.4927905
1.125141 0.036603257 -1.4939207
1.1796141 0.07441549 -1.5033829
1.1712399 0.075911611 -1.5108284
1.1647272 0.06527096 -1.5095911
1.1520689 0.068083927 -1.5060858
1.1336787 0.072117582 -1.5080625
1.1275282 0.07249245 -1.507596
1.166741 0.057712331 -1.5048501
1.1592704 0.060276315 -1.5055217
1.138258 0.061668053 -1.5074074
1.1230725 0.057825461 -1.5017709
1.1184853 0.062826023 -1.5052916
1.1508404 0.049648836 -1.5022116
1.1476632 0.046389848 -1.5031892
1.1372541 0.051908359 -1.5001059
1.1245546 0.052456558 -1.5000546
1.1761879 0.036075518 -1.5010784
1.1502329 0.038922191 -1.5030649
1.1477748 0.037227958 -1.4994098
1.1323774 0.039384514 -1.5021721
1.1070263 0.040363073 -1.5051583
1.1714944 0.082217321 -1.5194473
1.1800432 0.079406232 -1.521926
1.1582327 0.076205462 -1.5147452
1.1395258 0.076691955 -1.5192444
1.1335185 0.076586246 -1.5206854
1.1637994 0.068263113 -1.5158865
1.153262 0.070646226 -1.5168303
1.1296527 0.070729822 -1.5126414
1.1168973 0.064657465 -1.51574
1.1791114 0.057106361 -1.5168637
1.1503999 0.057820708 -1.5142117
1.1471692 0.054679111 -1.5187879
1.1408843 0.057186425 -1.5130228
1.1236058 0.059697539 -1.5150417
1.1035869 0.061813563 -1.5143129
1.1597164 0.049185559 -1.5120624
1.1263038 0.04561013 -1.5124866
1.1598562 0.037623182 -1.5093223
1.1535054 0.043644771 -1.5100147
1.1468247 0.042768598 -1.5142761
1.1356211 0.037480786 -1.508177
1.1308507 0.041040361 -1.5090442
1.1681335 0.08025986 -1.5282745
1.1535122 0.075591683 -1.5266451
1.1380554 0.080097705 -1.5235505
1.1331885 0.074626163 -1.529585
1.1253135 0.07784465 -1.5253803
1.1742332 0.062644646 -1.5264542
1.1653272 0.065743864 -1.5218967
1.1608629 0.069799885 -1.5260729
1.1468552 0.060999438 -1.5264679
1.1383911 0.065027013 -1.523223
1.129596 0.06379135 -1.5281309
1.169336 0.057811633 -1.5212939
1.1654328 0.058999762 -1.5240158
1.1546344 0.05400452 -1.5273119
1.1377789 0.052529559 -1.5194345
1.1715065 0.049467042 -1.5217862
1.1591601 0.049270421 -1.524346
1.1369114 0.043979481 -1.520141
1.1245906 0.048030093 -1.523059
1.0987914 0.047056198 -1.5202272
1.1730578 0.04045707 -1.5186583
1.1644326 0.036976069 -1.5239464
1.1572927 0.039726004 -1.5203279
1.1416899 0.041628227 -1.521438
1.1804723 0.084397003 -1.5404693
1.1700625 0.083627373 -1.5379605
1.1599256 0.081690162 -1.5326158
1.1435559 0.084256649 -1.5379062
1.1395086 0.080680057 -1.5337747
1.1296273 0.08172299 -1.5414479
1.1738453 0.07030198 -1.5376581
1.1629483 0.070404962 -1.5396613
1.1495907 0.075676471 -1.5334066
1.1282033 0.071055651 -1.535917
1.1759812 0.061487868 -1.5344434
1.1599371 0.060471401 -1.5352395
1.134073 0.066143394 -1.5304826
1.1204838 0.062982187 -1.5313367
1.1484234 0.056381419 -1.5294281
1.127962 0.059239209 -1.5350586
1.1699276 0.044838607 -1.5362381
1.1684233 0.045883015 -1.5309824
1.1595131 0.042281106 -1.5277698
1.1496701 0.046916157 -1.5321009
1.1366401 0.048404068 -1.5351408
1.1314143 0.050101995 -1.5306474
1.1587911 0.08648248 -1.5507826
1.1650271 0.084608048 -1.5457208
1.1234987 0.081121668 -1.545024
1.1702429 0.072222307 -1.5470369
1.1559298 0.077455997 -1.5424676
1.1439055 0.069900632 -1.542788
1.1395736 0.070302352 -1.5448385
1.1746624 0.067635387 -1.5449973
1.1666414 0.063149452 -1.5410324
1.1503538 0.061067402 -1.5476192
1.1466171 0.065402701 -1.5408212
1.13955 0.06576705 -1.5441376
1.1708543 0.051527932 -1.5462174
1.1678952 0.053695977 -1.5390533
1.1567243 0.057457 -1.5400124
1.1488534 0.051605478 -1.5470313
1.1237307 0.056640863 -1.5424298
1.1621656 0.045920685 -1.5430197
1.1591703 0.046938986 -1.5462173
1.1536733 0.044604212 -1.5369729
1.1419265 0.049414992 -1.5379517
1.1360756 0.040954039 -1.5420173
1.1283797 0.045299992 -1.5384181
1.1706663 0.085034221 -1.5571566
1.1339412 0.085601345 -1.5575151
1.1759422 0.079145253 -1.5548401
1.1726177 0.076482996 -1.5595733
1.1578603 0.082141995 -1.5606586
1.1192851 0.079227939 -1.5564907
1.1702338 0.074530929 -1.5549253
1.1670498 0.067470744 -1.5579098
1.1450739 0.074461296 -1.5591943
1.1318613 0.074785575 -1.5529245
1.1252016 0.076087698 -1.5523913
1.1712413 0.064514369 -1.5543048
1.1314977 0.063135535 -1.5520022
1.1665393 0.052134603 -1.5505428
1.145067 0.053063393 -1.5503603
1.1385331 0.053883448 -1.54798
1.1757745 0.086900249 -1.5678087
1.1270088 0.084989652 -1.5618445
1.1663499 0.076784879 -1.5636407
1.1372668 0.078876704 -1.5670835
1.1748816 0.072725847 -1.5625957
1.1647468 0.068315551 -1.5609107
1.1522844 0.06575343 -1.5658101
1.1291114 0.070738912 -1.5634716
1.1800488 0.057990521 -1.566483
1.168457 0.056224957 -1.5641192
1.1486986 0.056644961 -1.5614898
1.1410372 0.059274048 -1.5624367
1.1323231 0.060598791 -1.5597353
1.1275675 0.060745493 -1.5636221
1.178049 0.055638969 -1.5611689
1.159925 0.051173553 -1.5629963
1.1864012 0.093366608 -1.5757564
1.1799098 0.094250813 -1.57732
1.1848567 0.087336838 -1.5790464
1.1721147 0.086540341 -1.5722048
1.1597909 0.086828008 -1.5788494
1.1305189 0.088857666 -1.5786649
1.1804056 0.076633438 -1.5771625
1.1722744 0.077522501 -1.5795528
1.1500638 0.078376755 -1.5758595
1.1697208 0.070250958 -1.5696032
1.1659067 0.07230033 -1.5762179
1.134241 0.065951154 -1.5710005
1.1713687 0.057255894 -1.5688226
1.1436445 0.063277841 -1.5748445
1.1242816 0.055876493 -1.5694277
1.1717174 0.092566088 -1.5882483
1.1433891 0.08392401 -1.583833
1.1305118 0.085909963 -1.5807028
1.1825255 0.079466388 -1.581435
1.1755204 0.077616915 -1.5820836
1.1665907 0.074632451 -1.5871831
1.1624569 0.081347391 -1.5802448
1.1334251 0.074617237 -1.5795388
1.12607 0.071594402 -1.5871706
1.1791861 0.068186805 -1.5805444
1.169534 0.063243866 -1.5863047
1.1542149 0.070439443 -1.5840011
1.1465921 0.064665958 -1.5804826
1.1385694 0.070928127 -1.5858895
1.1727972 0.057928935 -1.5829254
1.1660597 0.060921997 -1.5820209
1.1582055 0.05935885 -1.5855751
1.1285955 0.059754804 -1.5854952
1.1776364 0.05125773 -1.5761371
1.1904147 0.096748203 -1.5995328
1.1845109 0.092031166 -1.5976381
1.1473747 0.093968064 -1.5943562
1.1346831 0.091361031 -1.5956978
1.1792343 0.084150165 -1.5954486
1.1585639 0.085909948 -1.5968487
1.1523765 0.082249448 -1.5958591
1.1485158 0.086603194 -1.5936352
1.1377391 0.078495607 -1.5956063
1.1508636 0.068098292 -1.5913862
1.1900893 0.06085521 -1.5885651
1.1737034 0.054655522 -1.5902328
1.1696475 0.09867996 -1.6094161
1.1695142 0.095663324 -1.6029683
1.1496776 0.089443237 -1.6012955
1.1435536 0.09295471 -1.6066144
1.1279029 0.096521154 -1.6097624
1.1841518 0.080018729 -1.6020201
1.1759495 0.082607642 -1.6006268
1.1634605 0.079014003 -1.6047629
1.1788694 0.074965775 -1.6000122
1.1561453 0.075125471 -1.6021922
1.1446189 0.073890448 -1.601033
1.1421051 0.074824437 -1.602833
1.1308954 0.075680897 -1.602378
1.1868262 0.0655334 -1.6023562
1.1778888 0.06328924 -1.6045076
1.1701394 0.065846041 -1.605155
1.1470042 0.066232309 -1.601051
1.1329093 0.063633189 -1.6015625
1.1725793 0.058332339 -1.6052052
1.1338348 0.054570466 -1.5948807
1.1860819 0.0991036 -1.6169019
1.166384 0.10004485 -1.6205481
1.149379 0.097807214 -1.6159725
1.1244303 0.099038586 -1.6103413
1.1921904 0.089872018 -1.6155131
1.1750158 0.089756161 -1.6153429
1.155141 0.093574241 -1.6155546
1.1780411 0.079617247 -1.617054
1.1731275 0.085156024 -1.6119614
1.1528854 0.082161814 -1.6137938
1.1437573 0.082355067 -1.6175202
1.1292869 0.084919125 -1.6100357
1.1234915 0.082304269 -1.6161857
1.1457222 0.075582892 -1.608181
1.1791447 0.065649465 -1.6080465
1.157407 0.062364742 -1.6065575
1.1386938 0.058685303 -1.6101933
1.1510129 0.057662502 -1.6093807
1.1879317 0.10258543 -1.6223668
1.1468871 0.099146143 -1.6274966
1.1763785 0.087598428 -1.6191701
1.14411 0.092984721 -1.6287009
1.1335701 0.088770062 -1.6259893
1.1799676 0.082314163 -1.6200372
1.1742737 0.081281424 -1.627475
1.1511855 0.079713821 -1.6224402
1.1455952 0.084364504 -1.6268876
1.1323504 0.081318542 -1.6177396
1.1996429 0.071463853 -1.6226017
1.1825218 0.071223766 -1.6227325
1.1730206 0.069429785 -1.6231232
1.1498281 0.070348576 -1.6187413
1.1372232 0.067511529 -1.61763
1.1810205 0.066201046 -1.6186913
1.1722336 0.063026667 -1.6237969
1.1536107 0.059029564 -1.6161265
1.1466736 0.065245166 -1.621436
1.1312793 0.065451816 -1.6240531
1.1857753 0.096381754 -1.6350527
1.1829634 0.10133587 -1.6320605
1.1768075 0.09258917 -1.6377132
1.1655823 0.10088603 -1.6334224
1.1953242 0.084365979 -1.6288439
1.1781044 0.086985171 -1.6368033
1.1694887 0.089417353 -1.6293609
1.156649 0.083844796 -1.6366994
1.122764 0.087713629 -1.6324353
1.1820818 0.078632534 -1.6343104
1.1405464 0.083853886 -1.6327925
1.1889064 0.06809096 -1.6301205
1.1526252 0.069312721 -1.6344415
1.1287745 0.074012712 -1.6319035
1.1681734 0.064503714 -1.6292834
1.1591111 0.063188553 -1.6304823
1.1524999 0.063422918 -1.6255347
1.1404144 0.063333809 -1.6252502
1.1772196 0.10247448 -1.6433821
1.1622157 0.099859357 -1.643106
1.1469127 0.097070202 -1.6462588
1.1378534 0.092620984 -1.6419431
1.1913426 0.089032471 -1.6458263
1.1600063 0.084497511 -1.638574
1.1926112 0.082147911 -1.6425849
1.1787381 0.076408029 -1.6398163
1.1711196 0.075369835 -1.6419982
1.1526517 0.074464887 -1.6364316
1.1773534 0.070495248 -1.6362251
1.1535619 0.069046691 -1.6436553
1.1439502 0.06723015 -1.6421939
1.1361047 0.069538295 -1.6392603
1.1976427 0.10895759 -1.6586916
1.1826427 0.10615864 -1.6519628
1.1675127 0.10557209 -1.6516134
1.154639 0.10634239 -1.6567392
1.1847866 0.09985064 -1.6495618
1.1784824 0.094615832 -1.654299
1.1852455 0.083585531 -1.6505365
1.1775081 0.089264736 -1.6571971
1.175737 0.089351907 -1.6539562
1.1577432 0.085444555 -1.6496186
1.1502841 0.090458527 -1.6496722
1.1393708 0.089054555 -1.6513805
1.1736865 0.074789405 -1.6537588
1.1554754 0.078581139 -1.654122
1.1330578 0.077863649 -1.6478573
1.1870258 0.067815825 -1.6459609
1.182103 0.11280805 -1.6684589
1.1740654 0.10688983 -1.6610974
1.1497153 0.1011557 -1.6638167
1.1932501 0.094058946 -1.660899
1.1873606 0.093698993 -1.6628085
1.1471373 0.094497979 -1.6628439
1.1421368 0.096471906 -1.6578969
1.1921823 0.081518888 -1.6569111
1.1888413 0.079437628 -1.6626326
1.1764981 0.086674914 -1.6599529
1.1373411 0.081714571 -1.6638111
1.1852579 0.074192867 -1.6632249
1.180943 0.077423885 -1.6640851
1.158157 0.074115396 -1.6578442
1.1548158 0.071912393 -1.659024
1.1341821 0.073779404 -1.6568143
1.2103052 0.10676339 -1.6784532
1.1952078 0.11372815 -1.6768734
1.1897966 0.11464053 -1.6785144
1.1831284 0.11080846 -1.6720054
1.1931322 0.10207216 -1.6750473
1.1776656 0.1025707 -1.6747994
1.147944 0.10068409 -1.6752009
1.1766118 0.094952449 -1.6728321
1.1638674 0.093869537 -1.674956
1.1428808 0.092922494 -1.668201
1.1884521 0.086546406 -1.6740657
1.1820666 0.088035166 -1.6683896
1.1700194 0.079083607 -1.6712923
1.1609596 0.080471888 -1.6719579
1.1457556 0.077711269 -1.6696749
1.1376922 0.077647388 -1.6736348
1.1850353 0.10939282 -1.6844202
1.1773827 0.10982929 -1.6836102
1.1515795 0.11206563 -1.6795876
1.1387578 0.10761401 -1.6784842
1.1888959 0.09686783 -1.6793803
1.1833789 0.098365486 -1.679791
1.2041342 0.089643627 -1.6819525
1.1550227 0.096113294 -1.6784143
1.185841 0.084010407 -1.6814835
1.1711967 0.07710968 -1.6795722
1.1416245 0.085565522 -1.6797649
1.1728243 0.074881449 -1.6834768
1.192773 0.11849868 -1.6950554
1.1827825 0.11550282 -1.6905973
1.2091347 0.11170825 -1.6971982
1.1875433 0.10646911 -1.6950307
1.1780947 0.10756147 -1.6933426
1.1380101 0.10653985 -1.6876367
1.1864219 0.098249629 -1.6933461
1.1768167 0.098653421 -1.6943806
1.1514201 0.10095571 -1.6897269
1.1474527 0.1025959 -1.6916982
1.1931708 0.090412274 -1.6919461
1.1847219 0.091573983 -1.6912204
1.1733981 0.091780618 -1.6901226
1.1471857 0.089343876 -1.6865277
1.197219 0.077749088 -1.687204
1.1907932 0.079974234 -1.6867573
1.1690835 0.082377359 -1.6863626
1.1525693 0.080358416 -1.6889535
1.1997145 0.11747582 -1.7012968
1.1961628 0.11193699 -1.7081021
1.1874475 0.11295457 -1.7065886
1.1824369 0.12019719 -1.7091889
1.1553204 0.10932666 -1.6989326
1.1411542 0.10967119 -1.7041444
1.2029637 0.094588548 -1.7006975
1.1864611 0.10163839 -1.6975622
1.1633199 0.098202363 -1.7044948
1.1499884 0.093429372 -1.7040856
1.1869335 0.086532757 -1.7028391
1.1812155 0.089886144 -1.6970634
1.1554067 0.085884258 -1.7000895
1.1459078 0.089416444 -1.6957186
1.1945187 0.079103991 -1.700809
1.1708509 0.081804007 -1.6981641
1.1602219 0.082166985 -1.6982983
1.2050346 0.12135299 -1.718802
1.1957022 0.12217805 -1.7184092
1.1930557 0.11874375 -1.710869
1.1811272 0.1121228 -1.7120659
1.158123 0.11341216 -1.7164905
1.1827264 0.10257715 -1.7110162
1.176471 0.10334775 -1.7129724
1.1533358 0.10560581 -1.7077787
1.207307 0.099090785 -1.7084808
1.194916 0.094583198 -1.7144326
1.1774026 0.095110416 -1.7142789
1.1490124 0.092852324 -1.7124481
1.1580935 0.082815394 -1.7099683
1.1478026 0.089342743 -1.7128909
1.1957788 0.080013067 -1.7048633
1.1929591 0.11642143 -1.7260948
1.1837171 0.11798209 -1.7237432
1.157037 0.11071253 -1.7219031
1.1465168 0.11418779 -1.719321
1.1986728 0.10435933 -1.7213286
1.1892356 0.10577834 -1.7196956
1.1772615 0.10162903 -1.7255297
1.153411 0.10452649 -1.7186624
1.2031463 0.09617658 -1.7176685
1.1875185 0.093419373 -1.7204986
1.1527909 0.097514853 -1.7216436
1.1879994 0.083778217 -1.7199854
1.1827687 0.089378685 -1.720982
1.2025803 0.12616128 -1.7371277
1.2067939 0.12159802 -1.7346885
1.1993424 0.12207901 -1.7335472
1.1968822 0.12278794 -1.7324657
1.1754991 0.12274176 -1.7379793
1.1483335 0.11840972 -1.7327881
1.1938069 0.11534378 -1.7346243
1.1799177 0.11691763 -1.7294617
1.1761253 0.10804208 -1.7315643
1.1714338 0.11236493 -1.7307379
1.1464155 0.11045159 -1.7303216
1.1436729 0.11075443 -1.7326313
1.1867634 0.099381149 -1.7279315
1.1790309 0.10690469 -1.728686
1.1735898 0.10033469 -1.7314944
1.1696588 0.10792758 -1.7295288
1.1729422 0.089911446 -1.7301139
1.1650369 0.095073536 -1.7312592
1.1544745 0.097118288 -1.7276261
1.1923108 0.087365597 -1.7238553
1.1708057 0.085276023 -1.727316
1.1478406 0.085434467 -1.7254463
1.1907333 0.12855543 -1.7480631
1.1301887 0.12546939 -1.7452958
1.1635699 0.12092823 -1.7433238
1.1539006 0.11885223 -1.7416134
1.1295199 0.11722054 -1.7410506
1.1123393 0.11827144 -1.740414
1.1962186 0.10916761 -1.7396542
1.1624352 0.11531059 -1.7415258
1.1566017 0.11120987 -1.7431004
1.2006229 0.10447825 -1.7381879
1.187951 0.098449618 -1.7391884
1.1693513 0.10583369 -1.7398018
1.1587578 0.10096921 -1.7435799
1.1555934 0.1016003 -1.7392015
1.1451828 0.10291985 -1.7411885
1.1342349 0.10461365 -1.7368578
1.1232092 0.10123466 -1.742797
1.1062008 0.10218489 -1.7423861
1.1898568 0.092173934 -1.7421809
1.1701595 0.091192663 -1.7353476
1.1636434 0.090232342 -1.7381523
1.1534637 0.092339724 -1.7382289
1.1385217 0.095589325 -1.738026
1.1365181 0.088220879 -1.7409967
1.1279132 0.088582188 -1.7381152
1.1326792 0.12370428 -1.754217
1.1170591 0.12612519 -1.7503579
1.179382 0.12253378 -1.7489721
1.1413474 0.12333691 -1.7512159
1.1340325 0.11690061 -1.7463913
1.1171179 0.11941288 -1.7546707
1.0878446 0.11917785 -1.7520419
1.1753352 0.11123221 -1.746356
1.1699767 0.11368857 -1.7462121
1.1590401 0.10802118 -1.7492049
1.1521937 0.11218873 -1.751483
1.1376333 0.10951525 -1.7542541
1.1284367 0.1109634 -1.7507519
1.1204628 0.10812303 -1.7521644
1.1151562 0.1102284 -1.7503581
1.089678 0.10913548 -1.7528119
1.1585612 0.10115734 -1.7488338
1.1516342 0.09864302 -1.7489942
1.1495913 0.099045813 -1.7444077
1.1396044 0.10147259 -1.7484864
1.1160518 0.10421818 -1.7488196
1.0981691 0.097085521 -1.7428141
1.0861993 0.1018727 -1.7449676
1.1692466 0.094238982 -1.7477837
1.1497566 0.091057599 -1.744336
1.0982912 0.091721058 -1.7512059
1.1483015 0.12449282 -1.7585697
1.1268978 0.12527794 -1.7621324
1.1116691 0.12821305 -1.7592736
1.1577259 0.11741668 -1.757544
1.1352892 0.11844783 -1.7629814
1.1258736 0.12213518 -1.7578199
1.1078773 0.12162986 -1.7594192
1.098802 0.11831152 -1.7615376
1.0935045 0.12167887 -1.7581751
1.1420866 0.10789227 -1.7610381
1.1195627 0.10614932 -1.7595664
1.1116501 0.11022726 -1.7553552
1.0942234 0.11260287 -1.7593132
1.0763167 0.10920751 -1.760514
1.1460935 0.095411018 -1.7532914
1.1205353 0.097355053 -1.7574689
1.1097654 0.09995307 -1.7555859
1.0943047 0.10161449 -1.7592957
1.0647632 0.10253079 -1.758691
1.1532753 0.091389656 -1.7536979
1.1220666 0.093390927 -1.7577362
1.1145279 0.091658384 -1.75553
1.1067582 0.093694106 -1.7586025
1.1100382 0.13121852 -1.7729422
1.1203682 0.12866792 -1.7710658
1.1175339 0.12425208 -1.7726507
1.1051301 0.1273879 -1.7709768
1.0887766 0.12809616 -1.7715787
1.0840086 0.12367357 -1.7684028
1.0609421 0.12292123 -1.7665639
1.1056625 0.11491938 -1.7648965
1.0995575 0.11650823 -1.7677547
1.0660982 0.11423247 -1.7718918
1.0622681 0.11884448 -1.7730081
1.120948 0.10867193 -1.7635278
1.0987996 0.11006944 -1.7712981
1.0913455 0.10843192 -1.7656004
1.0813016 0.10348806 -1.7701699
1.0560385 0.10848495 -1.7716993
1.1272917 0.10135986 -1.7640591
1.1061053 0.1000846 -1.7696815
1.0997727 0.098579839 -1.7682363
1.0934041 0.099822059 -1.7700573
1.0757864 0.097093731 -1.7694262
1.0937721 0.12225778 -1.7782352
1.0752664 0.12574659 -1.7786993
1.0660025 0.12821005 -1.7805346
1.1014681 0.11352921 -1.7750566
1.0832263 0.11610557 -1.781009
1.0719622 0.11913797 -1.7817651
1.0689865 0.11618164 -1.7750484
1.0570189 0.11239231 -1.7796819
1.1159161 0.11106399 -1.776336
1.0886884 0.10607257 -1.779325
1.0581138 0.10545488 -1.7790577
1.0982277 0.098256946 -1.7757117
1.081506 0.095100775 -1.7717512
1.0610315 0.09912625 -1.7767886
1.1017393 0.13207954 -1.7879841
1.0809326 0.12927428 -1.7906435
1.0640891 0.13224189 -1.7919633
1.0996807 0.11974442 -1.7878857
1.0615721 0.12195674 -1.7874407
1.056039 0.12251917 -1.784952
1.0993818 0.11777681 -1.7866478
1.0823354 0.119196 -1.7859645
1.0739897 0.1124898 -1.7859936
1.0517057 0.11145052 -1.7908503
1.04749 0.11434707 -1.7845442
1.0930713 0.10433954 -1.7879484
1.0804794 0.10379615 -1.7820131
1.0523375 0.10534181 -1.7858357
1.0766973 0.099876106 -1.7830541
1.0517672 0.096956402 -1.7845341
1.0632681 0.13450322 -1.7984076
1.0429131 0.12973389 -1.7968992
1.0344011 0.12832339 -1.7945404
1.0851128 0.12706015 -1.7972099
1.0824293 0.12321846 -1.7989949
1.0661236 0.12596819 -1.7959995
1.058566 0.1223049 -1.7955027
1.0460806 0.11893265 -1.7928513
1.0274543 0.12225915 -1.794131
1.0729166 0.11264102 -1.793059
1.0653539 0.11175677 -1.7939997
1.0600755 0.11011858 -1.7979424
1.0538652 0.11009546 -1.7991949
1.0294402 0.11353266 -1.7993348
1.0946437 0.10245398 -1.7928487
1.088966 0.10130192 -1.7944586
1.0742488 0.10411328 -1.7999481
1.0570627 0.10808042 -1.7930018
1.0408666 0.10360786 -1.7976686
1.0226495 0.10811423 -1.7991626
1.0426198 0.10000913 -1.7896446
1.0786071 0.13383071 -1.8080093
1.0670156 0.13091101 -1.8068076
1.0618213 0.13090788 -1.8088074
1.0468622 0.13290842 -1.809798
1.0250382 0.13414076 -1.807303
1.0596621 0.11956632 -1.8044608
1.0549513 0.1191154 -1.8068755
1.0329816 0.12561347 -1.8077633
1.078156 0.10852025 -1.8033499
1.0608433 0.11527611 -1.8085155
1.038463 0.11603966 -1.8023874
1.0510814 0.10274902 -1.8084954
1.0340128 0.10234542 -1.8078755
1.0616614 0.13872133 -1.8211107
1.0464821 0.13760476 -1.8221953
1.0804597 0.12904336 -1.8189842
1.0429722 0.1252383 -1.8172067
1.0123422 0.13372433 -1.8145685
1.0539913 0.12320387 -1.8123136
1.0419235 0.11823234 -1.8146571
1.0201114 0.1194519 -1.8120643
1.0072387 0.11872435 -1.8192838
1.0601782 0.11237012 -1.8122245
1.0564313 0.11511181 -1.8143966
1.0478534 0.10763836 -1.8135344
1.0279909 0.11093356 -1.8126707
1.0642086 0.13486592 -1.8292179
1.0472376 0.13717148 -1.8252144
1.0396959 0.13887063 -1.8235997
1.0276278 0.13791566 -1.8235264
1.0141093 0.13801327 -1.8312182
1.0612708 0.13065113 -1.8260657
1.0550457 0.12400641 -1.8238572
1.0501832 0.12766694 -1.8285553
1.0242896 0.12731594 -1.8261483
1.022469 0.13147466 -1.8220328
1.0563371 0.11728968 -1.8263619
1.0459406 0.12038015 -1.823904
1.0404783 0.12187138 -1.8241241
1.0291562 0.12350585 -1.8248689
1.0201987 0.1203256 -1.8276592
1.0379876 0.10591893 -1.82268
1.0358654 0.10775918 -1.8232504
1.0604562 0.14256009 -1.8380841
1.0428644 0.14256138 -1.8385289
1.046946 0.13857073 -1.837955
1.02709 0.1321609 -1.8332102
1.0158846 0.13493177 -1.8360097
1.0550457 0.12861153 -1.8389345
1.0418881 0.12981871 -1.8345701
1.0368607 0.12682799 -1.8404577
1.0171057 0.13006014 -1.8374413
1.0096732 0.12306342 -1.8391807
0.99696034 0.12503615 -1.8318083
1.0216792 0.11541897 -1.8334962
1.0471231 0.10806766 -1.8295772
1.0440452 0.11210135 -1.8297764
1.0177742 0.10853794 -1.8330488
1.0063916 0.14250717 -1.8462167
1.046375 0.13213 -1.8447974
1.040076 0.13484448 -1.849942
1.0144211 0.13834581 -1.8453027
1.0105236 0.13829601 -1.8493149
0.99271405 0.13675866 -1.8491676
0.98679984 0.13126427 -1.8441502
1.0537105 0.12488961 -1.8413181
1.0424358 0.12448442 -1.8406622
1.0133914 0.1290549 -1.8407029
1.0523599 0.11874783 -1.8448645
1.0490618 0.11262748 -1.8413111
1.0402372 0.11656442 -1.8460183
1.0123737 0.1170201 -1.8423984
1.0308571 0.11109459 -1.8423862
0.99378616 0.11126545 -1.840813
1.040957 0.14413929 -1.8541982
1.0095778 0.14601818 -1.8614848
1.0037192 0.14369103 -1.8606632
1.0393887 0.13287848 -1.8514296
1.0332432 0.13178462 -1.8567911
1.0285954 0.13422543 -1.8524802
1.0224881 0.13772935 -1.8604083
1.0175008 0.13465503 -1.8545136
1.0368365 0.12472478 -1.8552623
1.0212369 0.12088877 -1.8539603
1.006187 0.12495118 -1.8546631
1.0016819 0.12864184 -1.8511488
0.98788744 0.12236848 -1.8538321
1.03369 0.11778525 -1.8533658
1.0206481 0.1132873 -1.8505923
0.9969722 0.11477649 -1.8560811
1.0397198 0.13897952 -1.8692971
1.0377848 0.13933378 -1.8670522
1.0272788 0.14653924 -1.863766
1.0141028 0.1426678 -1.8624197
1.0055809 0.14108855 -1.8667691
0.995251 0.14045683 -1.8650609
1.0231857 0.13433424 -1.8672036
1.0048681 0.13215283 -1.8664169
0.99941033 0.13043118 -1.8659772
0.9885422 0.13549361 -1.8605682
1.0364289 0.12102747 -1.8622603
1.0214304 0.12501621 -1.8666763
1.0121517 0.11922294 -1.8586826
1.0086101 0.12715486 -1.865903
0.98350978 0.12070233 -1.8652177
1.0272394 0.1160512 -1.8587198
1.0236436 0.14808881 -1.879161
1.0137051 0.14700544 -1.8771812
0.98634851 0.14604533 -1.876989
1.0387588 0.14105609 -1.8772813
1.0296257 0.13674119 -1.8731247
0.99696302 0.13763463 -1.8781286
0.97855961 0.14159852 -1.8726439
1.0318449 0.12346736 -1.8694111
1.0283054 0.12060836 -1.8689032
1.0236219 0.12100783 -1.8750533
1.0174533 0.11833587 -1.8685478
1.0002702 0.12576711 -1.870908
0.98977172 0.12321943 -1.868793
1.0059731 0.14565054 -1.8837188
1.0284504 0.14129964 -1.886474
1.0197064 0.13840842 -1.883839
1.0462856 0.12725052 -1.8789797
1.0225595 0.1274716 -1.8845488
1.0171047 0.1296992 -1.8800901
1.008292 0.13147682 -1.8830203
1.0006623 0.13032907 -1.8878579
0.98146391 0.12882301 -1.8805552
1.0326209 0.12549052 -1.8785022
1.0139742 0.12241006 -1.8851831
0.98525208 0.12493163 -1.8816358
1.0349505 0.14551914 -1.8935233
1.0273517 0.14567325 -1.8997718
1.0207266 0.14990568 -1.8947328
1.0125574 0.1515348 -1.8919364
1.0104132 0.14821199 -1.8985803
0.99314028 0.14795369 -1.8945484
0.9888683 0.14971858 -1.8927753
1.0148304 0.13415563 -1.8970746
1.0069244 0.13590762 -1.8951308
0.99580961 0.13762817 -1.8946526
0.9891665 0.14304402 -1.8896894
0.97279668 0.13736239 -1.8933575
1.0298098 0.13155925 -1.8919352
1.0200045 0.1259644 -1.8913869
0.98451817 0.12935933 -1.8945575
1.0311425 0.14998218 -1.9097652
1.0162272 0.14248258 -1.9004744
0.99301237 0.14433312 -1.9054791
0.98202032 0.1499989 -1.905254
0.96422541 0.1428864 -1.9049625
1.0155057 0.13899931 -1.8990973
1.0027539 0.13374203 -1.9026513
1.0212244 0.13015199 -1.9014673
1.0104949 0.12648425 -1.9018186
0.9869945 0.12916097 -1.8980536
0.96803463 0.12316474 -1.8979595
1.0238113 0.1504451 -1.9160539
1.0169276 0.15513828 -1.9153047
1.0068218 0.15313253 -1.914795
0.98460329 0.15182477 -1.9160751
0.9720614 0.15597641 -1.9169062
1.0126306 0.14487261 -1.9165075
0.99549365 0.14191917 -1.9116468
0.98936993 0.14127201 -1.9166318
0.96931303 0.14014044 -1.9171799
1.0250046 0.13441661 -1.9109862
1.0125558 0.138612 -1.9140592
1.0008618 0.13751352 -1.9167098
0.98766279 0.13282457 -1.9096265
0.97702241 0.13530943 -1.9098715
0.98908079 0.12657994 -1.912238
0.97053766 0.12681341 -1.9136404
0.97700596 0.15707013 -1.9272501
1.0093094 0.14046103 -1.9201043
0.99265289 0.14663827 -1.9231873
0.97875285 0.13950965 -1.9261764
0.96671182 0.14651099 -1.9205396
1.0176839 0.13492382 -1.9177495
1.0116223 0.16034535 -1.935017
1.0202707 0.1552169 -1.9323359
1.0093946 0.14900425 -1.9332291
0.97781861 0.14756766 -1.9282753
0.96919823 0.15013558 -1.9361169
1.0141433 0.13969564 -1.9340316
1.007905 0.14398018 -1.9336364
0.99622405 0.14432216 -1.9307829
0.97241729 0.14356118 -1.9320557
1.0036347 0.13304597 -1.9347591
0.98839241 0.13096604 -1.9292291
0.97304058 0.13046214 -1.9293211
1.0167302 0.15998873 -1.9486181
0.98011017 0.16049087 -1.9421257
0.99582613 0.14910954 -1.9412076
0.99159223 0.1511195 -1.9401751
0.98291051 0.15220806 -1.9398816
0.97820526 0.15206519 -1.9449857
0.98048317 0.14370981 -1.9424815
0.97749609 0.13691577 -1.9433155
0.98599982 0.13560489 -1.9433463
0.9832145 0.16391164 -1.9570012
1.0086639 0.15811473 -1.9525864
0.99053156 0.15560079 -1.9571626
0.98259687 0.15646857 -1.9567554
0.97168463 0.15376014 -1.9516941
0.96685404 0.1582351 -1.9563669
1.0085653 0.14801708 -1.9499173
1.001748 0.14932284 -1.9523542
0.97552156 0.14698195 -1.9469312
0.97053486 0.14973068 -1.9538772
1.0003988 0.13717765 -1.9514806
0.97298259 0.13938871 -1.9515188
0.96540904 0.14294159 -1.9543577
0.97659165 0.1653569 -1.9677689
1.0029228 0.15726754 -1.9666724
0.99356812 0.15353352 -1.9580687
0.96194106 0.15740627 -1.9639759
1.0055342 0.1457909 -1.9567209
0.99531472 0.15074456 -1.9590807
0.96804482 0.15222228 -1.9578435
0.96165496 0.14323574 -1.9604189
0.96626276 0.13739935 -1.9573644
0.96348536 0.13879934 -1.9626185
1.0079204 0.16648087 -1.9711257
0.96723801 0.16270113 -1.9729605
0.95463908 0.16447246 -1.973783
1.0019168 0.15074748 -1.9730546
0.9979673 0.15375373 -1.9684792
0.99155492 0.15671974 -1.9750878
0.97112918 0.15562123 -1.9726243
0.99657828 0.14278096 -1.9683603
0.97194231 0.14626631 -1.9708371
0.96944046 0.14328086 -1.9718429
0.96509755 0.14717197 -1.9711121
0.95607382 0.14406872 -1.9733398
0.99774724 0.13983765 -1.9680444
1.0005422 0.15994492 -1.9831367
0.99883139 0.16285348 -1.9836515
0.97644156 0.16611883 -1.9845543
0.97016227 0.16658652 -1.9844568
0.96307683 0.16029352 -1.9822525
0.99418658 0.15818465 -1.9846042
0.99309909 0.14685515 -1.9849956
0.97374284 0.14595518 -1.9824874
0.96087503 0.14874175 -1.9828269
0.95709288 0.16804951 -1.9891558
0.96762198 0.16716719 -1.9895539
0.97088933 0.15071544 -1.9877028
0.96360445 0.15178514 -1.9907361
0.95913863 0.14744604 -1.9880266
0.95755506 0.14531466 -1.9857774
0.99535221 0.16692764 -2.0002868
0.97538853 0.1705679 -2.0014203
0.96892834 0.17122504 -2.0036793
0.95954669 0.17162651 -2.0045288
1.0005823 0.15983844 -1.9990709
0.99754959 0.16413409 -1.9999443
0.96419132 0.16394633 -1.9973054
1.0102961 0.15418777 -1.9973359
0.99069083 0.14957255 -2.0016456
0.96983618 0.15516454 -2.0045688
0.9639098 0.15398756 -2.001461
1.0126997 0.17503062 -2.0118473
0.99767476 0.16445255 -2.0157044
0.99187297 0.17100182 -2.0169222
0.98262197 0.16969815 -2.0090489
0.95453137 0.16974181 -2.0081933
1.0066518 0.15918097 -2.0137901
0.96581507 0.1559431 -2.0137756
0.96280682 0.15663388 -2.0101995
0.97433543 0.17501706 -2.0182858
0.96896452 0.17557332 -2.0203531
0.96200055 0.17520356 -2.0199015
0.9449923 0.17546052 -2.0189307
0.99834764 0.16565806 -2.0246797
0.99106401 0.16561732 -2.0220549
0.98453635 0.17122954 -2.0255132
1.0141026 0.15975055 -2.0162759
0.98614067 0.15500349 -2.0182664
0.96878308 0.15961367 -2.0214345
0.96416295 0.15986314 -2.0213749
0.95733202 0.16128471 -2.0244133
0.98876911 0.15240502 -2.0184681
0.96096849 0.15360028 -2.017942
1.0090556 0.18002391 -2.0283012
0.98997897 0.17379418 -2.0335588
0.9732824 0.17946616 -2.0351517
0.96922773 0.17927769 -2.0347197
0.96445435 0.17878062 -2.0352743
0.96319073 0.16109994 -2.0267932
0.95133042 0.15946582 -2.0286903
0.98052526 0.1790503 -2.0452487
0.99453944 0.17012107 -2.0409219
0.98227847 0.17565352 -2.0423744
1.004741 0.1669358 -2.0398421
0.96773005 0.1640628 -2.0383003
0.96357471 0.165566 -2.0433867
0.98577636 0.15659416 -2.0352759
0.9679122 0.18293288 -2.0510604
0.99936318 0.16916743 -2.0466986
0.98857141 0.17670143 -2.0503681
0.98278373 0.16078326 -2.0520837
0.97561365 0.16247883 -2.0445571
0.97075504 0.16314438 -2.0447242
0.95302552 0.16358057 -2.0446637
0.96936184 0.18593469 -2.0660198
0.99687219 0.17784005 -2.0585206
0.9817 0.18203795 -2.0600941
1.0011744 0.17174256 -2.0562432
0.9957189 0.17416069 -2.0631528
0.973225 0.16674504 -2.0601985
0.96667689 0.16851193 -2.055166
0.96374935 0.16917801 -2.0574319
0.95472068 0.16769537 -2.0606372
0.99109751 0.16172346 -2.0598748
0.99760801 0.17654929 -2.0726447
0.99336725 0.18194434 -2.0752788
1.0025945 0.17323777 -2.0653586
0.96396089 0.17228505 -2.0710847
0.98981094 0.18317592 -2.0839052
0.98310673 0.18696958 -2.0760763
0.97227025 0.18708608 -2.079555
0.99764401 0.17958581 -2.0753789
0.99207461 0.17915389 -2.079607
0.96434259 0.17449811 -2.0765738
0.98759258 0.16582775 -2.0766332
0.97751439 0.17145497 -2.0792475
0.96779531 0.17017165 -2.0822716
1.0170174 0.19219354 -2.0889313
0.98204613 0.19145083 -2.0930638
0.9946292 0.18380594 -2.0923109
0.98986244 0.1860486 -2.0920372
0.97443163 0.18880334 -2.0937996
1.0107889 0.17639816 -2.0901704
0.97816503 0.17394629 -2.0911472
0.96472663 0.17896411 -2.0931675
0.98391461 0.16742584 -2.0862467
0.98753655 0.18763235 -2.1008894
1.0059986 0.18004894 -2.0976613
0.97556305 0.17559826 -2.0957067
0.9695515 0.17674217 -2.0998156
0.98408777 0.16993201 -2.0933917
0.97977322 0.19481316 -2.1086178
1.0003949 0.1828365 -2.1048269
0.97435874 0.17952088 -2.1120517
0.98164022 0.17188224 -2.1032312
0.99836624 0.18891987 -2.1175859
0.98526204 0.19208872 -2.1178741
1.0190562 0.17961085 -2.1153164
1.0030855 0.18583047 -2.1159847
0.98740238 0.17895934 -2.1207664
0.97683609 0.18193534 -2.1161714
0.97120875 0.17845729 -2.1144361
0.97936571 0.17633867 -2.1202159
1.021438 0.20008594 -2.130672
0.99196702 0.19910032 -2.1346829
1.0088526 0.18657276 -2.1304333
0.99881291 0.18973354 -2.1307063
0.97404504 0.18378139 -2.1289256
0.99518412 0.19529653 -2.1431723
1.0007282 0.19102103 -2.1348431
0.97722268 0.18643281 -2.1328816
1.0274606 0.18287021 -2.1408474
0.98540413 0.18224964 -2.1372297
0.99482173 0.2046856 -2.1522443
0.99089861 0.203614 -2.151794
0.99115592 0.19978562 -2.1481891
1.0193778 0.19059154 -2.1527264
0.9776094 0.19093034 -2.1495922
1.025736 0.20811513 -2.1637797
1.0099915 0.19405958 -2.1608355
1.0174464 0.1903643 -2.1564324
0.98544109 0.18728903 -2.154007
1.0423696 0.20233005 -2.1655035
0.99135226 0.20604235 -2.1666431
1.0052043 0.19855693 -2.1688128
1.0384179 0.20696139 -2.1823575
1.034276 0.21016601 -2.177942
1.0073297 0.20788205 -2.1760056
1.0028815 0.20495051 -2.174011
1.0318166 0.19087675 -2.1748931
0.99738884 0.18943766 -2.1774943
0.98993814 0.19400254 -2.1731837
0.9841972 0.19250062 -2.1720991
1.0070802 0.20957834 -2.190006
1.0194033 0.19714302 -2.1872263
1.0410501 0.19231266 -2.1889563
1.0320487 0.19080904 -2.1836245
1.0261751 0.19421306 -2.1828296
1.0471057 0.21082288 -2.1996574
1.0009825 0.21140566 -2.1941633
1.028097 0.19544029 -2.2004788
1.0153879 0.20186484 -2.1948457
1.0024111 0.19712257 -2.1970944
1.0014405 0.19202322 -2.191674
1.03497 0.21679556 -2.2122402
1.0272933 0.20661634 -2.2065711
1.0081687 0.21091285 -2.2033615
1.0374112 0.19657388 -2.2063558
1.0350376 0.1981208 -2.2096312
1.0563408 0.21220288 -2.2148368
1.0397679 0.2175684 -2.2223492
1.0257338 0.20522162 -2.2212775
1.0289625 0.20027277 -2.2140207
1.0672197 0.2123023 -2.2277229
1.0269705 0.2110016 -2.2239385
1.0218414 0.21374714 -2.2264147
1.0031955 0.2062465 -2.2309942
1.0150981 0.20028365 -2.2213705
1.0208423 0.22031063 -2.2342737
1.0376185 0.21223816 -2.2369461
1.0141845 0.21666214 -2.2332678
1.0227498 0.20896932 -2.2489135
