# .PCD v0.7 - Point Cloud Data file format
VERSION 0.7
FIELDS x y z
SIZE 4 4 4
TYPE F F F
COUNT 1 1 1
WIDTH 454
HEIGHT 1
VIEWPOINT 0 0 0 1 0 0 0
POINTS 454
DATA ascii
-1.1379571 0.080128014 -0.59709889
-1.1223948 0.069094375 -0.5942843
-1.1150253 0.060463518 -0.59065348
-1.139748 0.076002292 -0.59883022
-1.1114594 0.063617587 -0.60632068
-1.1474724 0.06899114 -0.60414976
-1.1328838 0.063915238 -0.60166597
-1.1518693 0.082231686 -0.61021614
-1.1566445 0.062358886 -0.60573447
-1.1001555 0.073748007 -0.62104905
-1.1328799 0.074981429 -0.625157
-1.1678995 0.073043421 -0.62249279
-1.1078935 0.066771656 -0.62198776
-1.1333641 0.068372041 -0.619277
-1.1140501 0.091172785 -0.63241768
-1.1202408 0.084010981 -0.63331485
-1.1523533 0.086721815 -0.62795889
-1.1698251 0.079280913 -0.62670916
-1.1418232 0.066359974 -0.63313895
-1.0974392 0.077005215 -0.63735002
-1.1043276 0.069925733 -0.63765496
-1.1338446 0.072828852 -0.63688803
-1.1723071 0.077249996 -0.63922161
-1.0990014 0.096037008 -0.65169406
-1.104551 0.088758878 -0.65166819
-1.094723 0.080262423 -0.65365094
-1.1056156 0.082801826 -0.64919853
-1.1337988 0.068193533 -0.64857769
-1.142198 0.090641454 -0.65853715
-1.1538308 0.086066261 -0.65724635
-1.1173577 0.075522229 -0.66198218
-1.1211358 0.079655364 -0.65862894
-1.0888406 0.074737757 -0.6558578
-1.1013277 0.074321158 -0.65923488
-1.1409538 0.069358841 -0.65791249
-1.1507894 0.071518801 -0.6592012
-1.077293 0.094955705 -0.67218673
-1.0904537 0.087976016 -0.6729306
-1.0620387 0.081070639 -0.67617083
-1.1042719 0.081848398 -0.667216
-1.1418121 0.07822749 -0.66935241
-1.0994536 0.070777088 -0.66940063
-1.1351545 0.072169192 -0.66631961
-1.0703255 0.11161835 -0.68927598
-1.0855206 0.096576974 -0.68533838
-1.1298002 0.096283808 -0.68240666
-1.1076596 0.084132828 -0.68246722
-1.0740725 0.080673359 -0.67864221
-1.0778551 0.094247609 -0.68938768
-1.084986 0.097704701 -0.68980843
-1.1227031 0.095960401 -0.691719
-1.0585437 0.08416196 -0.69152623
-1.0815104 0.082345076 -0.69144058
-1.0892904 0.08677683 -0.68625289
-1.1129166 0.08430402 -0.69168097
-1.060951 0.074464664 -0.69334877
-1.0730425 0.078547016 -0.69247901
-1.1041586 0.079151139 -0.68583316
-1.0503747 0.12013629 -0.70901
-1.0775352 0.10592813 -0.70707184
-1.0814049 0.11379387 -0.7031219
-1.0587628 0.10262045 -0.70526069
-1.0694475 0.10232556 -0.70674145
-1.0765924 0.098093279 -0.70621318
-1.1010516 0.10454843 -0.70233464
-1.1171768 0.10052513 -0.70202541
-1.1203816 0.10486138 -0.70331645
-1.0744213 0.091650181 -0.70504838
-1.0835589 0.095230892 -0.70489335
-1.1070292 0.088975362 -0.70313722
-1.0591049 0.080361992 -0.70421964
-1.084597 0.085729398 -0.70062351
-1.0915732 0.084747098 -0.69995278
-1.0530015 0.075636953 -0.69789207
-1.0704771 0.11976065 -0.71692765
-1.0993772 0.12156979 -0.71760058
-1.1028746 0.11095104 -0.71440846
-1.0890768 0.096035421 -0.71044594
-1.1358594 0.10077773 -0.70736688
-1.0550487 0.087253273 -0.70688176
-1.0629852 0.092067897 -0.70972073
-1.0963217 0.088130504 -0.70740682
-1.1015092 0.089602299 -0.71280438
-1.0465201 0.079349332 -0.71183205
-1.0774448 0.085562848 -0.70639896
-1.0842636 0.080496684 -0.7064358
-1.0911677 0.085430831 -0.70894033
-1.0935524 0.085799351 -0.70735312
-1.0434264 0.10767649 -0.72396898
-1.084479 0.10742691 -0.72021717
-1.1009637 0.10556331 -0.71916926
-1.1097279 0.11181077 -0.72520316
-1.0716275 0.098296963 -0.72338718
-1.0878388 0.10018213 -0.72026789
-1.0401837 0.09185715 -0.72426963
-1.0697806 0.093467705 -0.72279888
-1.0859133 0.089589521 -0.71784979
-1.1108459 0.092455961 -0.71975034
-1.0590174 0.084624082 -0.72098768
-1.0608112 0.12788767 -0.73661107
-1.0648224 0.12397776 -0.73484063
-1.0575025 0.11274279 -0.73770118
-1.0517728 0.10880309 -0.73597163
-1.1032028 0.10968324 -0.73624843
-1.0860493 0.094292015 -0.72960883
-1.0322742 0.084169604 -0.7300685
-1.0395716 0.093168743 -0.726879
-1.0689811 0.088342294 -0.72761518
-1.083122 0.092346683 -0.72855282
-1.0144403 0.081124507 -0.73201406
-1.1072952 0.12212631 -0.74281174
-1.0379577 0.11803868 -0.74212217
-1.0223479 0.10417338 -0.74617088
-1.0501043 0.11006139 -0.73821634
-1.0597091 0.10808905 -0.74587804
-1.0740674 0.10578463 -0.73986429
-1.0246502 0.097726434 -0.74324304
-1.0653565 0.096250705 -0.73742878
-1.0719804 0.094184302 -0.736193
-1.0791415 0.10091403 -0.73968685
-1.0854096 0.093830988 -0.73861098
-1.0353146 0.12120814 -0.75798422
-1.0369294 0.11326463 -0.75316751
-1.05408 0.1125692 -0.75232702
-1.105442 0.11380319 -0.75332779
-1.0388191 0.10167369 -0.7545768
-1.0427017 0.09640719 -0.75406599
-1.0563723 0.095317841 -0.7490865
-1.0853449 0.096436672 -0.7455079
-1.029631 0.087339103 -0.74593055
-1.061756 0.087783657 -0.74954027
-1.0235007 0.13392606 -0.76921046
-1.0484968 0.13035291 -0.76506162
-1.0487113 0.11827283 -0.76677161
-1.0647134 0.11723236 -0.76191306
-1.0197225 0.10732167 -0.76192677
-1.0484039 0.11295525 -0.76163459
-1.060169 0.11235575 -0.76273787
-1.0690042 0.10774356 -0.76083761
-1.0220668 0.099451035 -0.75658303
-1.0632942 0.10271036 -0.75598484
-1.0651517 0.1025941 -0.75695044
-1.0269879 0.090508588 -0.76179248
-1.0467049 0.095093831 -0.7574358
-1.0619268 0.093127728 -0.75849754
-1.0886245 0.09721116 -0.75537407
-1.0212324 0.12571703 -0.77579117
-1.0222831 0.11766733 -0.77013731
-1.0310198 0.11769611 -0.76928276
-1.0627748 0.12074585 -0.77149493
-1.0076182 0.10391439 -0.77341914
-1.0167279 0.10399654 -0.77239084
-1.0236548 0.10569576 -0.77015942
-1.0317811 0.099202581 -0.76707542
-1.0431988 0.09897314 -0.77028173
-1.0483043 0.1048946 -0.77329868
-1.0750749 0.10285512 -0.76627129
-1.0203886 0.090743937 -0.77123564
-1.051843 0.09465342 -0.77045882
-1.0049689 0.13809039 -0.78430325
-1.0224992 0.13588363 -0.78369159
-1.0258482 0.13832921 -0.78235698
-1.0225817 0.12337736 -0.7834332
-1.0118178 0.12148912 -0.78505379
-1.0188339 0.12071809 -0.78529131
-1.0270332 0.12085143 -0.78395081
-1.059039 0.1144696 -0.78167474
-1.0182061 0.10944773 -0.78109598
-1.0460027 0.11057285 -0.78277671
-1.0534705 0.10863452 -0.77735549
-1.0729212 0.11460057 -0.77647835
-1.0129616 0.095222838 -0.77957404
-1.0346248 0.10121913 -0.77684808
-1.0496376 0.10469928 -0.78038108
-1.0190499 0.1389344 -0.79884553
-1.0374842 0.13792427 -0.7956596
-1.007408 0.13015781 -0.79335004
-1.0290041 0.12496316 -0.79681957
-1.0463641 0.12711406 -0.79153353
-1.0033 0.11501143 -0.79522902
-0.99454969 0.10814173 -0.79013544
-1.0020618 0.10845434 -0.78835833
-1.0345385 0.10542195 -0.79338294
-1.0538231 0.10924663 -0.78799242
-0.99869704 0.093584858 -0.78993845
-1.0291023 0.099713974 -0.7924096
-1.0436555 0.10320964 -0.78702223
-1.0598395 0.10306253 -0.78837866
-1.016049 0.09347371 -0.78558564
-1.0037577 0.1417799 -0.80044538
-1.0159813 0.13201359 -0.80730289
-0.99357814 0.12629953 -0.80341506
-0.9991405 0.12671694 -0.80341107
-1.0340537 0.1227648 -0.79727054
-1.0369928 0.12479164 -0.80233389
-1.0491775 0.12110675 -0.80222601
-1.051057 0.12752578 -0.80126154
-1.0281107 0.11466149 -0.80056572
-1.0316758 0.11666564 -0.80247909
-1.0509394 0.11240125 -0.79834414
-1.0088058 0.11026666 -0.80153871
-1.0149757 0.11115532 -0.79885936
-1.0300429 0.10384497 -0.79494345
-1.0540569 0.11144614 -0.79671657
-1.0001289 0.098697305 -0.79899329
-1.0193144 0.09915223 -0.79987967
-1.0355096 0.096386328 -0.79659003
-1.0334716 0.14110011 -0.81042314
-1.0057379 0.12916091 -0.81376052
-1.0602679 0.13070378 -0.80919635
-1.026184 0.11983244 -0.80728555
-1.0310687 0.11975013 -0.81371582
-1.038165 0.12675381 -0.81190962
-0.96880156 0.11398186 -0.80786186
-0.97918499 0.11747343 -0.81574804
-0.99452347 0.11165403 -0.80637681
-1.0006919 0.11813892 -0.81088084
-1.0226182 0.1139718 -0.81353569
-0.9965837 0.10299252 -0.81275976
-1.033483 0.10499918 -0.8082335
-0.97571129 0.097792193 -0.80800706
-1.0249605 0.098834686 -0.80468482
-1.0128291 0.14651853 -0.82540697
-1.0021918 0.1364128 -0.82465369
-0.96901214 0.1317333 -0.82107025
-0.99792928 0.13040647 -0.81955332
-1.0140502 0.13272855 -0.82443213
-1.0394896 0.12764323 -0.82247454
-1.0220392 0.12093528 -0.8211931
-1.0297899 0.12312065 -0.82298034
-1.0329318 0.12049309 -0.82345909
-0.96544039 0.11695477 -0.82262915
-0.99331212 0.11534353 -0.822519
-1.0048447 0.11340173 -0.81611258
-1.0186067 0.11395346 -0.81623495
-1.0432889 0.11727948 -0.81668913
-0.96986282 0.10253189 -0.82126212
-0.97598004 0.10280293 -0.81680399
-1.0118951 0.10625862 -0.81782508
-1.022136 0.10228748 -0.81884551
-0.97972989 0.14839587 -0.83302426
-0.96565104 0.13470617 -0.83583748
-0.9726212 0.13497075 -0.83244002
-0.98845595 0.13375294 -0.82802022
-0.95904911 0.12150691 -0.83507538
-0.97492695 0.12015183 -0.82982802
-0.98702055 0.12260907 -0.82810462
-0.99939674 0.11909016 -0.83349144
-1.0093275 0.11763621 -0.82868367
-0.98293972 0.10756271 -0.82997108
-1.0034556 0.10820262 -0.82999843
-1.0136721 0.1104949 -0.83263224
-1.0228635 0.11469705 -0.83146846
-1.0234356 0.11536785 -0.82438833
-0.96186864 0.10217624 -0.82418811
-0.97172207 0.10548134 -0.83088398
-1.0184996 0.10427883 -0.82960522
-0.97634721 0.15138778 -0.8478862
-1.0084896 0.14924827 -0.83975691
-0.98542172 0.13554031 -0.8375566
-0.99314088 0.13792039 -0.84373033
-0.99958372 0.13954027 -0.84030545
-1.0181792 0.13624126 -0.84588319
-0.98442978 0.12571588 -0.84365302
-0.99156606 0.12557673 -0.84249437
-1.0128326 0.12636223 -0.83727902
-1.0215127 0.12667587 -0.84108841
-0.96207929 0.11992767 -0.83739638
-0.97066903 0.12283022 -0.84390801
-0.98083568 0.12057878 -0.84050238
-1.0192851 0.12051141 -0.84291101
-0.9557476 0.10691725 -0.8366257
-0.99617559 0.10915821 -0.83368045
-1.0055395 0.11143088 -0.83752924
-1.0171375 0.10869996 -0.83459246
-0.96894598 0.1037761 -0.83773088
-0.99379325 0.10445133 -0.83648407
-0.99355453 0.15294918 -0.85470521
-1.0153114 0.14527282 -0.85385638
-0.95848876 0.13915305 -0.84773368
-0.97275251 0.13651454 -0.84945506
-0.99290788 0.13793895 -0.85380608
-1.0106918 0.14151482 -0.84954524
-0.95695281 0.12373197 -0.85072386
-0.98700261 0.12557435 -0.85013831
-0.99463922 0.12731767 -0.84689265
-1.0003625 0.12661822 -0.8483488
-1.0054111 0.12864953 -0.84627652
-1.0137845 0.13004713 -0.85023254
-1.0306209 0.12664813 -0.84872305
-0.99330723 0.11390244 -0.84920007
-1.0061257 0.11577318 -0.85232824
-0.96746403 0.10815977 -0.84496391
-0.97096175 0.10972326 -0.84791207
-0.99359268 0.10870891 -0.85185361
-0.99898893 0.11096051 -0.8460831
-1.0085751 0.11249013 -0.84813941
-1.0177078 0.11269484 -0.84872544
-0.96250057 0.15543053 -0.86381316
-0.95892882 0.14065202 -0.86537206
-0.96484894 0.14112222 -0.86103624
-0.97501147 0.1450544 -0.8586942
-0.98381382 0.14189085 -0.8662194
-1.0034175 0.1428059 -0.85969025
-0.98807323 0.13436145 -0.86392623
-0.99169803 0.13246918 -0.86447221
-1.0003254 0.13366328 -0.86507636
-1.0156456 0.13600987 -0.85983849
-0.96152669 0.12644064 -0.86259627
-0.96641099 0.12550864 -0.85798794
-0.97095722 0.13010673 -0.8605485
-0.97963256 0.12424342 -0.85653585
-1.0003381 0.12561493 -0.85924828
-1.0306628 0.1298963 -0.8580122
-0.96690309 0.11515909 -0.86240274
-0.9901486 0.11693271 -0.85831344
-0.99585217 0.11906696 -0.86053783
-0.95514643 0.10812205 -0.85372263
-0.96320611 0.11083816 -0.8590439
-0.99435371 0.10843085 -0.85359222
-0.97188002 0.14424643 -0.87124634
-0.98516542 0.14480615 -0.87158465
-0.99238676 0.14090675 -0.87281811
-1.0269934 0.14341319 -0.87124246
-0.9725728 0.13245943 -0.86560076
-0.99288839 0.12974581 -0.87390202
-1.0030919 0.13649586 -0.86906874
-1.0247738 0.13348739 -0.87192786
-0.95535707 0.12587346 -0.86693096
-0.96215308 0.12818703 -0.87206787
-0.97093105 0.12866287 -0.86693978
-0.98758531 0.12008139 -0.87168908
-0.98967832 0.12641197 -0.87094563
-0.9979099 0.12278991 -0.86967492
-1.0046983 0.12385987 -0.86914068
-0.95178521 0.11109494 -0.86848992
-0.96783656 0.11459797 -0.86751688
-0.97868204 0.11615903 -0.86679906
-0.98335177 0.1195148 -0.86812621
-0.9938013 0.11563636 -0.86879838
-0.99950844 0.1181327 -0.86810583
-0.96853572 0.11046913 -0.86325675
-0.98599088 0.11075115 -0.86315101
-1.0054992 0.11084148 -0.86572313
-0.99181193 0.15900658 -0.88580185
-0.96598721 0.14249849 -0.87917894
-0.99136811 0.14173384 -0.88327515
-0.99871355 0.14275879 -0.87909156
-1.0041021 0.14621703 -0.87817758
-1.0132935 0.13759062 -0.88182241
-0.96838337 0.13319319 -0.87599492
-0.97561997 0.1329374 -0.88046443
-1.0005366 0.13481164 -0.87812597
-1.0056665 0.13657725 -0.87890768
-1.0106305 0.12979652 -0.88010222
-1.018128 0.13500085 -0.87627274
-0.9651804 0.1279822 -0.87841177
-0.99372536 0.1223526 -0.87778205
-0.99687409 0.12206551 -0.87916124
-1.0136652 0.11951025 -0.88105834
-0.95894819 0.11351655 -0.87312388
-0.97382951 0.11420544 -0.87860543
-0.9751671 0.11688323 -0.87661642
-1.0008386 0.11444394 -0.87313527
-0.99835515 0.15723895 -0.88976961
-0.99010128 0.14983892 -0.88750374
-1.0272747 0.14727606 -0.89054865
-0.97787553 0.14512946 -0.88814598
-0.98452973 0.1391165 -0.89124435
-0.99261528 0.14079694 -0.89165366
-1.0043297 0.13830653 -0.88844156
-1.0135677 0.14080256 -0.89179808
-0.97451073 0.13025999 -0.88972604
-0.97843927 0.12866063 -0.88536125
-0.98765135 0.1337764 -0.88913977
-0.98846716 0.13010144 -0.88708776
-1.0005451 0.12986591 -0.88988525
-1.022688 0.13239375 -0.89203113
-1.0318465 0.13642561 -0.88686728
-0.9716661 0.12060982 -0.88905817
-0.98572129 0.12484429 -0.88785905
-0.99869972 0.12279227 -0.8895033
-1.0107129 0.12281591 -0.8843202
-0.95879787 0.11275198 -0.88231671
-0.97114605 0.11539054 -0.89130616
-0.97771752 0.11420979 -0.8860628
-0.97730434 0.16311403 -0.90104711
-1.0170419 0.15817481 -0.90326095
-0.97393966 0.14824457 -0.90262705
-1.0115263 0.14973357 -0.90074205
-0.99771237 0.14325859 -0.89814055
-1.00718 0.13553739 -0.89702779
-1.0269177 0.14038277 -0.90196961
-1.037794 0.13792339 -0.90286165
-0.98037654 0.12808913 -0.89427477
-0.99059576 0.12815219 -0.90145642
-0.9968887 0.13073617 -0.90040094
-1.0065141 0.12589158 -0.89904058
-1.0243253 0.13343941 -0.89650494
-0.97928798 0.12126262 -0.89821124
-0.98467618 0.12246163 -0.89805514
-0.99862796 0.12538283 -0.89684969
-1.0059731 0.1191016 -0.89942598
-1.0166215 0.12434049 -0.89710116
-0.99741745 0.14644912 -0.90827739
-1.0022103 0.14397366 -0.90570813
-1.0115213 0.14397141 -0.91238666
-1.0162784 0.14451715 -0.91215038
-0.98504323 0.13690387 -0.90479159
-0.99941689 0.14069529 -0.90579087
-1.0124278 0.13837303 -0.91024995
-1.0236274 0.13985689 -0.9099468
-1.0410435 0.13595174 -0.91104782
-0.98107827 0.1322121 -0.90355617
-0.98757553 0.12995863 -0.90812308
-0.99308157 0.12446967 -0.90858096
-0.99541074 0.13268225 -0.90610582
-1.0033859 0.12918426 -0.90599722
-0.96998531 0.1230969 -0.90771323
-0.99285567 0.12318957 -0.9112097
-0.99877715 0.12371205 -0.91032672
-0.95957917 0.15239985 -0.91767251
-0.9997533 0.14218421 -0.92196065
-1.0203096 0.15173963 -0.91560131
-1.0514253 0.14284991 -0.91714913
-0.96663904 0.1364902 -0.91868824
-0.98034728 0.13616192 -0.91917288
-0.99346799 0.13880448 -0.91948533
-1.0051775 0.13285996 -0.92023528
-0.99077719 0.13189362 -0.91343826
-0.99936914 0.13096587 -0.91509134
-1.0058708 0.12723656 -0.91536021
-1.0112836 0.12916304 -0.91579634
-1.0203522 0.12874642 -0.9142502
-1.0272441 0.130501 -0.91953009
-1.0324537 0.13160262 -0.91400635
-1.0068411 0.12328793 -0.91490507
-1.0257629 0.14553107 -0.92565113
-1.0089618 0.13363998 -0.9271217
-1.0171963 0.13171943 -0.92670316
-1.0235889 0.14074892 -0.92504638
-1.0317518 0.13396572 -0.92919695
-0.99714911 0.12730782 -0.92427319
-1.0130599 0.12498164 -0.92277014
-1.0184662 0.12785605 -0.92973173
-1.0224856 0.12833183 -0.92610067
-1.0324159 0.13071916 -0.92378247
-1.0209904 0.14283185 -0.9336853
-1.009835 0.13684285 -0.93663353
-1.0225374 0.13463339 -0.94053441
-1.0346907 0.13347656 -0.93435854
-1.0385616 0.13329278 -0.93353081
-1.0315968 0.12867826 -0.9376452
-1.0238451 0.13355054 -0.94689626
