# .PCD v0.7 - Point Cloud Data file format
VERSION 0.7
FIELDS x y z
SIZE 4 4 4
TYPE F F F
COUNT 1 1 1
WIDTH 142
HEIGHT 1
VIEWPOINT 0 0 0 1 0 0 0
POINTS 142
DATA ascii
-0.96332413 0.17083918 -1.5371699
-0.96588439 0.15842105 -1.5355862
-0.95895517 0.15473114 -1.5391684
-0.95900971 0.16847908 -1.5538116
-0.96048039 0.17293045 -1.5521203
-0.96679068 0.17021167 -1.54533
-0.95160717 0.16202109 -1.5477562
-0.95781642 0.15863998 -1.5481294
-0.96341801 0.1634808 -1.5511131
-0.94221044 0.16529267 -1.5613042
-0.94885081 0.17044856 -1.5580192
-0.95566499 0.16948369 -1.5624577
-0.97469771 0.17338796 -1.5622445
-0.95537674 0.16080305 -1.5576447
-0.96338123 0.16044401 -1.5539417
-0.94951153 0.17567965 -1.5689716
-0.95604205 0.17696956 -1.5694792
-0.96878695 0.17904662 -1.5699981
-0.9760763 0.17727387 -1.5734633
-0.95065421 0.16508098 -1.5685821
-0.95286626 0.16799593 -1.5685927
-0.96321923 0.16520618 -1.5691713
-0.97230011 0.17240427 -1.5651553
-0.94317889 0.16125888 -1.5700659
-0.97100621 0.16283388 -1.5680988
-0.94764864 0.17246775 -1.5747405
-0.95662558 0.17165931 -1.5774845
-0.96368438 0.17681937 -1.579968
-0.9765653 0.17541571 -1.5780441
-0.95473164 0.1629944 -1.5744522
-0.96538854 0.16807951 -1.5771866
-0.96882743 0.1664952 -1.5784148
-0.96783376 0.17976716 -1.5928943
-0.98182261 0.18070725 -1.5899451
-0.95663673 0.17429481 -1.5859365
-0.96228659 0.17566659 -1.5894561
-0.96992069 0.1746137 -1.5891597
-0.97285783 0.17376825 -1.5887485
-0.98954827 0.17386237 -1.5902517
-0.96448493 0.16807401 -1.5851663
-0.99988574 0.18881172 -1.5991504
-0.98225504 0.18185662 -1.5994437
-0.98987186 0.18355404 -1.5990925
-0.96835792 0.17271894 -1.5976751
-0.97671866 0.17698292 -1.6018951
-0.97715402 0.17906532 -1.6054095
-0.98133302 0.18076319 -1.6048716
-0.98820621 0.17769554 -1.6059781
-0.99523783 0.18382293 -1.6101844
-1.002221 0.1845092 -1.6108967
-0.96323359 0.17687225 -1.6048923
-0.96710503 0.17254193 -1.6024182
-0.98271185 0.17462134 -1.6073161
-0.99028635 0.19081685 -1.616624
-1.0003477 0.19275901 -1.6229128
-0.97623092 0.17837821 -1.6207926
-0.98321235 0.1798729 -1.6171203
-0.98801547 0.18096861 -1.6161778
-0.9964847 0.18145649 -1.6182745
-1.0021745 0.18226223 -1.6221414
-1.0081184 0.18216978 -1.6154118
-1.0022653 0.19494371 -1.6281608
-1.033089 0.19393156 -1.6290123
-0.99060845 0.18582365 -1.6288916
-0.99750769 0.19132623 -1.6318798
-1.0078644 0.18966407 -1.6253752
-1.0355163 0.19107816 -1.6260861
-0.99394423 0.18187791 -1.6287
-1.0134 0.18387416 -1.6252612
-1.0118225 0.19607337 -1.636915
-1.0257616 0.19699791 -1.6426473
-1.026002 0.19822292 -1.6429116
-1.0337665 0.19309251 -1.6409347
-0.99424064 0.18783276 -1.6359539
-1.0163418 0.18879873 -1.6348039
-1.0242703 0.18602262 -1.6360829
-0.99971944 0.1953337 -1.6473637
-1.0168304 0.1965705 -1.6501911
-1.0274864 0.19475883 -1.6503055
-1.0418241 0.19353934 -1.6475418
-1.024496 0.19932178 -1.6560265
-1.0267516 0.20242639 -1.6601552
-1.04145 0.20234267 -1.658574
-1.0044599 0.19463128 -1.6526154
-1.0203676 0.19706193 -1.6616292
-1.013033 0.19771281 -1.6650653
-1.0303125 0.20071986 -1.6650615
-1.0354677 0.20081802 -1.6675906
-1.0231714 0.19330305 -1.6629744
-1.0235461 0.20583481 -1.6768352
-1.0493567 0.20922247 -1.6776263
-1.0165688 0.19740321 -1.6723025
-1.0236553 0.20005988 -1.6759387
-1.02574 0.20296991 -1.6723068
-1.043736 0.20265742 -1.6767061
-1.0376672 0.20421836 -1.6862614
-1.0437243 0.21249485 -1.6908216
-1.0675097 0.20732957 -1.6860791
-1.0547435 0.21424259 -1.6973281
-1.0632471 0.21251826 -1.6958431
-1.0898799 0.21806607 -1.698967
-1.0283015 0.20858723 -1.6923001
-1.0386186 0.20523502 -1.6916031
-1.0489936 0.20549646 -1.6949871
-1.0319186 0.2120392 -1.706028
-1.0457968 0.21630792 -1.7066288
-1.0557432 0.21702801 -1.7028484
-1.0671418 0.21599358 -1.7111261
-1.0838618 0.21763477 -1.7092524
-1.0613838 0.20817177 -1.7064118
-1.0585989 0.21979979 -1.7143866
-1.0868725 0.22167221 -1.7170143
-1.0561061 0.21579576 -1.7157252
-1.0619189 0.21656388 -1.7135438
-1.089633 0.21784548 -1.7165943
-1.070595 0.21819343 -1.7273474
-1.0917177 0.21798562 -1.7258618
-1.0731635 0.22190736 -1.7336299
-1.0840827 0.22172759 -1.7356592
-1.0881779 0.21848613 -1.7355764
-1.0981615 0.22411452 -1.7393702
-1.1004827 0.22027171 -1.7375453
-1.0830325 0.22761622 -1.7467257
-1.1024027 0.23084846 -1.7458084
-1.080858 0.22888449 -1.7531087
-1.0870056 0.22864267 -1.7527013
-1.1008542 0.22758485 -1.756219
-1.0966599 0.23012418 -1.7670939
-1.1194596 0.23101749 -1.7636718
-1.106647 0.23497075 -1.7712796
-1.118288 0.23907427 -1.7745434
-1.1213193 0.23896018 -1.7830646
-1.1213846 0.23707192 -1.7865237
-1.152601 0.24698652 -1.7970185
-1.1349151 0.24100919 -1.7927413
-1.1280081 0.24773285 -1.8084571
-1.1358997 0.24779408 -1.8062155
-1.1332574 0.24248566 -1.8015159
-1.1429265 0.24790862 -1.818045
-1.1621888 0.25506154 -1.8263429
-1.1410843 0.24860516 -1.8248549
-1.150822 0.251441 -1.8248403
