# .PCD v0.7 - Point Cloud Data file format
VERSION 0.7
FIELDS x y z
SIZE 4 4 4
TYPE F F F
COUNT 1 1 1
WIDTH 119
HEIGHT 1
VIEWPOINT 0 0 0 1 0 0 0
POINTS 119
DATA ascii
-0.91226768 -0.16508391 -1.5961229
-0.90626609 -0.16179708 -1.6167359
-0.9099108 -0.17625004 -1.6121715
-0.91249263 -0.19915754 -1.6165609
-0.91656739 -0.19530523 -1.6081489
-0.90144157 -0.22216448 -1.6126953
-0.90076149 -0.22954606 -1.6079656
-0.90980464 -0.19090851 -1.6226103
-0.91500521 -0.21205857 -1.6205479
-0.91296864 -0.21818468 -1.6166248
-0.8892135 -0.15791349 -1.636238
-0.8969717 -0.16175336 -1.6343336
-0.89630979 -0.17748322 -1.6358985
-0.90441173 -0.20884617 -1.6317399
-0.90111804 -0.22334351 -1.6290905
-0.91090763 -0.21865861 -1.6267017
-0.8839401 -0.14165452 -1.6486055
-0.88117367 -0.15756544 -1.6485248
-0.88734597 -0.16705635 -1.6497633
-0.8882761 -0.17740473 -1.6484355
-0.89925063 -0.21532069 -1.6402129
-0.89753973 -0.22286752 -1.6335255
-0.87142426 -0.15279594 -1.6619833
-0.87622595 -0.15556136 -1.6554228
-0.88034105 -0.15888584 -1.6578195
-0.87253016 -0.17135212 -1.6552743
-0.87888539 -0.16871575 -1.6532041
-0.87717277 -0.17722909 -1.6564107
-0.87511742 -0.19119899 -1.6536465
-0.89115393 -0.1966785 -1.6501604
-0.88208342 -0.20908663 -1.6476486
-0.89074373 -0.21902801 -1.6469498
-0.89502615 -0.22061881 -1.6507974
-0.86909682 -0.15257807 -1.6686885
-0.87170142 -0.14771473 -1.6678135
-0.8687318 -0.15764399 -1.6710627
-0.87626255 -0.17960851 -1.662113
-0.87773651 -0.1894917 -1.662712
-0.88292807 -0.19583182 -1.6633369
-0.88139641 -0.21761005 -1.6530693
-0.89063114 -0.22663219 -1.6526058
-0.86196774 -0.14959475 -1.6819541
-0.86475736 -0.17629601 -1.6766272
-0.87144905 -0.18718094 -1.6745102
-0.87327319 -0.19201587 -1.6693647
-0.86958688 -0.21276464 -1.6720191
-0.86795658 -0.18780127 -1.6800184
-0.86678344 -0.2023216 -1.679238
-0.86188942 -0.18455061 -1.6918439
-0.86122906 -0.19498363 -1.6886657
-0.85586631 -0.20103166 -1.6918727
-0.86006004 -0.19929887 -1.6936051
-0.86801583 -0.21432836 -1.6880554
-0.83926022 -0.1508773 -1.7102135
-0.84401351 -0.15941894 -1.7083369
-0.85369766 -0.17041481 -1.6997049
-0.84307677 -0.19303909 -1.701921
-0.83833909 -0.20203665 -1.6976017
-0.85472685 -0.20601651 -1.6997828
-0.84376031 -0.20917779 -1.7014101
-0.83529019 -0.13848978 -1.7189853
-0.84045327 -0.15711804 -1.7112592
-0.84231347 -0.16626224 -1.7153819
-0.84161425 -0.1966657 -1.7132568
-0.83391756 -0.20734638 -1.7076113
-0.84931564 -0.20076224 -1.7051892
-0.8503722 -0.2159196 -1.7038506
-0.82559282 -0.142775 -1.7309898
-0.83329713 -0.16215542 -1.7259018
-0.83552098 -0.16603617 -1.7253485
-0.81187958 -0.19002071 -1.7240627
-0.83640027 -0.19003741 -1.7161881
-0.79795372 -0.19950821 -1.7173645
-0.84566385 -0.19739372 -1.715898
-0.8240748 -0.20551494 -1.7138127
-0.83371776 -0.20557117 -1.7196693
-0.83974624 -0.20405243 -1.718116
-0.84774053 -0.20337458 -1.716046
-0.8231259 -0.15128529 -1.7387468
-0.81497777 -0.18931577 -1.7304497
-0.83429772 -0.18934211 -1.7297158
-0.82701361 -0.19865292 -1.7322034
-0.83469397 -0.19360705 -1.7271446
-0.8427279 -0.20135505 -1.7242228
-0.82840616 -0.17719734 -1.7387917
-0.82451069 -0.18774141 -1.7359312
-0.8228457 -0.21385531 -1.7318546
-0.82055306 -0.17557809 -1.7504045
-0.81648743 -0.18939002 -1.749465
-0.82046258 -0.19114187 -1.7498416
-0.81342459 -0.20488185 -1.7471778
-0.82904708 -0.2044681 -1.7417746
-0.81186455 -0.17359936 -1.7603408
-0.80977118 -0.19020151 -1.753247
-0.80320525 -0.20991842 -1.7576492
-0.82427204 -0.21367478 -1.7509195
-0.80638576 -0.1906697 -1.76882
-0.79117304 -0.18423136 -1.7775476
-0.79928744 -0.18384868 -1.7779853
-0.77760202 -0.16722876 -1.7939657
-0.7939226 -0.18019633 -1.787057
-0.7883364 -0.18431774 -1.7848415
-0.78269166 -0.15372744 -1.7968652
-0.78425485 -0.18176061 -1.7992705
-0.78500992 -0.18510354 -1.800938
-0.78322446 -0.19982654 -1.7987547
-0.77419186 -0.14858109 -1.8072895
-0.77490532 -0.18339182 -1.8065943
-0.77899212 -0.18958028 -1.8063091
-0.76523405 -0.1761418 -1.8192981
-0.76493692 -0.18176147 -1.8129246
-0.76348329 -0.16779582 -1.8315467
-0.7662766 -0.1793409 -1.8273566
-0.75089401 -0.17052656 -1.8408555
-0.75930566 -0.17840508 -1.8405151
-0.74560636 -0.17106035 -1.8465235
-0.74162894 -0.17830572 -1.8436779
-0.73852521 -0.16809712 -1.8596998
-0.7410562 -0.16885655 -1.8653696
