# .PCD v0.7 - Point Cloud Data file format
VERSION 0.7
FIELDS x y z
SIZE 4 4 4
TYPE F F F
COUNT 1 1 1
WIDTH 274
HEIGHT 1
VIEWPOINT 0 0 0 1 0 0 0
POINTS 274
DATA ascii
-0.37966499 -0.090451017 -1.3746189
-0.38491032 -0.091870688 -1.3696148
-0.377749 -0.092369646 -1.3801197
-0.37200385 -0.10330674 -1.3798293
-0.36638349 -0.084895097 -1.3932891
-0.37012088 -0.086356945 -1.3907504
-0.37355953 -0.092491969 -1.3861947
-0.37590766 -0.095247827 -1.3859098
-0.37334573 -0.10357518 -1.3850168
-0.35846949 -0.086827427 -1.4021615
-0.36427882 -0.085371725 -1.3997076
-0.35680205 -0.087258041 -1.4075897
-0.34544882 -0.078993723 -1.4230586
-0.34999982 -0.079558261 -1.4206789
-0.35424182 -0.082134977 -1.4158905
-0.35306692 -0.086181641 -1.4159997
-0.34326696 -0.073388666 -1.4305754
-0.34912315 -0.073687047 -1.4285052
-0.33983302 -0.078668177 -1.429759
-0.34380117 -0.080428034 -1.4276013
-0.34777099 -0.079657093 -1.4284625
-0.33130735 -0.073338777 -1.442517
-0.33656344 -0.07317844 -1.4393259
-0.34145856 -0.075058237 -1.4362209
-0.33327579 -0.079745635 -1.4393032
-0.33574933 -0.082970522 -1.4349624
-0.33545905 -0.090112656 -1.4403015
-0.3246147 -0.074102208 -1.4521083
-0.32968891 -0.074066788 -1.4488481
-0.33381337 -0.072936878 -1.4468229
-0.32948703 -0.081994385 -1.4484417
-0.31255478 -0.067782626 -1.4646378
-0.31805527 -0.067331031 -1.462788
-0.3224113 -0.067187369 -1.4602945
-0.32380435 -0.076918349 -1.4566544
-0.31044897 -0.065658391 -1.4719481
-0.31563345 -0.06771335 -1.4692761
-0.30407912 -0.061401919 -1.4823798
-0.30807209 -0.06157811 -1.4795964
-0.30347329 -0.067080826 -1.4797138
-0.30872378 -0.068009764 -1.4768757
-0.29178137 -0.062121376 -1.4941282
-0.29704198 -0.061358362 -1.4912888
-0.30118883 -0.062946111 -1.4898697
-0.29633451 -0.069883823 -1.4938936
-0.30237269 -0.069436356 -1.4885079
-0.28382438 -0.053094894 -1.5059595
-0.28916538 -0.055007935 -1.5030179
-0.29410788 -0.055085391 -1.4996537
-0.30013126 -0.054066181 -1.5007749
-0.29034698 -0.060520187 -1.5019337
-0.29482466 -0.061749384 -1.498886
-0.28263876 -0.0549725 -1.5120263
-0.2875306 -0.056668833 -1.5094718
-0.29207447 -0.054884106 -1.509523
-0.28411728 -0.062613234 -1.5107644
-0.28844428 -0.062052056 -1.5080253
-0.27011156 -0.047336072 -1.5249877
-0.27530289 -0.048502311 -1.5223132
-0.28001928 -0.049764723 -1.5181464
-0.27616718 -0.054692939 -1.521261
-0.28026295 -0.055502892 -1.5194075
-0.26435447 -0.047754198 -1.534487
-0.26866215 -0.049651995 -1.5321648
-0.27310908 -0.050248012 -1.5287006
-0.26911175 -0.057678759 -1.5325816
-0.27429178 -0.056519121 -1.5267971
-0.25643301 -0.042048335 -1.5446646
-0.26132798 -0.041610673 -1.5422941
-0.25672168 -0.047683761 -1.5441767
-0.26244575 -0.049814105 -1.5411673
-0.2670809 -0.050843373 -1.5374776
-0.25054505 -0.044029325 -1.555485
-0.25468016 -0.042959183 -1.5517565
-0.25941184 -0.04390417 -1.5483649
-0.25641701 -0.049328417 -1.5498765
-0.25993836 -0.049142942 -1.5485981
-0.24273928 -0.035141408 -1.5649236
-0.24708903 -0.035685107 -1.5619797
-0.24322701 -0.043725431 -1.5630096
-0.24795313 -0.043284431 -1.5614188
-0.25310814 -0.044433728 -1.5578783
-0.24847683 -0.050485343 -1.5620778
-0.25209785 -0.050368667 -1.5571693
-0.23646297 -0.035011783 -1.5750771
-0.24038175 -0.0365614 -1.5709295
-0.24485481 -0.03680107 -1.5691165
-0.23623143 -0.041564822 -1.5708266
-0.24143599 -0.043449238 -1.5708791
-0.24562567 -0.043340072 -1.5682747
-0.22851765 -0.028440908 -1.5855942
-0.2293092 -0.036442041 -1.5849103
-0.23392755 -0.037551582 -1.581392
-0.23883507 -0.039379045 -1.5785003
-0.23375754 -0.045000345 -1.5810245
-0.23972642 -0.044526264 -1.5779586
-0.22196405 -0.029676393 -1.5949662
-0.22652148 -0.030404061 -1.5909058
-0.23105921 -0.03227371 -1.5882399
-0.22296645 -0.03784059 -1.5942769
-0.22700951 -0.038046867 -1.5908713
-0.23219047 -0.039853573 -1.5882895
-0.22933839 -0.046563715 -1.5893615
-0.21437413 -0.021877676 -1.6058273
-0.21548966 -0.030598491 -1.6048849
-0.21980938 -0.031873837 -1.6008053
-0.22657943 -0.03368181 -1.5992346
-0.22101806 -0.038218245 -1.5997684
-0.22561289 -0.039627105 -1.5975207
-0.20771387 -0.023154423 -1.6143122
-0.21210678 -0.023554057 -1.6111753
-0.21323743 -0.032246217 -1.6105363
-0.21817333 -0.033387572 -1.6077042
-0.21532285 -0.039079845 -1.6077665
-0.21866895 -0.040007576 -1.6056539
-0.19986206 -0.016113058 -1.6256783
-0.21016933 -0.018893808 -1.6197642
-0.20149229 -0.024929777 -1.6236675
-0.20559663 -0.025148496 -1.6207533
-0.21032239 -0.027741775 -1.6175808
-0.20672089 -0.032243952 -1.619946
-0.21039405 -0.033747643 -1.6181182
-0.21223921 -0.040468574 -1.6175108
-0.19340652 -0.01674889 -1.635511
-0.1984657 -0.017070606 -1.6310778
-0.19416535 -0.024063095 -1.635196
-0.19921631 -0.026278287 -1.6298494
-0.20357926 -0.026532218 -1.6290518
-0.19920814 -0.032753736 -1.6293482
-0.20413651 -0.032780126 -1.6253909
-0.2093235 -0.031691983 -1.6251557
-0.18744268 -0.01730971 -1.6447306
-0.19124144 -0.019220263 -1.6406219
-0.20012513 -0.016303986 -1.6393691
-0.1920796 -0.026804179 -1.6402814
-0.19764829 -0.026563376 -1.6377543
-0.19374187 -0.034429342 -1.6372879
-0.19674586 -0.032402337 -1.636379
-0.18015786 -0.011378303 -1.6539615
-0.18458886 -0.009228453 -1.6505948
-0.18998408 -0.013171047 -1.6473856
-0.1807742 -0.018420935 -1.6533512
-0.18449309 -0.019816339 -1.6505852
-0.1888361 -0.022551775 -1.647861
-0.1854623 -0.026424512 -1.6501788
-0.18935364 -0.028426081 -1.6473289
-0.17339008 -0.012567326 -1.6638093
-0.17776787 -0.01149784 -1.6600369
-0.18253183 -0.010811538 -1.6574385
-0.17381862 -0.019869223 -1.6638286
-0.1785216 -0.020997852 -1.6593035
-0.18486437 -0.021513075 -1.6570902
-0.18004473 -0.027361512 -1.6594865
-0.18307699 -0.027247429 -1.6564678
-0.16101736 -0.0087305307 -1.6734856
-0.16595343 -0.003591612 -1.6739392
-0.17057584 -0.0033101588 -1.6702902
-0.17493391 -0.0058678836 -1.6672395
-0.1667681 -0.0131796 -1.6726307
-0.17073852 -0.014204666 -1.6695691
-0.16689761 -0.019610494 -1.6734068
-0.17101368 -0.020732954 -1.6705462
-0.17527832 -0.024386749 -1.6664501
-0.15896685 -0.0053702891 -1.6831819
-0.16417864 -0.0042168498 -1.6795675
-0.16801368 -0.0071847588 -1.6777147
-0.15968259 -0.013843372 -1.682513
-0.16403034 -0.014424548 -1.6793525
-0.16948567 -0.014282703 -1.6786474
-0.16565721 -0.020871058 -1.6783503
-0.17070252 -0.018470153 -1.675222
-0.15184627 0.0026133955 -1.693109
-0.15189314 -0.0062503368 -1.692613
-0.15669629 -0.0064423084 -1.6888474
-0.16281924 -0.0063818395 -1.6873741
-0.1524691 -0.0142764 -1.6931405
-0.15725507 -0.01517266 -1.6886544
-0.16317874 -0.016439259 -1.6877429
-0.14439061 0.0010211021 -1.70363
-0.14820857 0.0025509447 -1.6986647
-0.15474722 0.00052633882 -1.6973329
-0.14576292 -0.0081823766 -1.7026507
-0.1490431 -0.0088026375 -1.6987852
-0.14724377 -0.014463678 -1.7021701
-0.15050022 -0.015193745 -1.6989859
-0.13762185 0.0094195455 -1.7130331
-0.13740833 0.00053393841 -1.7131051
-0.14132552 -0.00099903345 -1.7083391
-0.13817102 -0.0076438785 -1.7129836
-0.14292148 -0.0099072903 -1.7085521
-0.14610742 -0.013638914 -1.7056278
-0.12658399 0.0090617836 -1.7252398
-0.13060421 0.0081320852 -1.7224053
-0.13621189 0.0097221285 -1.7199885
-0.13129658 -0.0010727197 -1.7218041
-0.1347408 -0.0031126887 -1.7176889
-0.13220011 -0.0094778091 -1.7225558
-0.13648671 -0.0097095221 -1.717898
-0.11913022 0.01423645 -1.736468
-0.11944699 0.0047005415 -1.7355398
-0.12354355 0.0060552061 -1.7315872
-0.12721521 0.0082837343 -1.7280407
-0.14128189 0.0085887164 -1.7333777
-0.12382165 -0.0029996783 -1.7323432
-0.12759374 -0.002671808 -1.7282156
-0.1254656 -0.0092290044 -1.731409
-0.12975751 -0.0094563365 -1.7265188
-0.11288794 0.017733395 -1.7464558
-0.11613038 0.014115766 -1.7422553
-0.12265748 0.011923015 -1.7400572
-0.12697291 0.01483579 -1.7446371
-0.14438413 0.0095340759 -1.744766
-0.11662962 0.0045261234 -1.741438
-0.12141192 0.0025642663 -1.7359626
-0.1274222 0.0057342052 -1.7409154
-0.11786369 -0.0031084567 -1.7408577
-0.12130976 -0.0060656667 -1.737933
-0.12324653 0.021740705 -1.7519177
-0.10500056 0.01157473 -1.7556766
-0.1094915 0.013255104 -1.7515221
-0.11900016 0.017034471 -1.7484169
-0.10999858 0.0036789179 -1.7509966
-0.1291827 0.0085946769 -1.7460387
-0.11072126 -0.0024701655 -1.7513546
-0.11410664 -0.002996549 -1.746786
-0.097855456 0.022324324 -1.7666007
-0.1024293 0.021207213 -1.7614756
-0.098001033 0.010847166 -1.7654151
-0.10335014 0.011265367 -1.759917
-0.10396015 0.0031141043 -1.7614783
-0.10735871 0.00084131956 -1.7570192
-0.10447772 -0.0055058002 -1.7594565
-0.10913371 -0.0019344389 -1.7545397
-0.091527119 0.019484907 -1.7755164
-0.09523239 0.018339887 -1.7715298
-0.095078535 0.0094594508 -1.7712026
-0.10001317 0.010202214 -1.7674043
-0.09650176 0.0013441592 -1.771137
-0.1010367 0.00091917813 -1.7663532
-0.084395438 0.027875707 -1.7851875
-0.087590098 0.027582839 -1.7815123
-0.084977672 0.019560367 -1.7844446
-0.08853361 0.017997846 -1.7809669
-0.088846914 0.0086780339 -1.7806592
-0.090701655 0.0018060058 -1.7800308
-0.096210837 -0.0003143847 -1.7756116
-0.08145 0.026783124 -1.7913706
-0.093194835 0.030580431 -1.7910148
-0.081791945 0.016751036 -1.7906499
-0.083676562 0.0086521953 -1.7899626
-0.085889034 0.0081929862 -1.7896638
-0.085403644 0.001044929 -1.7867881
-0.069960669 0.03365171 -1.8053145
-0.073432125 0.034253061 -1.8004466
-0.085342355 0.035669208 -1.8017272
-0.070881866 0.021398991 -1.8053609
-0.074822381 0.024926871 -1.7993308
-0.075332612 0.014719903 -1.800216
-0.079226971 0.014807552 -1.7972492
-0.079894483 0.0091671944 -1.7981913
-0.064420149 0.034238726 -1.8150591
-0.067761362 0.032417864 -1.8105078
-0.066863716 0.024475515 -1.8114852
-0.068601862 0.014282197 -1.8095943
-0.072950356 0.01019752 -1.8072897
-0.060378022 0.040073305 -1.8232999
-0.062230296 0.031945586 -1.8199587
-0.062265046 0.022010744 -1.8201201
-0.062031157 0.014846832 -1.821169
-0.066136762 0.013906807 -1.8165345
-0.067544214 0.037321687 -1.8294417
-0.05653283 0.026934147 -1.8292269
-0.056652382 0.022329301 -1.831758
-0.058769185 0.022298545 -1.8296854
