# .PCD v0.7 - Point Cloud Data file format
VERSION 0.7
FIELDS x y z
SIZE 4 4 4
TYPE F F F
COUNT 1 1 1
WIDTH 750
HEIGHT 1
VIEWPOINT 0 0 0 1 0 0 0
POINTS 750
DATA ascii
-0.38993257 -0.33849549 0.51537782
-0.40620244 -0.33894169 0.51651663
-0.38212839 -0.33031541 0.50313598
-0.3921698 -0.33557993 0.509229
-0.39018241 -0.32752663 0.48583379
-0.39316913 -0.32590002 0.48993036
-0.40399799 -0.32149243 0.47623008
-0.37811205 -0.33162877 0.47854006
-0.38447785 -0.32749736 0.46718252
-0.39853609 -0.32784384 0.46606538
-0.40157035 -0.32400343 0.46795508
-0.38852331 -0.32056737 0.45544803
-0.41531053 -0.31695887 0.45570147
-0.43028489 -0.3194927 0.45672807
-0.39612746 -0.32774603 0.45976868
-0.40646666 -0.32890338 0.45739168
-0.38719985 -0.31795871 0.44184929
-0.40947849 -0.32181671 0.44654807
-0.397448 -0.32268044 0.43798646
-0.4032779 -0.31545401 0.43994853
-0.41571301 -0.3218472 0.4354068
-0.38725433 -0.31345242 0.42552531
-0.40306088 -0.31476641 0.42813945
-0.41086617 -0.31261083 0.42731601
-0.41820025 -0.31596261 0.4281275
-0.42051527 -0.31148449 0.43040168
-0.40098953 -0.32145032 0.42580339
-0.41302198 -0.32200897 0.42754355
-0.42063165 -0.31777245 0.43079376
-0.42876437 -0.31943867 0.43104187
-0.38998625 -0.30970877 0.41479987
-0.41096836 -0.31000552 0.41810909
-0.41845438 -0.30976769 0.41468343
-0.42953688 -0.30933958 0.4140543
-0.43289167 -0.3170777 0.41758761
-0.3982982 -0.30721757 0.40300927
-0.40896881 -0.31472504 0.40822819
-0.44442824 -0.31142858 0.40727994
-0.41370305 -0.30762392 0.39718691
-0.427697 -0.30719221 0.40092099
-0.43816125 -0.30508739 0.40140584
-0.43928847 -0.30573583 0.39860213
-0.4520638 -0.30416521 0.39840844
-0.38961357 -0.31438464 0.39707837
-0.41126788 -0.31280261 0.40193531
-0.41500568 -0.3171609 0.39736974
-0.43268168 -0.31638989 0.40255377
-0.46907678 -0.30045256 0.38813111
-0.39904901 -0.31175005 0.38688722
-0.40661016 -0.30472633 0.3912186
-0.41702199 -0.3044675 0.38784868
-0.42447034 -0.3039282 0.39169493
-0.42742157 -0.31150377 0.38615006
-0.43357614 -0.30626267 0.38962933
-0.44323173 -0.31076959 0.38683978
-0.44978487 -0.30509746 0.38731039
-0.40216923 -0.31393626 0.39333171
-0.40811566 -0.31614783 0.39320964
-0.43265051 -0.31517556 0.39157078
-0.41492218 -0.30223513 0.37942803
-0.42316395 -0.30065987 0.37891605
-0.42871803 -0.300589 0.37832829
-0.44297341 -0.30162996 0.37681752
-0.46215931 -0.29820609 0.38279131
-0.40991431 -0.31042719 0.37955701
-0.43018109 -0.30503777 0.37885219
-0.44359365 -0.3065396 0.38306823
-0.45504865 -0.31092548 0.37525347
-0.4530161 -0.29281661 0.36795369
-0.47747374 -0.29349935 0.36727586
-0.41664681 -0.30554724 0.37014347
-0.42323413 -0.29974392 0.3676374
-0.43722978 -0.2998949 0.36968875
-0.44261882 -0.30130741 0.37141371
-0.45008275 -0.29919308 0.36515409
-0.45361763 -0.30520639 0.37128511
-0.41791987 -0.30648082 0.36650494
-0.42051923 -0.30954176 0.37150407
-0.42878124 -0.312585 0.3723149
-0.44091541 -0.30996576 0.36997628
-0.44972381 -0.31230304 0.369818
-0.49463621 -0.28690243 0.35431859
-0.43154615 -0.29725271 0.35584682
-0.43506056 -0.29568434 0.36202782
-0.44325438 -0.29212755 0.35927251
-0.44795954 -0.29347229 0.3568083
-0.45490164 -0.29543239 0.35522541
-0.46442178 -0.29285112 0.35744607
-0.48539662 -0.28889194 0.35623324
-0.4230485 -0.30258468 0.35671714
-0.42735535 -0.30384624 0.35631382
-0.43413591 -0.29992154 0.36245355
-0.44578716 -0.3003993 0.35874277
-0.46389434 -0.30132401 0.35815209
-0.47485775 -0.30672377 0.35793194
-0.40701428 -0.30824649 0.36094517
-0.42969424 -0.30734456 0.36059025
-0.43830061 -0.3091642 0.36259842
-0.44315228 -0.31073824 0.36084574
-0.46918002 -0.31007266 0.36423758
-0.4899067 -0.30782586 0.35982966
-0.48041481 -0.28540602 0.3494029
-0.43766341 -0.29852155 0.34660476
-0.44096518 -0.29676557 0.34949467
-0.4501785 -0.29641303 0.35219038
-0.45516524 -0.29364449 0.35026678
-0.46142823 -0.29770544 0.34922889
-0.46984157 -0.29144263 0.34793484
-0.47322252 -0.29466993 0.34856418
-0.48172387 -0.29330349 0.35167953
-0.49287426 -0.29177397 0.34593585
-0.44833329 -0.30263412 0.3492766
-0.45632479 -0.2999779 0.34897652
-0.45988566 -0.30601931 0.35146177
-0.46941265 -0.30142421 0.34891853
-0.47831658 -0.3067193 0.35471815
-0.45378593 -0.30877769 0.35374162
-0.504206 -0.28119531 0.33935347
-0.45013252 -0.29003721 0.33693683
-0.46055967 -0.28587362 0.33776635
-0.46884528 -0.28742924 0.33830482
-0.48353302 -0.28605402 0.33809021
-0.49140751 -0.28939676 0.33905792
-0.49956235 -0.28319183 0.33470583
-0.42945015 -0.29962209 0.34329081
-0.44629994 -0.30033788 0.33799461
-0.46446824 -0.29329044 0.33922383
-0.46881485 -0.299871 0.33716863
-0.47419143 -0.29611841 0.33985582
-0.48103017 -0.29547355 0.34091374
-0.48764533 -0.29653242 0.3410663
-0.4425652 -0.30180112 0.34336132
-0.45641264 -0.30323476 0.34349373
-0.46302554 -0.30656499 0.34275091
-0.48223808 -0.30377671 0.34146798
-0.49701002 -0.30191606 0.34357208
-0.50120509 -0.30579367 0.34008962
-0.49479169 -0.27970266 0.33093771
-0.459907 -0.28813773 0.33037448
-0.47060835 -0.28912392 0.32702419
-0.47260761 -0.28796467 0.32709354
-0.49438342 -0.28839186 0.32725927
-0.50271738 -0.28705156 0.33166608
-0.50900865 -0.29049626 0.33032376
-0.45502138 -0.29761362 0.33178625
-0.4624345 -0.29819182 0.33240294
-0.46723491 -0.29962802 0.3306967
-0.48006296 -0.29628536 0.32756948
-0.48570949 -0.29805958 0.33059153
-0.49563435 -0.29851207 0.33141768
-0.5046922 -0.29537833 0.32883593
-0.50774091 -0.29751623 0.32719058
-0.48988611 -0.30533576 0.32896075
-0.4940539 -0.30566719 0.3337169
-0.477135 -0.28300473 0.32311684
-0.47985092 -0.28277501 0.32329232
-0.50450993 -0.2778897 0.32160479
-0.51472431 -0.28068012 0.31993607
-0.47089598 -0.2928738 0.32312566
-0.49595824 -0.28887373 0.32001856
-0.5186401 -0.28525582 0.31567073
-0.53110665 -0.28598252 0.31778568
-0.45820701 -0.301801 0.31871435
-0.46633732 -0.29988533 0.3188976
-0.47261152 -0.29669473 0.31677344
-0.50367439 -0.30130666 0.32111257
-0.51305509 -0.30067825 0.32024279
-0.52477509 -0.30251363 0.32393634
-0.53590387 -0.27206737 0.30805328
-0.4657349 -0.28165156 0.31089431
-0.47971568 -0.28095955 0.3097707
-0.49028882 -0.28077078 0.3140659
-0.49875885 -0.27996787 0.31079713
-0.46509707 -0.29330784 0.31554928
-0.47885379 -0.28738776 0.31329367
-0.4886893 -0.29089558 0.309506
-0.50075799 -0.2902832 0.30763674
-0.50621367 -0.28968182 0.31511825
-0.51446068 -0.29051971 0.31121555
-0.52782643 -0.29177693 0.3140589
-0.4530457 -0.30046868 0.31605759
-0.46986982 -0.299813 0.31581533
-0.48418853 -0.30295286 0.31538737
-0.50203538 -0.29841134 0.3130607
-0.52488428 -0.29716647 0.30961537
-0.54148716 -0.29458836 0.3124654
-0.47553825 -0.27527228 0.29659382
-0.48696765 -0.2732302 0.29467708
-0.50987732 -0.27392727 0.29967079
-0.522632 -0.27194709 0.30212352
-0.53603971 -0.27437985 0.29914135
-0.47358227 -0.28125656 0.29893523
-0.48685691 -0.28199264 0.30038017
-0.50023556 -0.27829254 0.30251658
-0.50854069 -0.28038055 0.30261645
-0.52085286 -0.27794465 0.30309948
-0.535878 -0.28436983 0.30177674
-0.54050618 -0.28079534 0.30328056
-0.54835045 -0.28475547 0.30392078
-0.47665486 -0.29437813 0.30271837
-0.48848328 -0.29480511 0.30245847
-0.49519834 -0.28828433 0.29935721
-0.49913606 -0.29122236 0.29967231
-0.51360244 -0.29414076 0.30359021
-0.50773615 -0.29972973 0.30427301
-0.51361781 -0.29985067 0.30539429
-0.51892936 -0.29907736 0.30507043
-0.52927583 -0.30195287 0.30650461
-0.5554958 -0.2657679 0.29100844
-0.50662947 -0.27150658 0.2941311
-0.52081257 -0.2753529 0.29026195
-0.53016692 -0.27385309 0.29034513
-0.543531 -0.2744979 0.29266673
-0.48426384 -0.28240874 0.2893033
-0.49492764 -0.28063816 0.28950551
-0.5003562 -0.278997 0.29384568
-0.51337433 -0.28201506 0.29354116
-0.52203715 -0.28542361 0.29101735
-0.5565992 -0.28047314 0.28744903
-0.46970388 -0.29064554 0.29144749
-0.48474425 -0.29416108 0.29510739
-0.51169068 -0.29249686 0.29509968
-0.54188925 -0.29340976 0.29318234
-0.53635722 -0.29835105 0.29140881
-0.54882973 -0.29873672 0.29355285
-0.55981195 -0.30041647 0.29246688
-0.56408513 -0.26043701 0.27602834
-0.51355237 -0.2683073 0.28099442
-0.5433017 -0.26686794 0.27847198
-0.54815263 -0.26666161 0.27751851
-0.55491489 -0.26543385 0.27959758
-0.49269474 -0.27495307 0.28254953
-0.50696754 -0.27687886 0.28256375
-0.51421863 -0.27480659 0.28074113
-0.51848602 -0.27793896 0.27837214
-0.52828854 -0.27443144 0.27903944
-0.53794539 -0.27076671 0.27881891
-0.54311162 -0.27883548 0.27903032
-0.55553848 -0.27931875 0.28024468
-0.50212133 -0.28508505 0.28622052
-0.51813924 -0.28591624 0.27914712
-0.51925099 -0.28593159 0.27805316
-0.53044963 -0.28704855 0.28018594
-0.53480715 -0.28768551 0.28776938
-0.54662144 -0.28601834 0.28352806
-0.55822533 -0.28468403 0.28118464
-0.56796533 -0.27980208 0.28145903
-0.49486095 -0.29237089 0.28582683
-0.51158082 -0.29617733 0.282967
-0.51708931 -0.29455158 0.28564507
-0.53400564 -0.29354906 0.28344744
-0.56112695 -0.28957272 0.28292632
-0.52772671 -0.26590133 0.27087292
-0.53615522 -0.26793844 0.27095187
-0.5424785 -0.2707499 0.26793393
-0.54680014 -0.26856458 0.27004761
-0.55753988 -0.26702783 0.26760426
-0.55959082 -0.26234239 0.27290136
-0.57088435 -0.2637859 0.26669276
-0.4752388 -0.27678785 0.27091232
-0.48973003 -0.27981421 0.27331251
-0.50043207 -0.27853382 0.27439833
-0.52108639 -0.27662981 0.27432472
-0.53925031 -0.2744655 0.27427474
-0.5538947 -0.27329519 0.27337745
-0.56428194 -0.27412438 0.26780835
-0.47479174 -0.28688726 0.27577189
-0.48830065 -0.28898841 0.27536547
-0.50288063 -0.2863003 0.27428627
-0.50904435 -0.2818858 0.27308384
-0.51789004 -0.28786686 0.27576181
-0.52083415 -0.28364611 0.27172929
-0.52978361 -0.28507271 0.27413291
-0.53830135 -0.28368655 0.26895067
-0.54321158 -0.2864233 0.27320513
-0.54971051 -0.28547323 0.27254626
-0.56258065 -0.28134286 0.27717784
-0.50175267 -0.29432848 0.27704391
-0.51390177 -0.29181281 0.27194351
-0.52379805 -0.29573345 0.27861148
-0.54230422 -0.29420802 0.27913132
-0.56751913 -0.2938644 0.27261758
-0.53506005 -0.26000741 0.25837144
-0.56199235 -0.25778487 0.26200274
-0.56768411 -0.25923777 0.26012111
-0.51050299 -0.26898873 0.25762546
-0.52592379 -0.267997 0.26138896
-0.54080141 -0.26771462 0.26324835
-0.54994738 -0.26446807 0.26341364
-0.55437553 -0.26688129 0.25889349
-0.5636009 -0.26634288 0.26115882
-0.56795692 -0.26572353 0.26113597
-0.57593244 -0.2667709 0.2617659
-0.58007914 -0.26643017 0.26319253
-0.5871377 -0.26862663 0.26366702
-0.50762486 -0.27558249 0.26143321
-0.52249205 -0.27690145 0.2628952
-0.54534584 -0.27574837 0.26567614
-0.56798661 -0.27624881 0.26519036
-0.57646734 -0.27437299 0.26654574
-0.50856572 -0.28811952 0.26131272
-0.51226932 -0.28756934 0.26236597
-0.52505916 -0.28810051 0.2660175
-0.52800363 -0.28463411 0.26631647
-0.5409652 -0.28215086 0.26636851
-0.54700416 -0.28348693 0.26250523
-0.55414987 -0.28623948 0.263044
-0.56904078 -0.28618535 0.26595783
-0.55558121 -0.2928696 0.26948088
-0.53111565 -0.26064846 0.25430122
-0.54138839 -0.26386309 0.25533867
-0.54695863 -0.25990316 0.2549479
-0.55569619 -0.26363176 0.25575861
-0.55900824 -0.26013187 0.2503092
-0.56871861 -0.25866717 0.25284207
-0.58276325 -0.2616969 0.25377473
-0.58887708 -0.26150799 0.24942777
-0.59568131 -0.26329666 0.24998784
-0.50567377 -0.26894665 0.25532836
-0.51952481 -0.27096274 0.2548416
-0.52887678 -0.27112174 0.25226644
-0.53500444 -0.27015516 0.25013444
-0.54234332 -0.273871 0.24847572
-0.549914 -0.26936379 0.25239548
-0.57186407 -0.26787993 0.24848467
-0.58245581 -0.26982644 0.25351447
-0.53146505 -0.27533466 0.25171289
-0.5361076 -0.28087944 0.25414196
-0.54878485 -0.27776316 0.25346071
-0.55829853 -0.27959242 0.25819582
-0.56266683 -0.27837443 0.25361606
-0.56643689 -0.27699071 0.25696024
-0.57563829 -0.27862942 0.25036299
-0.58036035 -0.27986988 0.25288504
-0.59248257 -0.28057653 0.25494161
-0.50121361 -0.2892313 0.25212613
-0.51997733 -0.28861642 0.25508958
-0.54099828 -0.28628609 0.25571784
-0.55363828 -0.29205149 0.25451401
-0.56416988 -0.2873491 0.25465143
-0.56581575 -0.28586778 0.25381389
-0.57581615 -0.28762367 0.254471
-0.58884978 -0.28830892 0.25706312
-0.58749568 -0.25039166 0.23899952
-0.53796011 -0.25756773 0.24091129
-0.54835933 -0.26064157 0.2421108
-0.55505109 -0.2597864 0.24003957
-0.57228339 -0.25979826 0.24575143
-0.57969356 -0.25698051 0.23975945
-0.5936324 -0.25843275 0.24203958
-0.60430717 -0.2601364 0.24640089
-0.52631044 -0.27119929 0.24386866
-0.53910589 -0.27247179 0.23899275
-0.55435175 -0.27195626 0.23980141
-0.56450057 -0.2689372 0.24150053
-0.57103962 -0.27438337 0.24254288
-0.57574236 -0.27476224 0.24589129
-0.59058183 -0.26862714 0.24592949
-0.52289021 -0.2754873 0.24681041
-0.52844447 -0.28314897 0.24172606
-0.53684902 -0.27753577 0.24737321
-0.54072857 -0.27645254 0.24662283
-0.55604738 -0.27638209 0.24601984
-0.56688172 -0.27605194 0.24819836
-0.57632911 -0.28384912 0.24452086
-0.59713918 -0.28284609 0.24238983
-0.60119504 -0.27555683 0.24123372
-0.5163092 -0.28784198 0.24652909
-0.52578866 -0.28732079 0.24349308
-0.53772801 -0.28783888 0.24200355
-0.55708873 -0.29123452 0.24591073
-0.56198949 -0.29019552 0.24722776
-0.56748998 -0.2878322 0.24547808
-0.59323871 -0.28788686 0.2502197
-0.54811925 -0.25532821 0.23112187
-0.5553304 -0.25742015 0.22888295
-0.56048822 -0.25564626 0.22861648
-0.56616497 -0.25262243 0.23189284
-0.57324523 -0.25327536 0.23329967
-0.5805186 -0.25344223 0.23006092
-0.58824813 -0.25162613 0.22923404
-0.59486246 -0.25610366 0.23176388
-0.60064292 -0.25325114 0.23177209
-0.62681854 -0.25387609 0.23150015
-0.58326644 -0.26149318 0.23357984
-0.6040796 -0.25799632 0.23637606
-0.64471799 -0.25854194 0.22881265
-0.65569007 -0.26026016 0.23227048
-0.54381996 -0.27431428 0.23414534
-0.54772484 -0.27211428 0.23370495
-0.55296415 -0.27582732 0.23023075
-0.56474847 -0.27280444 0.23478736
-0.57189143 -0.27614173 0.23573673
-0.57594365 -0.27051333 0.23772731
-0.58420163 -0.27302518 0.23408747
-0.58858764 -0.268062 0.23291337
-0.60505146 -0.2724632 0.23717049
-0.52163488 -0.28207144 0.23390268
-0.53563607 -0.28415355 0.23316178
-0.56827426 -0.27887952 0.23231438
-0.58401942 -0.27651671 0.23782155
-0.5712949 -0.28796706 0.23615879
-0.58681172 -0.28954557 0.23561224
-0.59757739 -0.28836113 0.23773666
-0.59472567 -0.24546175 0.22125857
-0.60957175 -0.24779472 0.220476
-0.56116062 -0.25614306 0.22181429
-0.57116663 -0.25568041 0.22467755
-0.57209021 -0.25149304 0.21934293
-0.58916652 -0.25803065 0.22176544
-0.59251958 -0.25502542 0.22582418
-0.60279995 -0.25735798 0.22464556
-0.60614312 -0.2519111 0.2225911
-0.614461 -0.25484905 0.22405615
-0.62229973 -0.25199798 0.22211941
-0.63184905 -0.2519466 0.22151688
-0.63565505 -0.25392267 0.22455002
-0.66353041 -0.25686336 0.22137569
-0.68200034 -0.25291437 0.22117633
-0.53259391 -0.26491463 0.22743155
-0.56634307 -0.26366577 0.22001529
-0.57833892 -0.26467752 0.22060364
-0.59099668 -0.26361346 0.22369608
-0.59449559 -0.26318812 0.22470635
-0.60233057 -0.26670107 0.22178037
-0.6135006 -0.26744989 0.2233475
-0.53785288 -0.27280596 0.22814678
-0.54876894 -0.27035084 0.22359505
-0.55451244 -0.27024832 0.2196573
-0.56097776 -0.26888987 0.2259046
-0.56609863 -0.2767871 0.22705488
-0.57557201 -0.27361321 0.2240158
-0.58445263 -0.27101758 0.22721396
-0.59342563 -0.27071527 0.22402346
-0.60454237 -0.27149773 0.22636402
-0.60980481 -0.27063286 0.22778788
-0.61494887 -0.27098855 0.22323313
-0.53441882 -0.28591126 0.23054299
-0.54321378 -0.28484601 0.22779767
-0.5674811 -0.28392887 0.22489268
-0.57444382 -0.28137282 0.22573948
-0.58060032 -0.28573856 0.22508982
-0.58933473 -0.28140876 0.22164834
-0.60533106 -0.27748334 0.22798516
-0.60641128 -0.28593695 0.22627315
-0.57684028 -0.28736198 0.22777492
-0.5894357 -0.2882022 0.2289549
-0.55031437 -0.24920166 0.21424952
-0.56671572 -0.25044367 0.20928213
-0.5954237 -0.24418551 0.2078279
-0.60073853 -0.24959421 0.20813107
-0.60866314 -0.24971485 0.21679874
-0.61386037 -0.24524727 0.21217266
-0.62698877 -0.24927716 0.21254283
-0.63818896 -0.24857745 0.21342565
-0.64222717 -0.24809618 0.21146628
-0.56077731 -0.25445727 0.21455006
-0.56598991 -0.25323913 0.2139284
-0.57555479 -0.25553834 0.21386713
-0.58155638 -0.25285554 0.21031436
-0.60296786 -0.25519681 0.21377844
-0.60929298 -0.25336042 0.20882654
-0.61741161 -0.2526435 0.21134788
-0.62258816 -0.25292477 0.20925927
-0.63356185 -0.25512466 0.2128334
-0.64355898 -0.25318113 0.2125359
-0.65730679 -0.25522777 0.21351844
-0.66931021 -0.2556946 0.21469142
-0.68131357 -0.25616148 0.21586439
-0.68703634 -0.25168821 0.21003228
-0.55438769 -0.26674604 0.2135525
-0.56914192 -0.26927224 0.21461469
-0.57696074 -0.26455921 0.21455559
-0.58135277 -0.26394606 0.21446621
-0.58979326 -0.26707271 0.21673828
-0.59338492 -0.26498038 0.21614522
-0.60172504 -0.26797813 0.21729717
-0.61556751 -0.26598725 0.21379443
-0.62480289 -0.26657459 0.21513718
-0.63110912 -0.2656303 0.21403435
-0.6367653 -0.26694447 0.2171935
-0.65334153 -0.26069719 0.21026573
-0.66387045 -0.26920921 0.21194585
-0.56776279 -0.27099538 0.21885477
-0.57767087 -0.27497745 0.21806118
-0.59048146 -0.27432343 0.21302567
-0.60312521 -0.27195024 0.21572027
-0.61337948 -0.27214968 0.21365917
-0.54205966 -0.28304839 0.21782286
-0.55566722 -0.2835961 0.21954781
-0.56162667 -0.28538489 0.21757317
-0.57095158 -0.28535104 0.2177383
-0.58193761 -0.283629 0.21645407
-0.59535682 -0.2850993 0.21798295
-0.6050052 -0.28499904 0.21635196
-0.61032838 -0.28197452 0.21523996
-0.61617148 -0.28443226 0.21605223
-0.61167872 -0.24218889 0.20249608
-0.57288188 -0.250137 0.20044562
-0.57871616 -0.24842668 0.20544612
-0.58526456 -0.24614926 0.20516145
-0.59333318 -0.25031218 0.20452249
-0.60940015 -0.24801458 0.20463496
-0.6180864 -0.24476083 0.20335685
-0.61992139 -0.250034 0.20763233
-0.6287303 -0.24540095 0.20419195
-0.64442855 -0.24758762 0.20704159
-0.55983084 -0.26078773 0.1990457
-0.58326918 -0.25395674 0.20302495
-0.59080207 -0.25758079 0.20181508
-0.59815067 -0.25472897 0.2027916
-0.59893656 -0.2554689 0.20744015
-0.61042416 -0.25773245 0.20541917
-0.61554402 -0.25672054 0.2033492
-0.62123966 -0.25915426 0.20284235
-0.6312049 -0.26046863 0.20057267
-0.63722605 -0.25718021 0.20533322
-0.64319575 -0.25371081 0.20334615
-0.64809889 -0.25338802 0.20602229
-0.6602084 -0.25407085 0.20477393
-0.67801464 -0.26036099 0.20389196
-0.68137509 -0.25688189 0.20234184
-0.54573011 -0.26307547 0.20782091
-0.55776197 -0.26787135 0.20768963
-0.56982076 -0.27077517 0.20631954
-0.57494181 -0.26741436 0.2038783
-0.58545887 -0.26858819 0.20181848
-0.59381646 -0.26605231 0.20253178
-0.60886222 -0.26256692 0.20682785
-0.61296409 -0.26584831 0.20161538
-0.62118685 -0.26339641 0.20852695
-0.63116372 -0.2640872 0.20163833
-0.64325297 -0.26562497 0.20512934
-0.65566093 -0.26596615 0.20590675
-0.66299021 -0.26179042 0.20648141
-0.6683585 -0.26400587 0.20690989
-0.67289257 -0.26499894 0.20285837
-0.68042922 -0.26281437 0.21017358
-0.5411458 -0.27694929 0.20139229
-0.57781619 -0.27765781 0.21007299
-0.58981198 -0.2786696 0.21066137
-0.59356517 -0.27508759 0.20459101
-0.6012342 -0.27708599 0.20748943
-0.60707831 -0.27150452 0.20378272
-0.61856991 -0.27893621 0.20441012
-0.6243605 -0.27996963 0.20405491
-0.62873137 -0.27696672 0.20586924
-0.63466156 -0.27918488 0.20427161
-0.64618671 -0.27772027 0.20341741
-0.57000023 -0.28330681 0.20872563
-0.60195106 -0.28208581 0.20423383
-0.61217117 -0.28086662 0.21164267
-0.63722497 -0.28035387 0.20724964
-0.65637589 -0.24405694 0.19208814
-0.59031093 -0.25126541 0.19450989
-0.59569854 -0.25139472 0.19397864
-0.60433972 -0.25238699 0.19843231
-0.60731459 -0.2523227 0.19064739
-0.61555701 -0.24696359 0.19040114
-0.6352753 -0.25210857 0.19804572
-0.64427239 -0.24807985 0.19606385
-0.65025598 -0.2445246 0.19542243
-0.65256774 -0.25146639 0.19219799
-0.57422966 -0.26275712 0.198111
-0.59679669 -0.26247537 0.19854465
-0.60275322 -0.25862834 0.19890589
-0.62026143 -0.26237985 0.19820249
-0.62656176 -0.25774354 0.19355406
-0.63568342 -0.25496823 0.19794738
-0.64221179 -0.2597113 0.19829281
-0.65551823 -0.25925112 0.19305974
-0.66018122 -0.25463438 0.19161887
-0.66985476 -0.2589184 0.19426598
-0.6892246 -0.2589168 0.19892752
-0.56473303 -0.26464993 0.19446176
-0.58005339 -0.26694846 0.19377218
-0.58881509 -0.26474363 0.19713567
-0.59512877 -0.2706508 0.19458774
-0.59909934 -0.27049571 0.19981039
-0.60980898 -0.26662827 0.1958757
-0.62201375 -0.26589251 0.19857113
-0.63071829 -0.26573178 0.1921795
-0.63407016 -0.26646733 0.19853343
-0.6442557 -0.26400661 0.19447812
-0.64690882 -0.26623425 0.195043
-0.65542072 -0.27046502 0.19662447
-0.67136359 -0.26753274 0.1967482
-0.55322254 -0.28154409 0.19972417
-0.56739616 -0.28079337 0.19734222
-0.57211637 -0.27992305 0.19329637
-0.59132606 -0.27654588 0.19654754
-0.60948485 -0.27499747 0.19682331
-0.6171611 -0.27368531 0.1934495
-0.62065428 -0.27653491 0.19921604
-0.63013071 -0.27714255 0.19752562
-0.63873643 -0.27473304 0.19336587
-0.64087987 -0.2761386 0.19888553
-0.64919776 -0.27635801 0.19945894
-0.57438731 -0.2449389 0.18391849
-0.66082692 -0.24276263 0.18196273
-0.57977372 -0.24703491 0.18696286
-0.59444433 -0.24887103 0.18662463
-0.59979939 -0.2500321 0.17955911
-0.60930514 -0.25072256 0.18625361
-0.61376393 -0.25119314 0.18340921
-0.62747312 -0.25193053 0.18642986
-0.64221841 -0.25073513 0.18549386
-0.66715896 -0.24920081 0.1883418
-0.67860007 -0.25174841 0.18439624
-0.68424785 -0.24557404 0.18689875
-0.69043291 -0.25242668 0.18476366
-0.60901362 -0.25776473 0.18458216
-0.63952714 -0.26183304 0.1898904
-0.65011305 -0.25948843 0.1875352
-0.66266078 -0.25992024 0.18712345
-0.68172204 -0.25832123 0.18611535
-0.59732616 -0.26952609 0.19094132
-0.6046989 -0.26744074 0.18530963
-0.60853982 -0.27083546 0.1868719
-0.61665207 -0.27023315 0.18644841
-0.62226945 -0.26572242 0.18702213
-0.62888944 -0.27137017 0.18315946
-0.64072376 -0.27236837 0.1837399
-0.67681134 -0.26705378 0.18784589
-0.68879455 -0.26406646 0.19154547
-0.56974328 -0.2770876 0.19077586
-0.58429694 -0.27917504 0.18974885
-0.59269804 -0.27883095 0.18654054
-0.60939026 -0.27703196 0.18780887
-0.61439157 -0.27840251 0.18975958
-0.59196818 -0.24229392 0.17765251
-0.63235211 -0.24139588 0.17807269
-0.661237 -0.24548966 0.17830417
-0.67665011 -0.2426915 0.17501402
-0.61453056 -0.24863355 0.17532057
-0.6250338 -0.2530854 0.17883641
-0.62928802 -0.2497576 0.17405823
-0.63603294 -0.25154173 0.17642571
-0.64242566 -0.25214237 0.17312527
-0.64678919 -0.25133604 0.17168483
-0.65749145 -0.25390735 0.17601591
-0.66237891 -0.25326377 0.17124665
-0.66843122 -0.25354654 0.17544493
-0.58982652 -0.26287571 0.17881641
-0.63157499 -0.26139134 0.17947744
-0.63547021 -0.26207453 0.17215112
-0.65395105 -0.26128039 0.17867795
-0.65956211 -0.26216826 0.17528194
-0.67224908 -0.2581293 0.17778406
-0.67800313 -0.26263663 0.17619839
-0.68380982 -0.25804281 0.18171924
-0.59508252 -0.27296081 0.18229046
-0.60151756 -0.26910084 0.17923108
-0.61442614 -0.26973137 0.17542455
-0.62268597 -0.26565668 0.17779987
-0.62656695 -0.26918489 0.17384933
-0.63253975 -0.27123702 0.18086499
-0.6571207 -0.26900026 0.17983937
-0.58865547 -0.27790046 0.1783054
-0.60215044 -0.27628219 0.17567761
-0.59859413 -0.2392275 0.16375571
-0.61335117 -0.2410482 0.16253832
-0.62060922 -0.24707301 0.16291466
-0.64293599 -0.2447975 0.16897121
-0.66660243 -0.24339165 0.16446094
-0.58748168 -0.2566244 0.17031738
-0.62392724 -0.2503587 0.16924584
-0.63940245 -0.25647435 0.16880867
-0.65728313 -0.25549656 0.17053472
-0.66471171 -0.25057071 0.16231495
-0.67441416 -0.25142854 0.1654318
-0.69081306 -0.25362256 0.16784759
-0.59593618 -0.26147437 0.1678459
-0.60899162 -0.26322284 0.16934882
-0.62249637 -0.26402715 0.16782898
-0.62792677 -0.26133031 0.16524844
-0.63218355 -0.26255962 0.16680953
-0.64207232 -0.26564136 0.16370896
-0.6467663 -0.24114202 0.15443395
-0.65883142 -0.24185711 0.15073714
-0.67650986 -0.24574958 0.15894894
-0.68359673 -0.24528411 0.15329278
-0.59410763 -0.25355801 0.15642059
-0.60883301 -0.25547966 0.15515152
-0.63033503 -0.25397289 0.15225989
-0.66189474 -0.25405431 0.15653902
-0.66951936 -0.2500498 0.15727763
-0.64471495 -0.26272789 0.15421189
-0.65038866 -0.25924996 0.15946545
-0.69051135 -0.24028739 0.14199378
-0.67665982 -0.24683586 0.14330859
-0.68038446 -0.24618587 0.14656252
-0.60370696 -0.25662804 0.15166178
-0.65440917 -0.25508389 0.14719981
-0.67475361 -0.25274813 0.14591379
-0.66064328 -0.23883776 0.13708569
-0.68275386 -0.24266511 0.13430655
-0.69210583 -0.23677087 0.13409019
-0.6580134 -0.251461 0.13459717
-0.66846424 -0.24463466 0.13707381
-0.68186021 -0.24846916 0.13602388
-0.66314179 -0.25521216 0.13982564
-0.65442693 -0.233831 0.12535945
-0.66629004 -0.23440108 0.12310384
-0.68531603 -0.24093011 0.13143444
-0.68828958 -0.23867558 0.12592569
-0.65809989 -0.25189063 0.13019896
-0.66002864 -0.24438879 0.1287493
-0.66944522 -0.24852374 0.12787354
-0.68191403 -0.24473692 0.13069308
-0.68840933 -0.2467178 0.12683575
-0.64385146 -0.2541585 0.12730655
-0.66442877 -0.23342851 0.12003479
-0.67868602 -0.23312421 0.11844126
-0.69400424 -0.23494436 0.11706127
-0.66116971 -0.2427303 0.11546551
-0.66649222 -0.23731087 0.1214727
-0.68088645 -0.23845832 0.11893567
-0.69054037 -0.24117915 0.12026742
-0.69295084 -0.24286349 0.11440378
-0.6619556 -0.24821101 0.11556572
-0.64763045 -0.2318632 0.10890085
-0.66947681 -0.23116796 0.10976679
-0.6763894 -0.23343374 0.10946386
-0.69839764 -0.23156045 0.10313763
-0.65306997 -0.24401104 0.10932049
-0.66489226 -0.24518819 0.1046567
-0.67395991 -0.24156485 0.10833409
-0.65469903 -0.22859666 0.095487893
-0.67358518 -0.22758499 0.093500353
-0.68216771 -0.23342225 0.098915249
-0.68730241 -0.23185214 0.098395169
-0.6943953 -0.23455748 0.093636289
-0.64860725 -0.23179813 0.090410918
-0.66271788 -0.23342544 0.087519884
-0.66962349 -0.2367744 0.087410957
-0.68249732 -0.23582958 0.086780444
-0.69437355 -0.23306246 0.085377581
-0.67635578 -0.2248951 0.07982631
-0.68112689 -0.22472739 0.076253369
-0.70159572 -0.22984388 0.082063265
-0.66857553 -0.23132227 0.081969574
-0.68005991 -0.23244232 0.076609075
-0.67220736 -0.22240989 0.063196868
-0.69182873 -0.23000769 0.07292708
-0.7001797 -0.22702086 0.068846986
-0.68941426 -0.22247285 0.059756193
-0.65980643 -0.22568819 0.061409418
-0.68059063 -0.2295045 0.059811998
-0.66540611 -0.22263324 0.046908669
