# .PCD v0.7 - Point Cloud Data file format
VERSION 0.7
FIELDS x y z
SIZE 4 4 4
TYPE F F F
COUNT 1 1 1
WIDTH 309
HEIGHT 1
VIEWPOINT 0 0 0 1 0 0 0
POINTS 309
DATA ascii
-1.0058022 -0.049392179 -1.5221373
-0.99974805 -0.04338482 -1.5326571
-1.0099605 -0.086791962 -1.5294715
-0.9874329 -0.040273324 -1.5466943
-0.99218553 -0.049291149 -1.5454094
-0.99476624 -0.045382097 -1.5455317
-0.99872947 -0.081622496 -1.544102
-0.97699326 -0.030792907 -1.5616211
-0.99036562 -0.060657218 -1.5502509
-0.98596501 -0.075932324 -1.5549699
-0.99685234 -0.096256115 -1.5531703
-0.99621886 -0.10060424 -1.5483069
-1.0057032 -0.10061511 -1.5510193
-0.98409039 -0.090744406 -1.5625927
-0.99178958 -0.11277313 -1.5564224
-1.0032129 -0.12006482 -1.5553175
-0.96386391 -0.02717796 -1.5830263
-0.97795135 -0.03012079 -1.5795243
-0.97717625 -0.069464147 -1.5729957
-0.9961282 -0.096186146 -1.5656887
-0.99518979 -0.12644379 -1.5613006
-0.99785209 -0.13603927 -1.5595382
-0.99441528 -0.15171638 -1.5651156
-0.95708174 -0.016219273 -1.5908509
-0.95419359 -0.029120222 -1.5927109
-0.97122407 -0.026213005 -1.5859553
-0.95669413 -0.043803707 -1.5905453
-0.96627176 -0.042369902 -1.5891364
-0.97023147 -0.045337409 -1.5895956
-0.97516358 -0.082669422 -1.5785486
-0.97945899 -0.097327381 -1.5758451
-0.98694611 -0.12287597 -1.5766
-0.98783761 -0.12749222 -1.575335
-0.99409848 -0.14950442 -1.5662969
-0.99578917 -0.16806602 -1.5665259
-0.94920486 -0.016325533 -1.6022269
-0.95803362 -0.019584462 -1.599733
-0.97074521 -0.016904965 -1.5946063
-0.95219105 -0.027742222 -1.5999693
-0.96511644 -0.02350454 -1.5994196
-0.95512265 -0.040769458 -1.5993445
-0.96131933 -0.058526814 -1.5923175
-0.96413565 -0.077350765 -1.5890427
-0.97039711 -0.097961262 -1.583403
-0.97453904 -0.11220913 -1.580852
-0.97896421 -0.14083931 -1.5827796
-0.99488884 -0.14732483 -1.5824687
-0.98599309 -0.15716085 -1.5800909
-0.99635005 -0.19685306 -1.5763192
-1.0017588 -0.19120546 -1.5704089
-1.0124379 -0.1955363 -1.5689301
-0.99830055 -0.20570116 -1.5704226
-1.0073709 -0.2114692 -1.5734373
-0.95311683 -0.035625026 -1.6028912
-0.96032965 -0.038556725 -1.6036776
-0.95703685 -0.042702064 -1.6053003
-0.9549855 -0.05413948 -1.6026723
-0.96336949 -0.094058678 -1.6022422
-0.9700852 -0.095720887 -1.5997409
-0.97152573 -0.1351155 -1.5942833
-0.9822455 -0.175883 -1.5863521
-0.99187779 -0.17324281 -1.585775
-1.0016718 -0.18730411 -1.5838666
-0.99128914 -0.21216092 -1.5814694
-0.99373311 -0.22051403 -1.579931
-1.0023041 -0.22740209 -1.5779445
-0.9433254 -0.057918042 -1.6144575
-0.95112789 -0.069253147 -1.6108451
-0.95718157 -0.068925008 -1.6113787
-0.959849 -0.071722701 -1.6079626
-0.95472759 -0.088690162 -1.612326
-0.9575637 -0.097777516 -1.6109819
-0.96016991 -0.090645209 -1.6106073
-0.95771432 -0.10290934 -1.6036091
-0.96395838 -0.10183725 -1.6021134
-0.96519345 -0.11135305 -1.6041446
-0.96736538 -0.13230649 -1.5993317
-0.97394478 -0.15423289 -1.6015792
-0.98435563 -0.17270312 -1.5945852
-0.98372483 -0.17899261 -1.5910758
-0.98124975 -0.18834569 -1.5930111
-0.98308581 -0.19713116 -1.5905533
-0.98242688 -0.20328525 -1.5942872
-0.9966417 -0.20312119 -1.5883411
-1.0094064 -0.24813232 -1.5848793
-0.9415608 -0.061598346 -1.6206036
-0.95245898 -0.075153679 -1.6177714
-0.94447589 -0.083383068 -1.6193593
-0.95011526 -0.086883202 -1.6159943
-0.95707077 -0.086672872 -1.6164941
-0.94893384 -0.095043063 -1.6176574
-0.95689178 -0.098713964 -1.6162951
-0.95483357 -0.10397951 -1.6120181
-0.95555782 -0.11189473 -1.6130631
-0.96030182 -0.12698521 -1.608548
-0.97044551 -0.16951978 -1.6071151
-0.97698712 -0.18928331 -1.6002673
-0.98486865 -0.21133363 -1.5975617
-0.98037422 -0.22693454 -1.6023816
-0.99107069 -0.23235716 -1.5981278
-0.99569941 -0.25720206 -1.5887493
-0.94800794 -0.080257162 -1.6277981
-0.941773 -0.091310039 -1.6236486
-0.94763958 -0.089731142 -1.6226758
-0.95463884 -0.084367007 -1.6293343
-0.94514728 -0.095052451 -1.6221184
-0.94285661 -0.11012679 -1.6285514
-0.951976 -0.10324192 -1.6262039
-0.95707202 -0.10634745 -1.6228878
-0.96565682 -0.10705584 -1.6211247
-0.94836557 -0.11716206 -1.6251163
-0.95358998 -0.11913318 -1.6190132
-0.960765 -0.12268801 -1.6255285
-0.96210063 -0.14522095 -1.6179837
-0.96213824 -0.16227743 -1.620257
-0.96411252 -0.18257874 -1.6149286
-0.96845657 -0.1865698 -1.6104323
-0.9819203 -0.23183092 -1.6078465
-0.98864812 -0.23581086 -1.6018239
-0.98626208 -0.24784786 -1.6036242
-1.0040587 -0.27654034 -1.6004472
-0.94062519 -0.10112873 -1.6340504
-0.95444381 -0.1092995 -1.6341108
-0.94406992 -0.11764263 -1.6334634
-0.96488714 -0.11247759 -1.6322089
-0.94832659 -0.12363735 -1.6336401
-0.96415204 -0.1261048 -1.6298897
-0.94939119 -0.13534673 -1.6291579
-0.95373738 -0.13635366 -1.6344781
-0.96033609 -0.13804953 -1.6254567
-0.95912653 -0.14250028 -1.6331178
-0.96753186 -0.14220411 -1.6329247
-0.95596564 -0.15321943 -1.630143
-0.97032356 -0.16332114 -1.6274085
-0.95728123 -0.1859296 -1.6262599
-0.96892655 -0.18221016 -1.6276593
-0.96574932 -0.19445427 -1.619858
-0.96917295 -0.20866579 -1.6155314
-0.9753657 -0.20683497 -1.617823
-0.97211909 -0.2234143 -1.6155034
-0.98169672 -0.2232323 -1.612823
-0.97692275 -0.23861192 -1.6182801
-0.99004996 -0.24901661 -1.6112871
-0.97829783 -0.25405309 -1.613632
-0.98712927 -0.25429651 -1.6112583
-0.98145348 -0.2633386 -1.6091208
-0.93780047 -0.092245415 -1.6470351
-0.93605787 -0.10038006 -1.6415018
-0.93764818 -0.11014424 -1.6413616
-0.93891114 -0.11523956 -1.6396711
-0.94829112 -0.11575536 -1.6420937
-0.93449849 -0.12660268 -1.6430411
-0.95172483 -0.13078484 -1.639675
-0.94390237 -0.13877998 -1.6403161
-0.9496904 -0.13763468 -1.635674
-0.94156557 -0.15815738 -1.6407028
-0.94993263 -0.15278441 -1.6365657
-0.95410097 -0.15889573 -1.6363459
-0.95159531 -0.16838935 -1.6348298
-0.96540076 -0.17880097 -1.6317877
-0.95816118 -0.20051673 -1.6292188
-0.96396375 -0.19806945 -1.6321269
-0.97248828 -0.21425034 -1.6273147
-0.98239726 -0.22740693 -1.6253278
-0.96892905 -0.24523574 -1.6279362
-0.98384082 -0.25901315 -1.6258332
-0.97249782 -0.26581648 -1.6238464
-0.97539961 -0.26771596 -1.6219306
-0.99475819 -0.26793247 -1.6155733
-0.92774636 -0.099513575 -1.6527526
-0.94413584 -0.11107699 -1.654542
-0.9323566 -0.11637655 -1.6475013
-0.93747383 -0.13516417 -1.6492634
-0.95068431 -0.13454431 -1.6450355
-0.95633668 -0.13402297 -1.6469122
-0.93901408 -0.1440355 -1.6526232
-0.94543946 -0.15017296 -1.6491648
-0.95144492 -0.14965512 -1.6513158
-0.93916714 -0.15196294 -1.6447004
-0.95525974 -0.17091542 -1.6458558
-0.95148647 -0.17620257 -1.6397157
-0.95767772 -0.17369428 -1.6417955
-0.96116287 -0.17917565 -1.6434841
-0.96047795 -0.19428077 -1.6361667
-0.95709115 -0.20320605 -1.6368865
-0.96337926 -0.2053829 -1.641596
-0.9555552 -0.20976059 -1.6405457
-0.97084004 -0.21841884 -1.6396765
-0.96078217 -0.23355997 -1.6307421
-0.97929281 -0.2343175 -1.6348726
-0.96706653 -0.25809899 -1.6349846
-0.96652377 -0.26415083 -1.6324669
-0.92078346 -0.10400675 -1.6592938
-0.9228673 -0.11436153 -1.658311
-0.94979042 -0.11370789 -1.6600273
-0.93399668 -0.1222548 -1.6575626
-0.94509548 -0.12518004 -1.6648422
-0.92894387 -0.12714973 -1.6629143
-0.93892866 -0.12659355 -1.6586416
-0.93289644 -0.14991041 -1.6544958
-0.94019473 -0.16580164 -1.6532942
-0.94655317 -0.16528729 -1.6557195
-0.95275062 -0.18943936 -1.6462308
-0.95735282 -0.19481279 -1.6469489
-0.94782364 -0.20518446 -1.6506662
-0.95103723 -0.21220967 -1.6499883
-0.9491452 -0.22397761 -1.6494584
-0.95867264 -0.22054532 -1.6469761
-0.96396029 -0.23207469 -1.6459491
-0.95794958 -0.24684641 -1.6398628
-0.97451872 -0.24969712 -1.6403295
-0.96590692 -0.25746956 -1.6378585
-0.96125865 -0.27136573 -1.6438423
-0.97542804 -0.26532954 -1.6354944
-0.9123373 -0.096712917 -1.6724272
-0.92032588 -0.11136678 -1.6747047
-0.9197467 -0.12008153 -1.6734101
-0.94506031 -0.12787753 -1.6647912
-0.92439747 -0.14179552 -1.668111
-0.92932725 -0.13657522 -1.6662712
-0.94535011 -0.14581856 -1.666296
-0.92851424 -0.15762667 -1.6668409
-0.93494987 -0.18143031 -1.6574234
-0.94166142 -0.18091944 -1.6601229
-0.94273144 -0.1876708 -1.6603723
-0.9355163 -0.20029628 -1.6620694
-0.94508642 -0.23357467 -1.6555711
-0.9539659 -0.23570773 -1.652356
-0.95712155 -0.24534568 -1.6521322
-0.95524436 -0.25148496 -1.6481664
-0.96055901 -0.26180637 -1.6479847
-0.96974456 -0.26507673 -1.6457865
-0.9596504 -0.26910412 -1.6510726
-0.97310036 -0.26964396 -1.6449013
-0.90355009 -0.10545602 -1.6844435
-0.91616297 -0.11563425 -1.6790841
-0.94635671 -0.12148113 -1.6813492
-0.91968977 -0.12918863 -1.67971
-0.93363273 -0.13778694 -1.6797495
-0.93486059 -0.17707589 -1.6745546
-0.94829029 -0.20085621 -1.6677692
-0.94248974 -0.24458036 -1.6604534
-0.96062094 -0.25579756 -1.6600441
-0.95485151 -0.26306626 -1.657635
-0.95763105 -0.27417013 -1.6543193
-0.97218925 -0.27165464 -1.6614342
-0.90057355 -0.10573229 -1.6887264
-0.92376584 -0.11019197 -1.6877177
-0.90698242 -0.11281873 -1.6864511
-0.92054534 -0.12768756 -1.6925253
-0.92842561 -0.1533035 -1.6838492
-0.92590445 -0.18805324 -1.6781985
-0.92104751 -0.20357439 -1.6825708
-0.93661195 -0.24689835 -1.6748096
-0.94041604 -0.24182452 -1.6717118
-0.96734059 -0.27616191 -1.6678362
-0.89118052 -0.096531332 -1.7029325
-0.89374316 -0.10013059 -1.700322
-0.89375609 -0.10669082 -1.6993792
-0.89962614 -0.11862311 -1.7023509
-0.90324223 -0.13703866 -1.692993
-0.91694355 -0.14528596 -1.6970923
-0.92321849 -0.16882008 -1.6879488
-0.9319427 -0.24674459 -1.6803894
-0.90844822 -0.11766408 -1.7052197
-0.89294034 -0.12919694 -1.7061005
-0.90082026 -0.12484344 -1.706653
-0.89452839 -0.1338135 -1.7063643
-0.91177338 -0.1606923 -1.7011629
-0.91520381 -0.16799489 -1.7043393
-0.91034025 -0.19507527 -1.6960101
-0.92297357 -0.24074191 -1.6931216
-0.93428141 -0.26076719 -1.6843133
-0.87846392 -0.10343407 -1.7202333
-0.89811039 -0.10995577 -1.718243
-0.88269782 -0.12143493 -1.719002
-0.90241671 -0.16034532 -1.7172644
-0.88076437 -0.09476462 -1.7288171
-0.87730432 -0.098909795 -1.7275504
-0.88257593 -0.10068037 -1.7317078
-0.85922807 -0.080150917 -1.7425895
-0.8685813 -0.087843373 -1.7412103
-0.86863834 -0.094795436 -1.7398636
-0.86380237 -0.1034341 -1.7442799
-0.88977671 -0.15279369 -1.7299907
-0.85632849 -0.088799328 -1.7526414
-0.86084157 -0.10593428 -1.7472003
-0.86869574 -0.14432691 -1.7440549
-0.84586811 -0.081595108 -1.7647877
-0.85376412 -0.10341999 -1.7569674
-0.86254448 -0.14428395 -1.7561512
-0.85055447 -0.092702001 -1.7730616
-0.8533532 -0.094779506 -1.772656
-0.85185796 -0.13658659 -1.7684246
-0.83423793 -0.085173339 -1.7804631
-0.83877039 -0.085897014 -1.784988
-0.84728312 -0.10882485 -1.7764515
-0.83361316 -0.089060411 -1.7864417
-0.83910942 -0.10205144 -1.7888844
-0.84456384 -0.10439204 -1.7927014
-0.83593392 -0.10685837 -1.7886298
-0.84416193 -0.12415136 -1.7809299
-0.84136778 -0.12901103 -1.7805504
-0.83085883 -0.085757613 -1.8029709
-0.83753395 -0.082130954 -1.8014654
-0.8256731 -0.099578559 -1.8004487
-0.83988827 -0.10808289 -1.7935266
-0.83277667 -0.1190868 -1.7927506
-0.83981824 -0.11987422 -1.7957495
