# .PCD v0.7 - Point Cloud Data file format
VERSION 0.7
FIELDS x y z
SIZE 4 4 4
TYPE F F F
COUNT 1 1 1
WIDTH 332
HEIGHT 1
VIEWPOINT 0 0 0 1 0 0 0
POINTS 332
DATA ascii
1.0316564 -0.65339559 -0.1523473
1.0179777 -0.65553772 -0.14803645
1.0195129 -0.63177192 -0.16411561
1.0453351 -0.65125346 -0.15665811
1.0147721 -0.62423235 -0.17276677
1.0061212 -0.64763469 -0.17276001
1.0237104 -0.64952308 -0.16978982
1.0628448 -0.63758308 -0.17992093
1.049274 -0.63970834 -0.17564414
1.0324523 -0.64510024 -0.1781182
1.0192869 -0.64636743 -0.17543909
1.0002385 -0.64208955 -0.17896388
1.1521868 -0.63196456 -0.18947303
1.1035566 -0.63120747 -0.19275132
1.0899861 -0.63333267 -0.18847451
1.0784951 -0.64077973 -0.19217268
1.064799 -0.64296556 -0.18657696
1.1442686 -0.6248318 -0.20558168
1.1306981 -0.626957 -0.20130488
1.1171273 -0.6290822 -0.19702812
1.0921913 -0.63859385 -0.19776841
1.0738343 -0.63962871 -0.2023548
1.1120088 -0.64392698 -0.20200245
1.1965361 -0.61554384 -0.21860865
1.1256882 -0.64120042 -0.20914771
1.0874014 -0.63692462 -0.20944139
1.0661784 -0.64146638 -0.21024677
1.0164708 -0.63856047 -0.21165702
1.2098116 -0.61191189 -0.22890423
1.1985514 -0.61633086 -0.22268885
1.1089287 -0.62474316 -0.22337048
1.0953424 -0.62691146 -0.21781966
1.1808288 -0.635876 -0.22082315
1.0298306 -0.63646823 -0.21586734
1.1743119 -0.60935116 -0.23254684
1.174368 -0.6254788 -0.23134273
1.1225148 -0.62257481 -0.22892131
1.0832694 -0.6280995 -0.23270853
1.1200351 -0.63303232 -0.22721967
1.0699097 -0.63019174 -0.22849825
1.0436125 -0.63960356 -0.22714913
1.2017603 -0.62110716 -0.24253415
1.1170303 -0.61931646 -0.24486181
1.2103305 -0.62842381 -0.24461743
1.1880642 -0.62329298 -0.23693842
1.1809752 -0.62632108 -0.24168895
1.096629 -0.62600744 -0.23691884
1.0338037 -0.62530994 -0.23394872
1.0705693 -0.63530141 -0.23816262
1.0570909 -0.63745248 -0.23265588
1.1574144 -0.59849048 -0.25831342
1.1500678 -0.61763865 -0.25376004
1.2156676 -0.62516344 -0.25100026
1.1873559 -0.62248951 -0.24843585
1.027862 -0.62961626 -0.24966156
1.0840474 -0.63315028 -0.24366936
1.0647444 -0.63373458 -0.24969232
1.2108424 -0.59651923 -0.26125592
1.20595 -0.61235571 -0.2641449
1.1959373 -0.6152916 -0.26613393
1.113344 -0.61285365 -0.2590158
1.1823701 -0.61799568 -0.25904736
1.1634275 -0.61554652 -0.25797033
1.0872144 -0.62169623 -0.26304033
1.2299535 -0.62831914 -0.26348788
1.1537917 -0.63263309 -0.26207027
1.0411023 -0.62697726 -0.25657755
1.2210294 -0.61154556 -0.27627066
1.2097392 -0.6139732 -0.27155751
1.1139584 -0.61742806 -0.27396685
1.1005864 -0.61956215 -0.26850358
1.1668416 -0.62906289 -0.27219075
1.1630108 -0.63067532 -0.26952574
1.1379609 -0.62454599 -0.26569629
1.0914395 -0.6284138 -0.26363614
1.0636097 -0.62509316 -0.271433
1.0372994 -0.62921345 -0.26314121
1.0019801 -0.62440407 -0.26825964
0.98892492 -0.62644863 -0.26414528
1.1086104 -0.59810048 -0.27948093
1.0971889 -0.60632735 -0.27748922
1.2411489 -0.61297846 -0.2844646
1.2230711 -0.60988325 -0.28030705
1.0899203 -0.62097287 -0.27972472
1.0767651 -0.62303299 -0.27557886
1.0411458 -0.61827058 -0.28060275
1.0150354 -0.62235963 -0.272374
0.98123419 -0.62158072 -0.27978486
1.2444255 -0.63150084 -0.27620167
1.013497 -0.62712795 -0.27999347
1.1540741 -0.61102575 -0.29035664
1.140702 -0.61315984 -0.28489333
1.1293861 -0.61479241 -0.2921623
1.1073045 -0.61378199 -0.29115748
1.094064 -0.6164211 -0.2842415
1.1677432 -0.62204349 -0.28601897
1.1314819 -0.62043262 -0.28455192
1.0940765 -0.62339866 -0.28916007
1.0398251 -0.62292612 -0.29075015
1.026661 -0.62502706 -0.28537178
1.2214313 -0.59836572 -0.30037552
1.1808178 -0.60675758 -0.30128312
1.1674459 -0.60889167 -0.29581988
1.1064223 -0.60804808 -0.30117458
1.2059914 -0.61835217 -0.30255237
1.093367 -0.61009258 -0.29706019
1.0696461 -0.61773396 -0.29265967
1.0529891 -0.62082511 -0.29612845
1.019738 -0.62404251 -0.29509771
1.2249606 -0.598858 -0.31261656
1.1941897 -0.60462344 -0.30674636
1.1848719 -0.6097911 -0.31243959
1.2190411 -0.61478186 -0.31267288
1.1715244 -0.61245155 -0.30546767
1.1291897 -0.61937392 -0.30986452
1.0794733 -0.61751169 -0.30900517
1.0661532 -0.61872423 -0.30150676
1.1964496 -0.59346688 -0.32549456
1.1982193 -0.60713071 -0.31941152
1.0933427 -0.60941744 -0.31507117
1.0693909 -0.60765201 -0.31997526
1.0587425 -0.6041218 -0.32149589
1.1557237 -0.61513919 -0.32070526
1.1424567 -0.61725646 -0.31528491
1.1321255 -0.618743 -0.32069537
1.0704437 -0.61810696 -0.31717461
1.0618516 -0.61605233 -0.3191995
1.2097166 -0.5913496 -0.33091494
1.1822577 -0.61090446 -0.33154604
1.1689906 -0.61302179 -0.32612565
1.1093142 -0.61201978 -0.32942459
1.1216444 -0.61495954 -0.32979631
1.1085091 -0.61757761 -0.32293525
1.2194467 -0.60167831 -0.33627903
1.0868477 -0.60540009 -0.33801877
1.0616342 -0.60461986 -0.33525437
1.2628539 -0.61055934 -0.34245899
1.1350037 -0.61015153 -0.33712432
1.0739878 -0.60741395 -0.33396599
1.2715508 -0.61685073 -0.33830342
1.226468 -0.59003067 -0.35340136
1.2649568 -0.59382886 -0.35427114
1.2516093 -0.59648913 -0.34729919
1.2323864 -0.59813821 -0.34631428
1.1846294 -0.59981596 -0.34991166
1.1610501 -0.60710531 -0.35037947
1.1479149 -0.60972345 -0.34351841
1.0522882 -0.61222422 -0.34150374
1.2017515 -0.58369416 -0.35937878
1.2453265 -0.594598 -0.35634956
1.2109575 -0.59561414 -0.3606683
1.1977934 -0.59771508 -0.35529
1.1741854 -0.60448724 -0.35724056
1.2582663 -0.59105784 -0.3663848
1.2384025 -0.60307312 -0.37199393
1.2174902 -0.60493195 -0.37158769
1.2028052 -0.61030102 -0.36654127
1.1873206 -0.60186917 -0.36410159
1.1599178 -0.60814315 -0.36862844
1.1468554 -0.61022788 -0.36329156
1.2303219 -0.60142136 -0.38153911
1.2154223 -0.60730994 -0.37754044
1.1729805 -0.60605842 -0.37396529
1.2398617 -0.59139687 -0.39154583
1.2280393 -0.60431886 -0.38853961
1.2406565 -0.60132772 -0.39953879
1.2306225 -0.58864224 -0.40418807
1.217905 -0.60034037 -0.40630203
1.2404437 -0.58774614 -0.4198333
1.1905819 -0.58237481 -0.41451791
1.2029756 -0.59522253 -0.41986066
1.2309238 -0.57607722 -0.42645916
1.2155102 -0.58900845 -0.42769814
1.2159913 -0.59540665 -0.42856443
1.2651684 -0.57806098 -0.44268361
1.2525686 -0.58595872 -0.43358511
1.2413688 -0.58385438 -0.44120508
1.2285258 -0.58919269 -0.4364019
1.254298 -0.58127743 -0.44795856
1.2412329 -0.58850092 -0.44814008
1.243749 -0.56030023 -0.45806471
1.2360917 -0.59136838 -0.45529515
1.2562673 -0.55687547 -0.46777284
1.255595 -0.57003891 -0.46647021
1.2414562 -0.57604748 -0.469861
1.2400026 -0.5808332 -0.46639359
1.1684247 -0.58064175 -0.46762577
1.1656781 -0.58741271 -0.4666039
1.2512003 -0.56181765 -0.47853705
1.2539744 -0.57262272 -0.47956914
1.1810573 -0.57812387 -0.47422427
1.2598583 -0.5814386 -0.4791401
1.2514063 -0.58365548 -0.48032483
1.2359037 -0.58073997 -0.47920445
1.1779952 -0.58404297 -0.47615612
1.2635062 -0.5589003 -0.48926505
1.1936899 -0.57560593 -0.48082277
1.1903123 -0.58067322 -0.48570836
1.2790107 -0.56577325 -0.49898538
1.235375 -0.5688203 -0.50111306
1.2189552 -0.57057017 -0.49401981
1.195395 -0.56464934 -0.49868631
1.2204684 -0.55965185 -0.511783
1.2839859 -0.5730055 -0.50461286
1.281065 -0.5689674 -0.50923342
1.2577009 -0.56781757 -0.50342011
1.1909429 -0.5685854 -0.50660408
1.1917325 -0.57849652 -0.50000376
1.256853 -0.56301647 -0.51381528
1.2330048 -0.55715311 -0.51833141
1.2031622 -0.56524241 -0.5160805
1.2475809 -0.56592679 -0.51175362
1.2272635 -0.57056391 -0.51436508
1.2076597 -0.57855213 -0.51280379
1.2066952 -0.57699859 -0.51629061
1.2597867 -0.56303316 -0.5223943
1.2401404 -0.57128674 -0.5250631
1.273144 -0.56618118 -0.5350371
1.2518976 -0.56382436 -0.5334695
1.2078185 -0.56647134 -0.53392947
1.2897034 -0.5706898 -0.53972483
1.2681241 -0.57243025 -0.53073204
1.2525592 -0.57123441 -0.53872865
1.1538221 -0.56992996 -0.53082919
1.2590294 -0.5513255 -0.54381037
1.2976875 -0.56843293 -0.54566193
1.2642148 -0.56045461 -0.54302174
1.2568417 -0.56700355 -0.54248405
1.2331733 -0.56115419 -0.54674995
1.2207313 -0.5636341 -0.54025096
1.2014425 -0.56860399 -0.54801834
1.1893197 -0.57192057 -0.53861684
1.1566128 -0.5705381 -0.54540861
1.2765318 -0.55708492 -0.55257398
1.2694975 -0.56126654 -0.55180663
1.2580574 -0.55619437 -0.55974787
1.2944531 -0.57128024 -0.55337846
1.2864745 -0.56616992 -0.55785984
1.2644179 -0.56708962 -0.55124849
1.1684331 -0.56773591 -0.55571318
1.126598 -0.56583756 -0.55079752
1.2583055 -0.53982037 -0.56486487
1.2801003 -0.56324714 -0.56590366
1.2433772 -0.5582872 -0.56551623
1.2019325 -0.55676764 -0.56814021
1.1509322 -0.56098741 -0.56350827
1.1287131 -0.55533832 -0.5675146
1.2757838 -0.56804597 -0.56446594
1.1856976 -0.56424469 -0.56588662
1.1802534 -0.56493372 -0.56601781
1.1734402 -0.56668776 -0.55948406
1.2764777 -0.54518443 -0.57293868
1.2622854 -0.553837 -0.57448983
1.2139602 -0.55347711 -0.57746798
1.2856904 -0.56022501 -0.57614154
1.2553869 -0.55544013 -0.57598597
1.2378109 -0.55865425 -0.57622296
1.233343 -0.56509823 -0.57473946
1.1415749 -0.56478703 -0.57263196
1.288697 -0.54184139 -0.58241498
1.299994 -0.55465513 -0.588808
1.2673968 -0.55259299 -0.5864557
1.2499337 -0.55533761 -0.58562452
1.1874336 -0.55371207 -0.58257431
1.2908691 -0.56526041 -0.58021396
1.2875504 -0.56082916 -0.58025628
1.1534172 -0.56154716 -0.58181602
1.298991 -0.55657321 -0.59435308
1.2760302 -0.55381233 -0.59229708
1.2347268 -0.55447233 -0.59149647
1.2157142 -0.55652714 -0.59693152
1.1996006 -0.55128694 -0.58892965
1.1652595 -0.55830729 -0.59100008
1.2721081 -0.54921567 -0.60902512
1.2666394 -0.54118764 -0.60698175
1.2500432 -0.54360539 -0.60545129
1.3104312 -0.55231732 -0.60844994
1.2275347 -0.55372488 -0.60723609
1.1771019 -0.55506742 -0.60018414
1.2975618 -0.54150724 -0.61173284
1.2620709 -0.54031479 -0.61477906
1.257175 -0.55730289 -0.60862762
1.1999891 -0.55519897 -0.61601841
1.188944 -0.55182755 -0.60936815
1.165602 -0.55203635 -0.61333376
1.2740984 -0.53702426 -0.62410682
1.2270544 -0.54245734 -0.62731516
1.2824922 -0.55142742 -0.62339932
1.2360708 -0.55036139 -0.62692595
1.2126288 -0.54534781 -0.62773621
1.2007864 -0.54858768 -0.61855221
1.177592 -0.54964656 -0.6195966
1.2688355 -0.55322731 -0.62093818
1.2776884 -0.52714276 -0.63750881
1.2387822 -0.53967714 -0.63753885
1.2629957 -0.54531825 -0.6381498
1.2015722 -0.54486692 -0.6321224
1.2740594 -0.52555346 -0.64344591
1.2363133 -0.53886807 -0.64610422
1.2859938 -0.52228844 -0.65270132
1.2622373 -0.53411669 -0.65798622
1.2531303 -0.53160936 -0.65302408
1.2481557 -0.53562826 -0.65528834
1.1763201 -0.54701537 -0.64937103
1.2645992 -0.52760082 -0.66513234
1.2898245 -0.53222233 -0.66763771
1.259998 -0.53238833 -0.66447234
1.2723596 -0.54031372 -0.66533536
1.2254866 -0.54313529 -0.66165459
1.2002856 -0.54098356 -0.65704936
1.1879826 -0.54382473 -0.65841544
1.1798782 -0.54336298 -0.66170484
1.2615321 -0.52311718 -0.67748266
1.3154776 -0.53692502 -0.6701805
1.2368622 -0.5391593 -0.67366421
1.2118324 -0.53824621 -0.66711551
1.2981592 -0.54580355 -0.6681844
1.2354313 -0.54376876 -0.66796941
1.1996449 -0.54063416 -0.66745991
1.2731688 -0.52035856 -0.68762702
1.2600478 -0.52111501 -0.68322325
1.2836826 -0.52590859 -0.68284041
1.3101776 -0.53833014 -0.68189681
1.2470679 -0.54101014 -0.67811376
1.2229694 -0.53425282 -0.6855489
1.211307 -0.53744352 -0.67650449
1.2955248 -0.52266872 -0.69202441
1.2731096 -0.53982157 -0.68833584
1.2587045 -0.53825146 -0.68825811
1.2990059 -0.51557511 -0.70145708
1.3064069 -0.52527821 -0.70519727
1.3175553 -0.5211308 -0.7189346
