# .PCD v0.7 - Point Cloud Data file format
VERSION 0.7
FIELDS x y z
SIZE 4 4 4
TYPE F F F
COUNT 1 1 1
WIDTH 1420
HEIGHT 1
VIEWPOINT 0 0 0 1 0 0 0
POINTS 1420
DATA ascii
0.21329467 -0.63774192 0.69372761
0.23798753 -0.64772248 0.68920624
0.22742908 -0.65003437 0.6869033
0.20646185 -0.64850897 0.6898104
0.21987996 -0.65591818 0.68813384
0.21651947 -0.65964741 0.68884569
0.19785459 -0.65772843 0.69155079
0.22192274 -0.66624928 0.69528443
0.21587011 -0.66800576 0.69534105
0.20952407 -0.6687364 0.69716161
0.21260101 -0.68077159 0.6913318
0.20839459 -0.67371219 0.69517887
0.20253552 -0.67938942 0.69181561
0.19091322 -0.67484617 0.70006007
0.21842881 -0.68485057 0.69818741
0.20753969 -0.68741292 0.69730645
0.20131011 -0.68286079 0.69660914
0.19370773 -0.68830198 0.69647151
0.17775078 -0.69766051 0.69837958
0.20433174 -0.70475227 0.70118123
0.20266907 -0.70265275 0.69695956
0.19310775 -0.70299578 0.70386159
0.18920039 -0.71886319 0.70007002
0.19863108 -0.72820586 0.69925189
0.19030933 -0.72791505 0.69955701
0.21687561 -0.73227388 0.70413923
0.20458575 -0.72843379 0.70464659
0.19150114 -0.72982866 0.70339215
0.19115569 -0.74428332 0.70294005
0.23078422 -0.75553381 0.7017321
0.20208335 -0.75302339 0.70517784
0.19316973 -0.75424773 0.70818323
0.20899649 -0.75779033 0.70524478
0.19329658 -0.75984222 0.70478356
0.1820408 -0.7553913 0.71116358
0.19306797 -0.77027506 0.71229964
0.18171707 -0.76807308 0.70946133
0.21779808 -0.60411376 0.67313033
0.25631583 -0.61034966 0.67371213
0.2339088 -0.61628824 0.67617321
0.22957498 -0.61434084 0.67582309
0.25130016 -0.62021476 0.67608798
0.2390018 -0.62433779 0.6816029
0.23597366 -0.62404752 0.68205535
0.22076716 -0.62838495 0.68123537
0.21812078 -0.63246888 0.67957157
0.25689837 -0.6409685 0.67866302
0.24969687 -0.644225 0.67707109
0.24279188 -0.63862503 0.68068361
0.23481542 -0.63765574 0.68339825
0.22215281 -0.63870442 0.67593122
0.21278581 -0.64983487 0.68312055
0.21038166 -0.65333837 0.68293643
0.2420681 -0.65894169 0.6824885
0.22742106 -0.65841353 0.68337917
0.23426728 -0.66526639 0.68091041
0.22224839 -0.66571999 0.68606907
0.22870426 -0.68077195 0.68465078
0.21926835 -0.68164778 0.6829918
0.21466242 -0.67890155 0.6853953
0.21992981 -0.68522072 0.68334508
0.20643201 -0.68528545 0.68537891
0.20324227 -0.69013715 0.68352044
0.19433784 -0.68859422 0.68761492
0.21460722 -0.70067358 0.68764466
0.20059769 -0.69903982 0.68775111
0.19702871 -0.70092916 0.68913633
0.22917609 -0.70530546 0.69261938
0.21485804 -0.70532298 0.69418722
0.2217332 -0.71114391 0.69296849
0.20490094 -0.71420747 0.69217837
0.22863443 -0.72816396 0.69172484
0.2149017 -0.72688848 0.69365108
0.20727806 -0.73126209 0.69542319
0.19207215 -0.73283118 0.69577193
0.21678825 -0.74587536 0.69454581
0.20780712 -0.74494624 0.69226581
0.20231399 -0.74649775 0.70010459
0.21986793 -0.75374603 0.69184893
0.1928229 -0.75138026 0.69787782
0.17951065 -0.7529251 0.7016691
0.20298639 -0.76606739 0.69829583
0.17828666 -0.75775373 0.69490886
0.26788437 -0.60704494 0.66554296
0.2546804 -0.61611742 0.66947794
0.25064299 -0.61571002 0.66456252
0.24133499 -0.61469609 0.67006236
0.23388618 -0.61925429 0.66497028
0.21615365 -0.61694396 0.66854328
0.24658133 -0.62010139 0.66898453
0.25345415 -0.63453382 0.66768873
0.24921319 -0.63090241 0.67148447
0.24086735 -0.63418067 0.67092019
0.22785982 -0.6344102 0.67372358
0.24094526 -0.63995814 0.66827255
0.22317566 -0.64314723 0.66808498
0.25378665 -0.65510195 0.67061663
0.23975924 -0.65379471 0.67043322
0.22757608 -0.65365756 0.67475975
0.24055147 -0.66370463 0.67014706
0.23497269 -0.66270345 0.67497641
0.22938906 -0.66578758 0.67345977
0.23892421 -0.67356998 0.67091745
0.22893122 -0.6741721 0.67177051
0.22443791 -0.67477727 0.67219204
0.21406402 -0.66916376 0.67499775
0.23897974 -0.6766932 0.67111415
0.21915634 -0.68226898 0.67428631
0.23240268 -0.69225216 0.68253303
0.21644624 -0.69231457 0.67903852
0.19939825 -0.68544549 0.67817438
0.2408894 -0.70060974 0.68087518
0.22651859 -0.70124745 0.6818766
0.21262911 -0.69471443 0.67629921
0.21019033 -0.69732833 0.67892921
0.21011811 -0.70366275 0.68278039
0.20241189 -0.70969737 0.68580496
0.22554033 -0.71983653 0.6783033
0.21468563 -0.72007942 0.6853286
0.2056783 -0.71879852 0.68412948
0.22688557 -0.72232157 0.68343914
0.21806015 -0.72725099 0.68213743
0.20083097 -0.72932947 0.68278426
0.1922009 -0.7332949 0.68701041
0.22670665 -0.74166781 0.68054199
0.2126734 -0.7423858 0.68645746
0.20099452 -0.7401095 0.68904853
0.1936986 -0.74654973 0.68623799
0.18813583 -0.74868834 0.68752968
0.19846123 -0.76245004 0.68947577
0.27982843 -0.60846519 0.65620869
0.26481313 -0.60931182 0.65466076
0.25101861 -0.61058807 0.65639001
0.23911956 -0.60922921 0.6609717
0.22864814 -0.60892415 0.6550858
0.26159513 -0.61387235 0.65496236
0.24959792 -0.62829733 0.65536064
0.25278857 -0.63628155 0.66235626
0.23764323 -0.63713562 0.66079491
0.26351333 -0.6401214 0.66457385
0.25253457 -0.64423579 0.65941453
0.23699926 -0.64750916 0.66006994
0.26765811 -0.64981163 0.66290575
0.25054884 -0.65032989 0.65896207
0.22842468 -0.65074939 0.66377324
0.22310118 -0.65204501 0.66349488
0.24769698 -0.65968692 0.66388375
0.24496157 -0.66128802 0.66773289
0.22440058 -0.66672081 0.66477919
0.21474582 -0.66558802 0.66967696
0.25208583 -0.66996914 0.66071028
0.2459923 -0.68174022 0.66379893
0.23188064 -0.67925245 0.6631937
0.22795215 -0.67948723 0.67045712
0.21232085 -0.67668921 0.6643095
0.21180192 -0.68593252 0.66948849
0.25416499 -0.69697773 0.67057967
0.24329746 -0.7031219 0.66639709
0.22266659 -0.69528985 0.67064267
0.20333998 -0.70183444 0.67359614
0.19776247 -0.70234221 0.67516983
0.23396815 -0.70720935 0.67095762
0.23845787 -0.71730989 0.66836512
0.23724498 -0.71820962 0.66979188
0.22884229 -0.7232399 0.66885161
0.22452448 -0.71590555 0.67143714
0.21760504 -0.7260114 0.67224491
0.20538835 -0.72401327 0.67285007
0.22211668 -0.73553753 0.67377084
0.21672866 -0.7411989 0.67767322
0.19598122 -0.7460891 0.67367053
0.20919286 -0.75864583 0.67664409
0.21055017 -0.76236421 0.67968309
0.24095125 -0.60102123 0.64182103
0.27421221 -0.61088121 0.64396316
0.26293781 -0.60522681 0.64542985
0.24761465 -0.60505635 0.64704549
0.26323789 -0.6273964 0.65009475
0.25423518 -0.63004649 0.64994448
0.26439017 -0.63655168 0.64780176
0.23627518 -0.63389707 0.6519264
0.26335227 -0.65271288 0.65458363
0.25496644 -0.65482897 0.65158993
0.24955459 -0.6508317 0.65513736
0.24288876 -0.65557861 0.65494227
0.22558416 -0.65790969 0.65493459
0.26524746 -0.66636837 0.6505031
0.24384539 -0.66547459 0.65904891
0.23296022 -0.66251618 0.65074724
0.24925524 -0.67261457 0.65757757
0.2429617 -0.67674989 0.65454549
0.23598701 -0.67071915 0.65940559
0.23502316 -0.68703848 0.65867746
0.22036156 -0.68172795 0.65545654
0.24983966 -0.69309634 0.65725541
0.23515821 -0.69251633 0.66057134
0.2223898 -0.69057369 0.66251814
0.24639007 -0.70323598 0.6617533
0.22698101 -0.69721824 0.65942466
0.21606427 -0.69881803 0.6625036
0.20776288 -0.70093966 0.66016585
0.23595321 -0.71188211 0.66055876
0.21898855 -0.71142006 0.66205907
0.2177068 -0.70758498 0.66599101
0.20777965 -0.71388507 0.66652644
0.23043828 -0.72296906 0.66105729
0.20071752 -0.71723688 0.66226906
0.22932301 -0.73247933 0.6655007
0.20945616 -0.72509277 0.66864491
0.23699243 -0.73907697 0.66723645
0.22275071 -0.73764193 0.66615069
0.2042764 -0.73986799 0.67000312
0.23945917 -0.75125569 0.66447365
0.23212974 -0.75063616 0.67093015
0.20165329 -0.74574447 0.6715489
0.22018008 -0.75505441 0.66513079
0.27418649 -0.6002537 0.63643336
0.25748575 -0.60206079 0.63495183
0.28648007 -0.60694909 0.63397551
0.25153771 -0.60711551 0.63614261
0.27854404 -0.61989081 0.643125
0.26037583 -0.61754107 0.63922
0.23150986 -0.62268841 0.64263034
0.28130406 -0.62439394 0.64259487
0.26628876 -0.62524062 0.64104694
0.2558665 -0.62804723 0.64329326
0.26211277 -0.64628816 0.64675349
0.25931525 -0.64669108 0.64135629
0.2455589 -0.64330459 0.646038
0.23866417 -0.6485399 0.63888258
0.25585592 -0.65756923 0.64734477
0.25953072 -0.66853595 0.64404088
0.24664928 -0.66662788 0.6464107
0.25935209 -0.67139697 0.64536279
0.24960239 -0.67609739 0.64534986
0.26150018 -0.68902075 0.64494479
0.24543366 -0.6884377 0.64703476
0.23258457 -0.68676615 0.64876658
0.28938651 -0.69353402 0.64716893
0.2479523 -0.69749337 0.65035534
0.231068 -0.69767535 0.64963162
0.21578643 -0.6937573 0.64884645
0.25922331 -0.7001937 0.65056568
0.23077649 -0.7014972 0.64976025
0.2476044 -0.71409768 0.65614474
0.24153979 -0.72101325 0.65297729
0.23635624 -0.72402829 0.65541565
0.21808136 -0.72085607 0.65450549
0.24654345 -0.73325258 0.65253431
0.23460001 -0.73277551 0.65587121
0.20536897 -0.73044181 0.65412384
0.26023629 -0.73600256 0.65158296
0.24911864 -0.73658377 0.65552038
0.22516924 -0.73934704 0.65802062
0.21448652 -0.74270213 0.66036129
0.2068755 -0.73927206 0.65957314
0.24507414 -0.74756747 0.65964562
0.2327446 -0.74983603 0.65466988
0.22388996 -0.74974829 0.66067314
0.20738569 -0.75584882 0.66069841
0.28565538 -0.59624511 0.62432516
0.27826458 -0.5954814 0.62720448
0.25306728 -0.59323519 0.62875104
0.29425219 -0.60470313 0.62603354
0.26967984 -0.60079831 0.62625414
0.26206031 -0.60320103 0.62317669
0.24602023 -0.60099083 0.62852383
0.28962213 -0.60744673 0.62973773
0.27261162 -0.60725361 0.62972081
0.24379104 -0.61467999 0.62946093
0.26897252 -0.61818558 0.62631744
0.29138201 -0.62939841 0.62576544
0.27114624 -0.62729079 0.63227975
0.27615386 -0.636307 0.63082755
0.25411853 -0.63909996 0.63200605
0.24703102 -0.6374712 0.63646317
0.23437157 -0.63645256 0.63017488
0.26768667 -0.64978528 0.63582224
0.2625522 -0.65225405 0.63029593
0.25581279 -0.64611393 0.63416052
0.25549355 -0.66242135 0.6312654
0.24151987 -0.65831167 0.63671535
0.23756328 -0.65958375 0.63722378
0.28605604 -0.6667071 0.63801545
0.27091071 -0.66756111 0.63645411
0.25802413 -0.66732317 0.63524467
0.25732923 -0.67321944 0.64100844
0.22845691 -0.67509776 0.64160448
0.26283675 -0.68292511 0.63810039
0.24191117 -0.68229234 0.63495576
0.22794704 -0.68203288 0.63797647
0.27205655 -0.69715136 0.63937813
0.25883168 -0.69525695 0.64401895
0.24420209 -0.70755792 0.64365417
0.23113911 -0.70591229 0.64524579
0.2570343 -0.71343505 0.64058977
0.24861905 -0.71240735 0.64412743
0.22670653 -0.71661925 0.6403662
0.26087743 -0.73247379 0.64310604
0.24375162 -0.73004991 0.6455158
0.23595138 -0.73533595 0.64473486
0.22131909 -0.72910339 0.64610708
0.21401139 -0.73597807 0.6451115
0.2366433 -0.73810881 0.64425993
0.22450824 -0.75370479 0.65348089
0.28169 -0.59839833 0.61210293
0.26460481 -0.59671068 0.61919332
0.25863037 -0.59230936 0.61309659
0.30287737 -0.60046637 0.61189407
0.29624078 -0.60280842 0.62019438
0.28901207 -0.60431665 0.6167013
0.28405961 -0.59998995 0.61853981
0.25588548 -0.60679018 0.61648482
0.29445165 -0.61357528 0.621696
0.2683526 -0.60779345 0.62267756
0.2618525 -0.61589062 0.62049353
0.24837124 -0.61540079 0.61568737
0.29018223 -0.61982512 0.61663944
0.28265834 -0.62267935 0.62388474
0.27532518 -0.62220091 0.61851698
0.26659432 -0.61797822 0.61903417
0.28920373 -0.63273674 0.62070715
0.26267821 -0.63489544 0.6179741
0.25919339 -0.62934971 0.6233409
0.26777646 -0.64142925 0.62324494
0.26056948 -0.643902 0.62153119
0.27704456 -0.64935279 0.62820017
0.24998611 -0.65267122 0.62334555
0.27083835 -0.66081446 0.62360018
0.24105316 -0.66318268 0.62583876
0.26992986 -0.66733009 0.63020998
0.26270711 -0.66930711 0.63063484
0.24044725 -0.67345482 0.62467158
0.23748086 -0.67331886 0.62739271
0.26773208 -0.68335402 0.62604284
0.26129559 -0.68701738 0.63203245
0.25570917 -0.68435901 0.63349807
0.24836968 -0.68926144 0.63306952
0.24421217 -0.68793631 0.6335575
0.25053859 -0.69234401 0.63472575
0.24155642 -0.69715375 0.63366675
0.26832321 -0.70587367 0.62885034
0.25626653 -0.70445269 0.63171339
0.24726447 -0.70308268 0.63590491
0.26033309 -0.71146381 0.63016748
0.24991231 -0.71324646 0.63691175
0.23349628 -0.71255898 0.63637334
0.27263626 -0.72836393 0.63069171
0.25646186 -0.72904503 0.63853043
0.24673352 -0.73132491 0.6314491
0.23724869 -0.73680699 0.63450325
0.23989886 -0.74600226 0.63488698
0.31774694 -0.59478444 0.60546422
0.30409083 -0.5959776 0.60427403
0.27908593 -0.59521067 0.61014152
0.2730999 -0.59253782 0.60526723
0.29961976 -0.60037047 0.60363048
0.28771248 -0.6075775 0.60989785
0.28687292 -0.60674417 0.61146653
0.27725407 -0.6035533 0.60749
0.27258286 -0.59928644 0.61021072
0.28728375 -0.61293304 0.60682321
0.28269672 -0.61247438 0.61322987
0.27527684 -0.61568367 0.6132648
0.26560566 -0.61265975 0.61181611
0.30207634 -0.62542009 0.61258793
0.29241902 -0.61853868 0.61010355
0.25847566 -0.61892033 0.61260623
0.3022536 -0.62916648 0.61058658
0.29635963 -0.63176578 0.60916275
0.26826921 -0.6327123 0.61424279
0.26280278 -0.63358438 0.60902303
0.28773889 -0.64537442 0.61502266
0.28069735 -0.64070928 0.60959709
0.27883664 -0.63840967 0.61379391
0.28225741 -0.65456831 0.61114913
0.27376363 -0.65272319 0.61853027
0.29927063 -0.65540487 0.61691511
0.26525426 -0.65828067 0.61748433
0.27340144 -0.66532874 0.61745727
0.24604051 -0.66911429 0.61336076
0.26598462 -0.68028039 0.6199615
0.25714126 -0.67832333 0.6176787
0.25167182 -0.67815167 0.62117463
0.27239916 -0.68362784 0.62272233
0.26249865 -0.68423605 0.62320507
0.25906399 -0.68528306 0.61989188
0.27015266 -0.7014457 0.62135351
0.26042607 -0.69948184 0.62569773
0.24802685 -0.69302368 0.62148142
0.26323909 -0.70263785 0.61870217
0.25388518 -0.70577872 0.6225642
0.24661916 -0.70686275 0.61973476
0.26893803 -0.71384203 0.62749445
0.24485379 -0.71963942 0.62350225
0.23533173 -0.71238256 0.62622678
0.26651555 -0.72919923 0.62725091
0.2518723 -0.72899973 0.62346822
0.24513984 -0.7276513 0.62191331
0.28390729 -0.73836142 0.62579215
0.25298628 -0.73357511 0.62679851
0.22263658 -0.73174137 0.63097215
0.26679632 -0.74794012 0.62710756
0.25257841 -0.74502951 0.62827659
0.24687034 -0.74707818 0.63304943
0.28919801 -0.59119689 0.59682012
0.31150255 -0.59622955 0.59775472
0.29420167 -0.59543234 0.60119563
0.29181191 -0.59235591 0.59722167
0.27876079 -0.60110724 0.59316367
0.30737641 -0.60293102 0.60113168
0.2975069 -0.60578841 0.59949124
0.29280737 -0.60129869 0.59679228
0.30217972 -0.61439806 0.59632242
0.29707405 -0.61502594 0.60316139
0.28296757 -0.61346775 0.59767675
0.2769874 -0.61272651 0.60014176
0.50018758 -0.63065141 0.59808636
0.31277066 -0.62144166 0.59941036
0.30214018 -0.62711954 0.60227174
0.2900449 -0.62187368 0.59716284
0.28205574 -0.62595195 0.60120118
0.2797381 -0.62870371 0.60213459
0.26789382 -0.62575895 0.59754276
0.28859735 -0.63426906 0.60001278
0.28611228 -0.63494718 0.60724545
0.27654833 -0.63411725 0.60212988
0.27123785 -0.63069087 0.60394216
0.25072223 -0.62981075 0.60285103
0.3153362 -0.64684123 0.60834479
0.29843321 -0.64139599 0.60184503
0.29035717 -0.65629995 0.60343099
0.27501491 -0.65414 0.60370314
0.25627214 -0.65188235 0.60941744
0.28409576 -0.66135031 0.60427976
0.25275448 -0.6649996 0.6115523
0.30088109 -0.66695946 0.61079937
0.28431961 -0.67401308 0.60590887
0.27137342 -0.66913933 0.60623288
0.27694914 -0.67884248 0.60936993
0.26873434 -0.67813921 0.60944247
0.28642592 -0.68707764 0.61325407
0.25665206 -0.68878698 0.607342
0.30417821 -0.69798648 0.6121133
0.28903291 -0.69884062 0.61055195
0.27373761 -0.69778776 0.61224061
0.2648499 -0.69838983 0.61350322
0.25542089 -0.70125896 0.60914898
0.28177127 -0.71079969 0.6163069
0.24395692 -0.70814574 0.61208737
0.26284015 -0.71796292 0.61218041
0.25799355 -0.7160939 0.6130569
0.265145 -0.72617936 0.61691618
0.25751561 -0.72731388 0.61816335
0.2624968 -0.7408219 0.61427277
0.24594043 -0.73253763 0.62025476
0.23699808 -0.73409253 0.61974496
0.2601459 -0.74344617 0.6227538
0.25126773 -0.74236107 0.61803031
0.31798318 -0.59191728 0.58626252
0.30671331 -0.59246624 0.59028846
0.29721677 -0.58732289 0.58886343
0.31149012 -0.5980441 0.59097785
0.30653358 -0.60790443 0.588687
0.30029914 -0.60728693 0.59347188
0.28543723 -0.60676837 0.58644497
0.32346502 -0.61746323 0.58623284
0.30878061 -0.61759645 0.58763617
0.30252677 -0.61205518 0.59236842
0.29116133 -0.61170477 0.58960992
0.27059448 -0.61247206 0.59153074
0.2632952 -0.62090176 0.58762646
0.29813763 -0.62791616 0.59164906
0.29050791 -0.62587619 0.59510672
0.27667007 -0.62138772 0.59239459
0.27156433 -0.6263535 0.58939129
0.30990574 -0.63499689 0.59634507
0.29473746 -0.63071048 0.59310603
0.29986337 -0.64558268 0.59828919
0.28235549 -0.64636981 0.59431148
0.2671988 -0.64569807 0.59461951
0.2665545 -0.64471054 0.59482068
0.29382131 -0.65052658 0.59894061
0.28204229 -0.65006936 0.59785134
0.2757591 -0.65409338 0.59786654
0.26487306 -0.65666723 0.59862065
0.25460014 -0.66490972 0.59932876
0.27927423 -0.67093205 0.59996194
0.26934719 -0.66942811 0.6025967
0.29720801 -0.68306661 0.59996831
0.29241008 -0.6807189 0.59594786
0.25561619 -0.67876363 0.59909683
0.28674927 -0.69228023 0.60528338
0.28021824 -0.6892519 0.5964424
0.27587917 -0.69224167 0.60088396
0.25953022 -0.69296604 0.60463476
0.28275287 -0.7031846 0.60242295
0.29460454 -0.70775741 0.60511929
0.27117699 -0.71243781 0.6030879
0.27970245 -0.71845609 0.60912269
0.27482983 -0.71771395 0.60457426
0.26829776 -0.72330278 0.60487765
0.26002747 -0.71506649 0.6056996
0.24902913 -0.71746111 0.60725665
0.24952413 -0.72500622 0.60641199
0.29389068 -0.74215466 0.60561442
0.28136161 -0.7408936 0.60690159
0.32577723 -0.58909112 0.57716638
0.32004815 -0.59147978 0.57925755
0.3091203 -0.58594018 0.57435596
0.2987254 -0.58990252 0.57511598
0.31710342 -0.60044867 0.57690513
0.31204772 -0.60753793 0.57845163
0.30367294 -0.60873866 0.57870263
0.31038272 -0.61594176 0.57920223
0.30267587 -0.62068647 0.57791811
0.29468745 -0.61641002 0.58389652
0.49895665 -0.62606704 0.57932687
0.31859744 -0.63072741 0.58209652
0.30386165 -0.62898576 0.57950431
0.29821089 -0.62870419 0.58382654
0.28812093 -0.62797719 0.57802409
0.28576455 -0.62692058 0.58550304
0.49947774 -0.64201736 0.57678449
0.482768 -0.64151871 0.58004397
0.2930547 -0.63749456 0.58390892
0.28213274 -0.63929993 0.58707899
0.27900249 -0.63568389 0.57965952
0.31291324 -0.64201248 0.58816862
0.2906675 -0.64583254 0.58371198
0.28395128 -0.64118725 0.5881995
0.27680728 -0.64845836 0.58587903
0.26978943 -0.64099431 0.58454114
0.30321848 -0.65122849 0.58838636
0.29024845 -0.65412784 0.58691454
0.28518948 -0.65470397 0.58621514
0.29747313 -0.66199887 0.5859918
0.29083812 -0.66689032 0.58775347
0.2730386 -0.6663838 0.59259272
0.29724857 -0.67083251 0.58436835
0.29301131 -0.66974378 0.59166044
0.28653562 -0.67212307 0.59288824
0.26771286 -0.67032605 0.58626056
0.30799013 -0.67905545 0.58668262
0.27629107 -0.68729585 0.5887748
0.27223399 -0.68340647 0.58914971
0.26527727 -0.68455023 0.59320259
0.29965615 -0.69110858 0.59149241
0.28355739 -0.6908626 0.58808827
0.27243856 -0.69202477 0.59588206
0.29353499 -0.69917363 0.5891372
0.26611522 -0.69728059 0.59597147
0.30566663 -0.71405327 0.59838152
0.29088762 -0.71214241 0.59350032
0.28433862 -0.70883697 0.59288073
0.2772117 -0.71098852 0.5971185
0.26950383 -0.7108978 0.59543675
0.29148602 -0.72444808 0.59323573
0.27722794 -0.71752656 0.59342533
0.28164595 -0.73407656 0.59579235
0.27836144 -0.72903717 0.59499955
0.27097711 -0.7336663 0.59394538
0.26291353 -0.73268676 0.59863549
0.29312044 -0.73678368 0.59448719
0.27241519 -0.73661435 0.6002689
0.33575407 -0.58499777 0.5635618
0.33009785 -0.58814406 0.56694698
0.30919337 -0.59032255 0.56759077
0.32224074 -0.60349202 0.5650236
0.31588149 -0.60118455 0.56981045
0.31275526 -0.59656215 0.56936949
0.30532876 -0.60154629 0.56434482
0.49059588 -0.61263967 0.56821769
0.33616206 -0.60716504 0.56913894
0.32161206 -0.60705364 0.56819499
0.31612119 -0.60644376 0.57100832
0.3128168 -0.61133587 0.57366502
0.49526766 -0.61657012 0.56837988
0.3082568 -0.62323403 0.56799346
0.28167644 -0.62233973 0.57606995
0.3246308 -0.63077241 0.57692856
0.30811873 -0.62598771 0.57245052
0.30494365 -0.63139343 0.57265788
0.29656762 -0.63152122 0.5710007
0.48724478 -0.63776594 0.57368541
0.31982189 -0.63343918 0.57548988
0.310278 -0.63425213 0.57436252
0.3144961 -0.64596617 0.57263005
0.31090814 -0.6481427 0.57635772
0.29540077 -0.64936239 0.57316899
0.49266428 -0.6607188 0.57171893
0.31052303 -0.65842855 0.57587129
0.30548441 -0.65339351 0.57792455
0.30000871 -0.65661556 0.57885629
0.28584686 -0.6564225 0.57519788
0.27976269 -0.65557784 0.57488519
0.26890552 -0.65912044 0.58198422
0.30170304 -0.6654743 0.57741201
0.29681107 -0.66804445 0.5793516
0.28095388 -0.6657297 0.57983112
0.27962554 -0.66201341 0.57361281
0.32298353 -0.67126918 0.57435489
0.30763999 -0.67256343 0.57510746
0.29821911 -0.67451006 0.57876009
0.28838247 -0.68411827 0.57938004
0.28291464 -0.68647093 0.58124304
0.2584779 -0.69252777 0.58664137
0.29750022 -0.7052362 0.58267349
0.28087273 -0.70271981 0.5879041
0.27505794 -0.70590067 0.58372504
0.26120728 -0.69967228 0.5838086
0.29046565 -0.70979506 0.58545166
0.30431929 -0.72140568 0.58204806
0.27246273 -0.72423625 0.58699548
0.26332384 -0.72399867 0.59175783
0.24851213 -0.7190311 0.58855397
0.30715507 -0.73012006 0.5846498
0.29812965 -0.73550308 0.58582991
0.28233361 -0.73240674 0.58626509
0.26876634 -0.72899455 0.59068519
0.34389782 -0.58508468 0.55438358
0.33737811 -0.58351928 0.55533653
0.32039049 -0.58510298 0.55882746
0.31063792 -0.58151293 0.56046969
0.30366513 -0.58268493 0.55914479
0.33329761 -0.58886886 0.55681199
0.32681975 -0.59065521 0.55723453
0.3176606 -0.59015667 0.56003499
0.30521733 -0.58957922 0.55465323
0.33146176 -0.60197604 0.55497897
0.32420677 -0.60354108 0.56160951
0.30102158 -0.60397637 0.56257886
0.476013 -0.61461991 0.5616774
0.31599444 -0.6240924 0.56211746
0.33446968 -0.62659854 0.56303704
0.30038634 -0.6287117 0.56404537
0.33090016 -0.63957655 0.56387424
0.32118359 -0.64406401 0.56282109
0.31554693 -0.64017367 0.56537455
0.30814433 -0.64424235 0.56102657
0.304297 -0.64171797 0.56235969
0.29971719 -0.63691586 0.56682277
0.31889755 -0.64673525 0.5656364
0.31249434 -0.64682382 0.5617336
0.30452445 -0.64544493 0.56615132
0.28133494 -0.64998007 0.56692445
0.4896712 -0.65635753 0.56170046
0.31218031 -0.66000581 0.56324995
0.30449542 -0.66790825 0.56583476
0.29979956 -0.66754627 0.56423187
0.49828541 -0.67524028 0.56496125
0.31698215 -0.67547727 0.57131726
0.29760167 -0.680713 0.56794554
0.28885138 -0.67244732 0.57070524
0.2847378 -0.67402029 0.57395393
0.31133321 -0.68742055 0.5726319
0.29339623 -0.68668878 0.57419676
0.27055266 -0.68398488 0.57390046
0.30317971 -0.69470704 0.574462
0.29114029 -0.69730145 0.57006264
0.31871283 -0.70234466 0.5776214
0.30001312 -0.70507497 0.57582134
0.27929878 -0.705244 0.57485968
0.2613396 -0.70629203 0.57418591
0.29554865 -0.70949012 0.57727987
0.28986195 -0.71528071 0.57830608
0.28416926 -0.71595347 0.57592458
0.29459566 -0.7233783 0.5780701
0.28712067 -0.72473466 0.58064038
0.28192797 -0.72539371 0.58047801
0.28133649 -0.72955436 0.58029819
0.27686441 -0.73182809 0.58152711
0.26474082 -0.72996581 0.58079982
0.25198302 -0.72893918 0.57446277
0.35714668 -0.585195 0.54995942
0.35517246 -0.58483106 0.54269409
0.34330755 -0.58880126 0.54648191
0.34008265 -0.58541799 0.54416871
0.33173147 -0.58432317 0.54731792
0.32387975 -0.58668494 0.54544455
0.33083171 -0.59435183 0.54657888
0.31933603 -0.59774178 0.55002648
0.31291643 -0.59547842 0.54802918
0.33204609 -0.59967273 0.54917347
0.32519886 -0.60458314 0.55168974
0.31869188 -0.60445285 0.54783189
0.3084566 -0.60743809 0.54625058
0.34314394 -0.61197549 0.55321127
0.33161888 -0.61623049 0.55583245
0.3268075 -0.61403531 0.55335748
0.31270295 -0.61315936 0.55618596
0.34430847 -0.62242472 0.54914558
0.33760071 -0.62269473 0.55586624
0.32296169 -0.6235202 0.55435711
0.31853384 -0.61823022 0.55394185
0.31122217 -0.62286735 0.55301344
0.30331773 -0.61805034 0.55004179
0.48630857 -0.63292569 0.55400091
0.47144029 -0.62953675 0.55299711
0.32095256 -0.62867945 0.55697316
0.31118608 -0.63290727 0.5547145
0.28785959 -0.63142407 0.55487388
0.47449583 -0.64476943 0.54964972
0.33061734 -0.64245474 0.55286551
0.32318783 -0.64169669 0.55838162
0.3068375 -0.64144844 0.55679727
0.29759222 -0.64128351 0.55553102
0.31172875 -0.64991266 0.560978
0.29675856 -0.65314513 0.55572754
0.31692621 -0.66248477 0.55658537
0.2913585 -0.65382612 0.56115568
0.48502845 -0.67150271 0.55288726
0.33058301 -0.67166936 0.56266999
0.30652857 -0.66827452 0.55512798
0.30018032 -0.66470557 0.55995703
0.28774241 -0.6716578 0.56219625
0.49066332 -0.67476755 0.55643964
0.30813286 -0.6748448 0.5635739
0.29941887 -0.67921221 0.5643577
0.48379919 -0.69178283 0.55628693
0.32365209 -0.68787193 0.56088543
0.31760976 -0.68823266 0.56159002
0.30323508 -0.68251497 0.5603053
0.3005701 -0.68892008 0.56592363
0.29209936 -0.68548614 0.55890208
0.28708881 -0.68843025 0.56111753
0.32382345 -0.69803452 0.56225914
0.30877236 -0.70077235 0.56146216
0.28595501 -0.69865459 0.56778049
0.30598095 -0.70669264 0.56607199
0.29570213 -0.70780033 0.56503093
0.28954396 -0.70254499 0.56402516
0.31715256 -0.7183634 0.57086051
0.3006441 -0.71126962 0.56502038
0.27697358 -0.71245724 0.56327128
0.31128344 -0.72547251 0.56933135
0.29548475 -0.72111243 0.56827605
0.2768608 -0.72107482 0.56801873
0.30857411 -0.73135734 0.57207066
0.33312958 -0.58703798 0.53415221
0.35746565 -0.59841108 0.53456926
0.34262684 -0.59540021 0.53816754
0.34122244 -0.5978353 0.54119778
0.33117497 -0.59779769 0.53759879
0.32325262 -0.59343576 0.53683096
0.35572678 -0.60224426 0.53726441
0.34823617 -0.60493296 0.54121345
0.33708251 -0.60866082 0.54159331
0.33095038 -0.603266 0.53951895
0.30795252 -0.60273468 0.54274857
0.47883654 -0.61975884 0.53684229
0.4650265 -0.61930883 0.53711653
0.34467259 -0.61791915 0.53935117
0.32864293 -0.61514223 0.5411374
0.32118598 -0.61261034 0.53733778
0.48536405 -0.62270826 0.54333711
0.34309167 -0.6285727 0.54002774
0.32493573 -0.61965197 0.54420429
0.31831723 -0.61892045 0.54200017
0.34735626 -0.63127649 0.5418545
0.33115813 -0.63104129 0.54140079
0.32371384 -0.63302928 0.54371512
0.31878081 -0.63260275 0.54219878
0.46686757 -0.64445347 0.54431683
0.46240321 -0.64049989 0.54247522
0.33903939 -0.63822442 0.5425936
0.3318795 -0.63742727 0.54413319
0.3244004 -0.63904983 0.54108441
0.31010386 -0.63831747 0.54462379
0.30291611 -0.64576441 0.54889131
0.48652571 -0.64905131 0.5482021
0.30915159 -0.65563244 0.54416209
0.33560899 -0.65933824 0.55130619
0.33084744 -0.65631849 0.55057573
0.32794195 -0.66474074 0.5491153
0.31822422 -0.65841126 0.55059671
0.31285974 -0.65951329 0.54911643
0.3004753 -0.65744835 0.55226886
0.48004577 -0.66775572 0.548868
0.3211827 -0.67127454 0.55345339
0.29415551 -0.66727889 0.54898202
0.47331953 -0.68405795 0.54873496
0.33119684 -0.68113679 0.5478757
0.31662571 -0.67804629 0.55165321
0.31098273 -0.67517048 0.55214912
0.30340445 -0.67764872 0.54824048
0.48625612 -0.69114268 0.54626715
0.32668614 -0.68767941 0.55008364
0.30477121 -0.68917352 0.55206472
0.31626749 -0.70126617 0.54998547
0.29643568 -0.69557607 0.5531705
0.31597227 -0.70379955 0.55450737
0.31142619 -0.70725858 0.55173463
0.30292109 -0.70332998 0.55308717
0.32998577 -0.71532112 0.55967283
0.32011119 -0.72113633 0.55485994
0.30825117 -0.7181921 0.56006366
0.29897419 -0.7209357 0.55314028
0.28879488 -0.71231335 0.5554204
0.31901857 -0.72721159 0.55831146
0.29911807 -0.72222 0.56186032
0.34441409 -0.58227003 0.52568543
0.33959877 -0.58249468 0.52845961
0.35281989 -0.59135419 0.5247395
0.34628963 -0.58731598 0.52839768
0.33886841 -0.58962655 0.52554435
0.46118945 -0.59465134 0.52922225
0.45540422 -0.59456563 0.52822953
0.37260219 -0.59880805 0.52938557
0.35305187 -0.59749019 0.52852023
0.34403768 -0.59591311 0.52843142
0.34193337 -0.59440464 0.53180313
0.35891131 -0.60371941 0.53262258
0.34395906 -0.60498059 0.53335595
0.33883592 -0.61109626 0.52770936
0.31519488 -0.60944378 0.53558874
0.45998037 -0.61434877 0.53070617
0.35414729 -0.61825091 0.53525412
0.34637117 -0.61657792 0.53140235
0.33816752 -0.61611283 0.5343951
0.33203074 -0.61502123 0.533292
0.32278734 -0.61686391 0.53685415
0.33412385 -0.62489009 0.53049803
0.31865796 -0.62831753 0.53319639
0.48131695 -0.63936639 0.53265119
0.46265301 -0.63425064 0.52827913
0.32476598 -0.63426852 0.53288233
0.32060203 -0.63607138 0.53245044
0.31418431 -0.63544083 0.53560245
0.4957889 -0.64450121 0.53301692
0.34045619 -0.63828099 0.53897399
0.33152243 -0.64141721 0.53474414
0.45806864 -0.65568864 0.53492969
0.32770783 -0.65423727 0.53670418
0.31611463 -0.65495729 0.54106915
0.46229488 -0.6593703 0.5356366
0.32900673 -0.65872872 0.54103428
0.32499751 -0.6598618 0.54176021
0.50000322 -0.67017967 0.54112858
0.34614789 -0.67246324 0.53577691
0.33627182 -0.67579734 0.53795326
0.32254663 -0.67112869 0.53994054
0.3149851 -0.67217416 0.53944856
0.34021524 -0.68520188 0.53979462
0.31058335 -0.6803444 0.54363918
0.31826088 -0.69183505 0.54368895
0.31095126 -0.69153416 0.54056865
0.34379184 -0.70283687 0.54150915
0.3263725 -0.69758236 0.54029924
0.31753162 -0.69646972 0.54710305
0.28943977 -0.70284021 0.54828101
0.32432067 -0.70447469 0.54741603
0.31811818 -0.70749724 0.5422411
0.31031349 -0.71281606 0.54251385
0.3214128 -0.71459132 0.54985642
0.31077862 -0.71814442 0.54954976
0.32919592 -0.72425687 0.54659903
0.34490624 -0.57917565 0.51753438
0.32329506 -0.57838714 0.51497364
0.37372065 -0.58846515 0.51668841
0.35771084 -0.59066844 0.51888794
0.34916052 -0.58464003 0.51555711
0.34572619 -0.58847797 0.51855028
0.33213374 -0.59151876 0.52184469
0.36615738 -0.59414154 0.52032077
0.35972884 -0.59735525 0.51689136
0.33534753 -0.59662735 0.52084243
0.3268894 -0.60096294 0.52134401
0.45844358 -0.60852575 0.52013677
0.33353275 -0.60631973 0.5229826
0.36317477 -0.62099713 0.52561498
0.35956284 -0.6198988 0.51949662
0.35383558 -0.61647159 0.52483606
0.3288556 -0.61556554 0.52629095
0.32470673 -0.61484009 0.52761275
0.45621443 -0.63086307 0.51960129
0.34858516 -0.62325615 0.51914626
0.33053878 -0.62388396 0.52780616
0.32552248 -0.63001937 0.52494943
0.47503868 -0.63641346 0.52564299
0.35029498 -0.63410711 0.52508247
0.34057122 -0.63315785 0.5298847
0.33512717 -0.63238519 0.52280927
0.31367356 -0.63521796 0.52415049
0.37348038 -0.64398593 0.52386951
0.36309367 -0.64632237 0.5278765
0.35825986 -0.64457792 0.52535683
0.3455264 -0.64638215 0.52773017
0.33319512 -0.6421991 0.52874267
0.32038668 -0.64590234 0.53058636
0.47726986 -0.6560244 0.52196521
0.46193907 -0.65166718 0.52597648
0.33604544 -0.65436387 0.5276224
0.33392432 -0.65743417 0.52764893
0.32663763 -0.65214872 0.53203255
0.31705812 -0.65108174 0.52482897
0.30706349 -0.65458989 0.53303802
0.35111862 -0.66301125 0.53353959
0.33765087 -0.65857297 0.53123432
0.33411056 -0.66708696 0.52773201
0.3255274 -0.66236192 0.52747458
0.4724862 -0.67801607 0.52776217
0.33845344 -0.67473823 0.53055203
0.32336435 -0.67289943 0.53036064
0.32074872 -0.67345685 0.53082615
0.31146574 -0.66981643 0.53152692
0.49559602 -0.68655485 0.53095615
0.4857319 -0.68192148 0.53374165
0.33666348 -0.68312931 0.53599423
0.33061755 -0.68226093 0.53338313
0.31625459 -0.67704636 0.53594202
0.29695246 -0.68073165 0.53680831
0.32629085 -0.6921671 0.53274393
0.31956348 -0.68749249 0.52875334
0.31212249 -0.69518012 0.53078067
0.30662861 -0.69059181 0.53652394
0.32444361 -0.69885921 0.53723794
0.30569538 -0.70232141 0.53985131
0.47939926 -0.70707977 0.53183413
0.3345744 -0.71099049 0.53964925
0.32251173 -0.71000892 0.53231418
0.30959123 -0.70586759 0.5324499
0.34033275 -0.71978325 0.53319401
0.32893893 -0.71680003 0.54038846
0.31583264 -0.7182399 0.53693348
0.30527204 -0.71774 0.54025078
0.29179078 -0.71725017 0.53544462
0.35682836 -0.57170379 0.50784999
0.37625676 -0.58455437 0.50582331
0.35942459 -0.58092642 0.50683224
0.4009622 -0.59116066 0.50895536
0.37874287 -0.59094203 0.51325917
0.37484911 -0.58987212 0.50607234
0.36690232 -0.59080482 0.50649655
0.36074382 -0.58955395 0.51363552
0.34265631 -0.58760422 0.50887877
0.33904833 -0.59301251 0.50702643
0.46508226 -0.59579957 0.50979793
0.44104046 -0.60176003 0.51228446
0.34564048 -0.5986231 0.51334238
0.38309735 -0.61355507 0.50953102
0.36205605 -0.6093803 0.5108543
0.349029 -0.60705036 0.51428133
0.34543097 -0.61233258 0.51696467
0.34168741 -0.612055 0.51633954
0.33109626 -0.61075991 0.51322532
0.37143543 -0.6158362 0.51595551
0.36870211 -0.61642426 0.51705021
0.35506877 -0.61774045 0.5165534
0.34559271 -0.62088156 0.51838982
0.33833519 -0.61816442 0.51311958
0.45265791 -0.6263507 0.50953025
0.36013383 -0.62993336 0.51119101
0.35108879 -0.62857217 0.51358271
0.34763879 -0.62941909 0.51190203
0.33504504 -0.62679243 0.51725119
0.47255322 -0.63623935 0.5182628
0.36281991 -0.6379528 0.51261097
0.33243063 -0.63416064 0.51816922
0.46162087 -0.64796275 0.51505333
0.45642594 -0.65126443 0.51726526
0.36022153 -0.64263964 0.51450205
0.3464427 -0.64996338 0.51491094
0.33758837 -0.64546621 0.5179745
0.33116522 -0.64111942 0.51940274
0.32503524 -0.64207876 0.51738822
0.36190072 -0.65900016 0.52025384
0.32915238 -0.65769506 0.52255034
0.34867051 -0.66391212 0.51537776
0.33025271 -0.66622651 0.51906604
0.32352498 -0.66432762 0.52116239
0.34425029 -0.67280102 0.51848292
0.33275157 -0.6699934 0.5186308
0.34616891 -0.67983425 0.52181172
0.31377986 -0.68400043 0.51889181
0.47341275 -0.69777304 0.51793551
0.46787873 -0.69304609 0.51901597
0.35075995 -0.69265044 0.52106023
0.34609514 -0.68920523 0.5224784
0.33636996 -0.69002688 0.52472192
0.33213529 -0.69327199 0.5248065
0.3181347 -0.69215763 0.5230462
0.29974943 -0.69418442 0.52463466
0.47965357 -0.69904 0.52102208
0.3542363 -0.69869113 0.5277499
0.33712319 -0.70175093 0.52801192
0.33299044 -0.69923639 0.52516317
0.46684769 -0.71400315 0.52589315
0.347736 -0.70738977 0.52944207
0.33776671 -0.7124638 0.52591705
0.32729256 -0.70962852 0.52475297
0.31741431 -0.70813668 0.52552044
0.47110024 -0.71693832 0.52644765
0.33990744 -0.71892011 0.53079301
0.32175285 -0.71774966 0.5305081
0.48602769 -0.72599304 0.53114522
0.36826867 -0.5714612 0.49720722
0.3520484 -0.57382417 0.49798143
0.3347517 -0.57026523 0.50109261
0.43167719 -0.58057004 0.49776226
0.38086131 -0.58604193 0.49962881
0.37185523 -0.58433783 0.49886891
0.35317889 -0.58368975 0.49591279
0.47824386 -0.59219873 0.49959075
0.46556577 -0.58788037 0.49840087
0.45437786 -0.59487379 0.49818447
0.39224809 -0.59078258 0.50263643
0.37989113 -0.59068394 0.50235999
0.37025994 -0.58859384 0.50147897
0.36671147 -0.58780009 0.50176746
0.35977617 -0.59239173 0.49633577
0.35552892 -0.5943408 0.50189322
0.34503347 -0.59433341 0.5048157
0.45454702 -0.59827954 0.50369453
0.37910244 -0.59847385 0.4964236
0.36400181 -0.59992737 0.49949646
0.35807207 -0.60414433 0.50219899
0.34697729 -0.60253549 0.50313836
0.46267155 -0.61235631 0.49739528
0.39749259 -0.61068588 0.50201184
0.38753012 -0.61004347 0.50258344
0.37436241 -0.60755843 0.50223172
0.35700405 -0.607162 0.50529039
0.35255519 -0.60780597 0.50481296
0.33748576 -0.60667962 0.49883783
0.45795912 -0.6211772 0.50651884
0.43656975 -0.61662209 0.50427407
0.35706162 -0.61687297 0.50628155
0.34911969 -0.61786479 0.50228852
0.34523812 -0.62274647 0.50382322
0.33504158 -0.61815917 0.50837982
0.38337928 -0.62532353 0.50532979
0.3703422 -0.63079673 0.50463837
0.36814696 -0.62678975 0.50842941
0.34320638 -0.62652534 0.50175607
0.34028465 -0.62825799 0.50527668
0.37856817 -0.6331901 0.5099203
0.37347603 -0.63670743 0.50396538
0.35130027 -0.63631523 0.50732893
0.34263408 -0.63711083 0.50729454
0.33125415 -0.64248848 0.50679308
0.4745653 -0.64489406 0.50376886
0.45244855 -0.64737731 0.50849634
0.34516162 -0.64412713 0.50616974
0.33828869 -0.64376831 0.50835836
0.46946782 -0.65316403 0.50669211
0.34209231 -0.6541549 0.51251513
0.45212567 -0.66724235 0.5073396
0.36375076 -0.66264015 0.51463813
0.35820761 -0.66117507 0.5121733
0.3479425 -0.66820484 0.51356572
0.3340914 -0.66755289 0.51466227
0.47375074 -0.68037868 0.51531249
0.35822773 -0.67510724 0.50942278
0.34720197 -0.67199147 0.50855172
0.32870507 -0.67511845 0.51592696
0.45279559 -0.68206304 0.50959378
0.3604289 -0.68534178 0.5115881
0.34430021 -0.68231618 0.51004916
0.33747885 -0.68755084 0.51454353
0.33112738 -0.6834507 0.51654482
0.45593366 -0.69270867 0.51514959
0.34377256 -0.69522536 0.51187742
0.32094717 -0.6956386 0.51450104
0.45606989 -0.70602298 0.5166353
0.36089757 -0.70378888 0.5192349
0.34984753 -0.69873434 0.51691931
0.33858129 -0.70114923 0.512761
0.33154991 -0.70665061 0.51569843
0.31658033 -0.70385623 0.51756614
0.35035193 -0.71477443 0.51703376
0.33062151 -0.71335614 0.51528895
0.36227351 -0.56623542 0.48510504
0.40001667 -0.57767558 0.48968953
0.38608 -0.57599479 0.48710585
0.3742438 -0.57440221 0.48601416
0.35934392 -0.57188153 0.48798883
0.44209817 -0.58502895 0.49214923
0.43516859 -0.5884065 0.48929048
0.40376616 -0.58500987 0.49144465
0.4005017 -0.58161819 0.48688707
0.39346036 -0.58385795 0.49322626
0.38450572 -0.58404857 0.49063051
0.3814916 -0.58152902 0.48741984
0.37043968 -0.58337051 0.4919872
0.3666749 -0.58529192 0.48784491
0.35644686 -0.58202803 0.49103919
0.33697858 -0.58391476 0.48893362
0.42727059 -0.59494483 0.48939735
0.36113098 -0.59171569 0.4916375
0.34812656 -0.58846676 0.49206758
0.46115226 -0.60015702 0.48997957
0.38821417 -0.6042484 0.49076611
0.38181266 -0.606538 0.49207509
0.3731631 -0.60493153 0.49538961
0.36804894 -0.60005099 0.48859441
0.3593652 -0.60324317 0.49225861
0.34064963 -0.60636115 0.49505785
0.4506304 -0.61449599 0.49288964
0.36853051 -0.61286438 0.49417332
0.34685418 -0.60896742 0.49232721
0.47079235 -0.61813486 0.49533123
0.44635999 -0.62090641 0.49101815
0.37255493 -0.62247175 0.49147052
0.35738656 -0.62294078 0.49407795
0.35342619 -0.62177151 0.49248582
0.39118528 -0.63019896 0.4989211
0.38423935 -0.63013893 0.49756846
0.38167742 -0.63060427 0.49683601
0.35058799 -0.63309658 0.49933389
0.46350324 -0.64326483 0.49487475
0.45048359 -0.64128971 0.49911913
0.36959419 -0.64424258 0.49438748
0.34036827 -0.6368956 0.49736392
0.33541822 -0.64263028 0.49760264
0.3755022 -0.64959973 0.49823684
0.35838875 -0.64809877 0.50217694
0.35401535 -0.64937419 0.49551156
0.34652311 -0.64600265 0.49878728
0.33769721 -0.64981449 0.49825567
0.3350957 -0.65181488 0.50292522
0.46414289 -0.6555661 0.49334028
0.44075555 -0.65760201 0.4946374
0.35723832 -0.65900338 0.50331485
0.35015285 -0.66007179 0.49588996
0.34055677 -0.65740436 0.50284207
0.4674429 -0.66972256 0.50324452
0.45847538 -0.66479796 0.50306684
0.44868267 -0.66389161 0.49739149
0.35912982 -0.66638416 0.50261605
0.35077697 -0.66863322 0.50378656
0.34347865 -0.66464692 0.50293249
0.3395049 -0.66752911 0.50581312
0.37099198 -0.67340976 0.50067389
0.36440787 -0.67895806 0.50139976
0.35815534 -0.67777228 0.49898976
0.34932759 -0.68023002 0.50213945
0.3426913 -0.67940891 0.50433624
0.32566929 -0.67482448 0.50458747
0.47521937 -0.68908525 0.50022805
0.35879105 -0.68615097 0.50543672
0.34335542 -0.68481332 0.50277543
0.33039099 -0.68686235 0.5064193
0.48267591 -0.69322294 0.50275028
0.47063857 -0.69744998 0.50364166
0.36257184 -0.69571787 0.50582665
0.32936388 -0.69866663 0.51098746
0.32814425 -0.69981438 0.50535762
0.3740592 -0.7001881 0.50902772
0.36139563 -0.70535004 0.50767952
0.35280827 -0.70743275 0.51050121
0.34631842 -0.70703739 0.51031274
0.33556515 -0.70167315 0.50292146
0.30254644 -0.70763707 0.51246095
0.47354463 -0.71618575 0.50870097
0.46904176 -0.71401358 0.50784659
0.3598617 -0.71167529 0.50478286
0.33569559 -0.70972186 0.50998259
0.48678163 -0.7193051 0.51061118
0.43978199 -0.58054018 0.47884953
0.40819654 -0.57836026 0.47867438
0.38635597 -0.57248926 0.47930619
0.37658074 -0.57986212 0.47942019
0.36092183 -0.57627577 0.47987604
0.34824753 -0.5758152 0.47535762
0.42440552 -0.58831972 0.47929361
0.4162778 -0.58204371 0.48053744
0.3858107 -0.58153051 0.47903323
0.37848312 -0.58049273 0.483742
0.3716453 -0.58232927 0.47757286
0.45460552 -0.59120625 0.48105937
0.44242451 -0.5948863 0.4828473
0.39943883 -0.59453285 0.47718883
0.3844007 -0.59499788 0.47977388
0.46521401 -0.60468942 0.4855094
0.44067824 -0.6020782 0.47945422
0.43210256 -0.60481614 0.47760701
0.40072581 -0.6012823 0.47985888
0.37961945 -0.60052884 0.47996363
0.37546086 -0.60673648 0.48485976
0.36878529 -0.59981668 0.47898918
0.35901475 -0.60674483 0.48367709
0.34387526 -0.60259938 0.48445037
0.4463391 -0.61849535 0.48084724
0.42286399 -0.60931975 0.48103237
0.3939437 -0.61376107 0.48036298
0.37999937 -0.60885584 0.48206505
0.35814726 -0.61573792 0.48551008
0.352745 -0.61653084 0.48306859
0.41046795 -0.62486589 0.48179764
0.39622211 -0.62371635 0.48456779
0.38793784 -0.62380588 0.48603255
0.37126589 -0.61882073 0.48598689
0.36664638 -0.62034959 0.48713934
0.36227793 -0.62378675 0.48335272
0.34289348 -0.62011439 0.48280644
0.4602609 -0.62891304 0.48499259
0.44671384 -0.63071257 0.48208478
0.43546945 -0.63098836 0.48571169
0.39607272 -0.62773508 0.48931682
0.3833493 -0.63455606 0.49008495
0.3732053 -0.62911326 0.48900297
0.3649331 -0.63232732 0.49071836
0.35053471 -0.63313925 0.489234
0.43079937 -0.64641798 0.48439226
0.38311765 -0.64221036 0.49222869
0.36563632 -0.64289641 0.4864386
0.35711011 -0.64272553 0.48940903
0.35385334 -0.63985771 0.49192128
0.3464773 -0.64101058 0.48969191
0.47741851 -0.65193403 0.48304471
0.38811925 -0.64660859 0.48723763
0.38025755 -0.64765358 0.48414102
0.37293655 -0.65052962 0.49072474
0.36797211 -0.64707458 0.49244455
0.36064857 -0.65269697 0.48606241
0.35242325 -0.64784694 0.48674595
0.34200448 -0.6484077 0.48954546
0.47141975 -0.66172934 0.49178237
0.46487638 -0.66294008 0.49261388
0.45061013 -0.65651524 0.49000835
0.44690198 -0.66090876 0.48822904
0.36880228 -0.65496159 0.4911063
0.35242921 -0.66164589 0.49084789
0.33971545 -0.65916926 0.49519569
0.4381175 -0.67229837 0.48678416
0.38404185 -0.66983962 0.49055332
0.37356299 -0.66592026 0.4901818
0.35778046 -0.66898322 0.48988777
0.35155085 -0.66657376 0.49271435
0.34582764 -0.67045945 0.4952457
0.33737418 -0.66578031 0.49048477
0.45532987 -0.68163323 0.49108034
0.44843572 -0.67589813 0.49112579
0.3733758 -0.67718029 0.49750239
0.34265974 -0.68019414 0.49434832
0.33873805 -0.68167591 0.49456775
0.35667551 -0.68589371 0.49694437
0.35455468 -0.69121432 0.49859166
0.34643444 -0.68306923 0.49600583
0.34113237 -0.68937671 0.49674442
0.37529609 -0.6927014 0.49473405
0.34616506 -0.69730502 0.49725783
0.33970809 -0.69577265 0.49314904
0.44869852 -0.70717913 0.49458334
0.35742077 -0.70184219 0.50030738
0.35542211 -0.70379138 0.49697417
0.34184402 -0.70716125 0.50224209
0.44365209 -0.71245891 0.49321106
0.40224105 -0.57141095 0.4646886
0.39432493 -0.57108921 0.46737999
0.38317934 -0.57059419 0.46903136
0.36515689 -0.56617367 0.4709098
0.42037115 -0.57825375 0.46817887
0.40676376 -0.57600331 0.46774852
0.39464071 -0.57431442 0.4693343
0.39002588 -0.57713193 0.47229201
0.37422407 -0.57586068 0.46998093
0.36652362 -0.57776403 0.47344315
0.41954729 -0.58434212 0.46561819
0.40554249 -0.58515275 0.47129774
0.39306399 -0.58168149 0.47357574
0.38774884 -0.58827114 0.46908161
0.37670961 -0.58358246 0.47419262
0.37580639 -0.59028363 0.4723264
0.36313206 -0.58982313 0.46780798
0.45507348 -0.59920895 0.47193503
0.44524604 -0.59565437 0.46645606
0.44216815 -0.59273392 0.47297543
0.43741193 -0.59681803 0.46665579
0.42756414 -0.59848988 0.46934113
0.41231835 -0.59827495 0.47078896
0.4060849 -0.59620869 0.46988469
0.40015298 -0.59828293 0.47410625
0.39314115 -0.59705293 0.47298801
0.38335866 -0.59769422 0.47585988
0.3794134 -0.59373122 0.47096807
0.37644351 -0.59700292 0.47598237
0.36865628 -0.59893429 0.47658098
0.36011684 -0.59549463 0.4723765
0.45434615 -0.60794711 0.46807158
0.43924555 -0.60940051 0.47114441
0.42058012 -0.60335875 0.47108927
0.36328426 -0.60183889 0.46947786
0.35847828 -0.59990352 0.47649249
0.45656985 -0.6199435 0.47180539
0.39031222 -0.61615831 0.47516659
0.37785232 -0.61431944 0.47159469
0.37533811 -0.61608011 0.47289091
0.36562416 -0.61465466 0.47696713
0.3628611 -0.61687398 0.47967273
0.33962402 -0.61673194 0.47683322
0.44131497 -0.62162578 0.47396672
0.42670968 -0.62378192 0.47581062
0.41845742 -0.62369472 0.47266749
0.39672303 -0.62227106 0.47765365
0.39114556 -0.62108123 0.47338378
0.37686437 -0.62188655 0.47191155
0.36303276 -0.62028682 0.48016721
0.36088085 -0.62008226 0.47859931
0.35256854 -0.62018007 0.47629586
0.42382506 -0.62889153 0.47997916
0.39491323 -0.6305142 0.47787637
0.37595916 -0.63744193 0.47323647
0.36695322 -0.63288903 0.47780028
0.35676834 -0.63186514 0.4807902
0.35275263 -0.63205171 0.47865921
0.40073639 -0.64361751 0.47623849
0.39465278 -0.64478433 0.47662181
0.38714054 -0.63900608 0.47625414
0.38091207 -0.64353442 0.4824093
0.37197208 -0.63947505 0.4788616
0.36817294 -0.64586139 0.48217452
0.35237336 -0.64150184 0.48243535
0.44468862 -0.64907062 0.48279712
0.38036612 -0.65091985 0.47889778
0.36779115 -0.65120018 0.48104963
0.35605413 -0.65145868 0.48400587
0.35194975 -0.6484136 0.47617948
0.38285604 -0.65909708 0.47912771
0.36546099 -0.65959966 0.48484743
0.36045423 -0.66046011 0.47934133
0.35406974 -0.65899789 0.4778232
0.46171135 -0.67226619 0.48083019
0.44666082 -0.6728673 0.47911319
0.44252351 -0.67405349 0.47810152
0.39709175 -0.6662693 0.48043278
0.3769367 -0.66907412 0.48169696
0.3713069 -0.66947114 0.48578984
0.36581907 -0.67132533 0.47991914
0.35328537 -0.67264682 0.48450658
0.44491678 -0.6804058 0.48628655
0.3668144 -0.68173397 0.48311883
0.35283959 -0.67956084 0.48200583
0.34856284 -0.68361491 0.48334104
0.35807762 -0.68732983 0.48103508
0.35391364 -0.68767017 0.48244029
0.34581459 -0.69285911 0.48288354
0.44506249 -0.69976199 0.48669043
0.37332353 -0.69377756 0.48431885
0.36707315 -0.69652128 0.4880791
0.35831499 -0.6967966 0.49045327
0.34209186 -0.6975053 0.4882251
0.44748437 -0.71001756 0.48686457
0.37124079 -0.70648295 0.4895153
0.36892653 -0.70847994 0.49217302
0.38277861 -0.56044865 0.45330167
0.37154639 -0.56209338 0.45652241
0.42597634 -0.5702762 0.46045703
0.4137311 -0.56986797 0.4601419
0.40178585 -0.5720579 0.45805514
0.38655832 -0.57183886 0.45982695
0.37942117 -0.56795168 0.45786402
0.43451822 -0.58290112 0.46257171
0.42130607 -0.57571 0.46207684
0.36090556 -0.58030623 0.46329266
0.4186781 -0.59099156 0.45663112
0.40078074 -0.59004968 0.4614276
0.39159632 -0.58780098 0.46051604
0.38965112 -0.58811522 0.45878476
0.38121706 -0.58801597 0.46319145
0.37400001 -0.5834977 0.46265987
0.35045782 -0.58936262 0.46328956
0.46946874 -0.59633982 0.46441585
0.45261046 -0.59378535 0.4636431
0.43777478 -0.59436238 0.46509284
0.4205943 -0.59507096 0.46573269
0.38738611 -0.59505665 0.46459341
0.45751119 -0.60740292 0.45934772
0.43528458 -0.60911548 0.46099356
0.42893738 -0.61046022 0.45951805
0.42102411 -0.60606694 0.46464646
0.37993312 -0.60512471 0.46420234
0.37581721 -0.6106087 0.46353909
0.43925837 -0.61912745 0.46675923
0.41970617 -0.61614996 0.4658342
0.40724835 -0.6127789 0.46540064
0.39878353 -0.61463088 0.46476218
0.37247622 -0.61530864 0.46540534
0.35420227 -0.61167771 0.46916807
0.40647706 -0.62647247 0.46566781
0.37353966 -0.62838781 0.46340817
0.44698507 -0.63453835 0.46783185
0.41405082 -0.63806963 0.46430254
0.39517802 -0.6345439 0.46603471
0.3817099 -0.63916796 0.4661563
0.37123677 -0.63131887 0.46342438
0.36409867 -0.63842082 0.47086421
0.36183327 -0.63035071 0.46650898
0.41962659 -0.6444912 0.47028846
0.40904802 -0.64191508 0.46910262
0.39289099 -0.64343613 0.4695316
0.38819221 -0.64113337 0.47166383
0.38053066 -0.64277548 0.4673059
0.37469968 -0.64169353 0.46747816
0.41576841 -0.65301543 0.46569535
0.37504399 -0.65278119 0.47021431
0.36747664 -0.65453875 0.47234017
0.44545218 -0.66358328 0.46849489
0.3850731 -0.66447449 0.47497368
0.36379462 -0.66274029 0.47457665
0.35425854 -0.66259748 0.47415808
0.47498694 -0.66863418 0.47053462
0.36450806 -0.67008275 0.47252631
0.36038667 -0.67522442 0.47359213
0.44424123 -0.68092692 0.47637531
0.44600415 -0.69259822 0.4786157
0.4336127 -0.68699366 0.47823277
0.37935022 -0.68709195 0.47463027
0.37160432 -0.68833387 0.47186357
0.36771929 -0.6864298 0.48008448
0.3486186 -0.69333738 0.47352874
0.45984715 -0.70303166 0.48084599
0.45218435 -0.69846845 0.47909382
0.36179802 -0.70037585 0.47374094
0.38553765 -0.56487077 0.45187747
0.44520727 -0.56773204 0.44611973
0.43249467 -0.57316953 0.44701016
0.4223879 -0.57392681 0.44693103
0.39447686 -0.56850791 0.44550791
