# .PCD v0.7 - Point Cloud Data file format
VERSION 0.7
FIELDS x y z
SIZE 4 4 4
TYPE F F F
COUNT 1 1 1
WIDTH 223
HEIGHT 1
VIEWPOINT 0 0 0 1 0 0 0
POINTS 223
DATA ascii
-0.52519959 -0.21175809 0.31768334
-0.54459369 -0.21151119 0.31841609
-0.55779433 -0.21653396 0.31647074
-0.54912931 -0.2116586 0.30438414
-0.56319362 -0.213754 0.29916814
-0.54037613 -0.20607176 0.29241824
-0.55819571 -0.20768003 0.29100224
-0.56043929 -0.20498803 0.2913703
-0.57437181 -0.20569399 0.28831083
-0.53514677 -0.20387462 0.28471294
-0.54933172 -0.20540297 0.28510308
-0.56453824 -0.20547427 0.28311437
-0.56956142 -0.20816651 0.28614435
-0.59065527 -0.20912543 0.27896115
-0.60133004 -0.21082906 0.28332245
-0.61427277 -0.20436332 0.27849469
-0.55395317 -0.20239054 0.27018988
-0.57072711 -0.20242682 0.26927003
-0.57813972 -0.20324606 0.27228341
-0.58272839 -0.20136699 0.27391067
-0.58890635 -0.20230664 0.270735
-0.59294826 -0.20078784 0.27384526
-0.58515441 -0.20534785 0.27216676
-0.58592707 -0.20861925 0.2746906
-0.60068518 -0.19663821 0.25899491
-0.69060552 -0.19617732 0.25961754
-0.70694619 -0.19257732 0.26051944
-0.56178272 -0.19997227 0.26122829
-0.5764367 -0.20235829 0.26359957
-0.58341014 -0.19723748 0.26258028
-0.59161818 -0.20361556 0.26130894
-0.5966019 -0.1987011 0.26125696
-0.60242522 -0.20580593 0.26192522
-0.61259985 -0.19764315 0.25957927
-0.62112308 -0.20145187 0.2612519
-0.70658618 -0.19774774 0.26026201
-0.62293673 -0.20811497 0.26512992
-0.63237673 -0.20712391 0.26331574
-0.56314093 -0.19754232 0.25452062
-0.57639134 -0.19804601 0.25242481
-0.59704202 -0.19533089 0.25152737
-0.60170704 -0.19420348 0.24754164
-0.6135028 -0.19489108 0.24954283
-0.6252985 -0.19557868 0.251544
-0.70386726 -0.19537324 0.25018883
-0.72038752 -0.19324537 0.25789088
-0.56905693 -0.20154852 0.2570684
-0.57782346 -0.19954845 0.25580129
-0.58512121 -0.2000702 0.24806863
-0.58975381 -0.19942804 0.25074273
-0.5951851 -0.20173168 0.2524139
-0.59946054 -0.2019691 0.2529422
-0.6091426 -0.20099927 0.25449899
-0.62113148 -0.20147073 0.25158757
-0.6421687 -0.19957122 0.25273514
-0.6546542 -0.20022669 0.25003749
-0.63862544 -0.19003649 0.23808554
-0.56619972 -0.19799709 0.24695317
-0.57751644 -0.19853255 0.24602652
-0.58546436 -0.1966856 0.24308117
-0.60043645 -0.19872057 0.2443504
-0.60972303 -0.19409108 0.24613796
-0.62097365 -0.19413039 0.24421594
-0.62990075 -0.19507895 0.24588965
-0.63356632 -0.19127524 0.23826206
-0.65042681 -0.19040139 0.24011418
-0.66222817 -0.19076629 0.24214283
-0.66955334 -0.19424951 0.24245584
-0.68043357 -0.19400723 0.24621324
-0.60949385 -0.2025394 0.2485123
-0.62901938 -0.2036294 0.24328807
-0.64224136 -0.20225868 0.24292919
-0.69036949 -0.18717025 0.2327437
-0.57312274 -0.19479783 0.23381647
-0.59122425 -0.19450848 0.23146108
-0.59527683 -0.1964148 0.23644
-0.60044765 -0.19729927 0.23670977
-0.60705292 -0.19590698 0.23148796
-0.62335289 -0.19787058 0.23270816
-0.63214052 -0.19142246 0.23161685
-0.63606751 -0.19187112 0.2337019
-0.65110528 -0.19146878 0.23158658
-0.65895373 -0.19664691 0.23539756
-0.66329974 -0.19475102 0.23358099
-0.60779899 -0.20534588 0.23394313
-0.60328811 -0.18803835 0.22088987
-0.62487566 -0.19161937 0.22214115
-0.63671756 -0.19207993 0.22329834
-0.64297885 -0.18761604 0.22327
-0.65567458 -0.18699896 0.22606811
-0.67561871 -0.18582027 0.21907279
-0.6825031 -0.18467306 0.22090611
-0.70361269 -0.18909873 0.22911263
-0.60080004 -0.19340153 0.22213726
-0.60889834 -0.19451545 0.2213428
-0.61441314 -0.19475657 0.22022261
-0.63110149 -0.19496733 0.21980856
-0.63855487 -0.19750813 0.22200567
-0.64366215 -0.19223666 0.22779703
-0.64855945 -0.19254048 0.22445552
-0.66040134 -0.19300105 0.22561271
-0.67224324 -0.19346157 0.22676992
-0.67830998 -0.19145432 0.22822753
-0.61291528 -0.19285248 0.21785754
-0.62189782 -0.19279671 0.2168093
-0.6700021 -0.18847317 0.21795836
-0.68390495 -0.18862188 0.21723616
-0.70503473 -0.19142796 0.21967661
-0.70754594 -0.18534489 0.21418427
-0.62825447 -0.19615178 0.21834221
-0.64222401 -0.19753194 0.21633816
-0.60991412 -0.18497196 0.20699307
-0.68222219 -0.18328044 0.20509769
-0.69557953 -0.18187901 0.20386885
-0.61591774 -0.19127166 0.20802322
-0.61985552 -0.18972865 0.20428023
-0.63489544 -0.19116342 0.20403363
-0.64792556 -0.19342664 0.2061644
-0.61654013 -0.18190558 0.19309627
-0.64654779 -0.18477516 0.19110614
-0.68394578 -0.18059188 0.18991765
-0.70148325 -0.18060489 0.19188848
-0.63121426 -0.1871888 0.19311312
-0.65279162 -0.19092903 0.19499072
-0.62316608 -0.17883921 0.17919946
-0.63890868 -0.18430586 0.18030381
-0.6976862 -0.18160805 0.18614128
-0.7006042 -0.17853987 0.17092529
-0.7089963 -0.17706017 0.18002155
-0.66499454 -0.18664899 0.17789876
-0.67749679 -0.18449612 0.1751179
-0.68900257 -0.18289852 0.17368725
-0.68093622 -0.18135971 0.16014764
-0.6947034 -0.17166786 0.14546512
-0.71110702 -0.17447931 0.14253274
-0.67759341 -0.1775478 0.14241114
-0.68467253 -0.17767879 0.14594196
-0.6902653 -0.17564373 0.14716664
-0.69765949 -0.17569067 0.14421016
-0.6734286 -0.17233527 0.13472861
-0.69261152 -0.17240772 0.13199237
-0.67311072 -0.17314054 0.12779561
-0.73790133 -0.1587726 0.11300196
-0.68888378 -0.16488722 0.12034165
-0.69334954 -0.16800845 0.11827821
-0.7005012 -0.16557169 0.11523274
-0.69504654 -0.17018451 0.11646858
-0.68324769 -0.16864017 0.10664105
-0.68597215 -0.16656178 0.10499389
-0.70035076 -0.16582087 0.10364602
-0.7122764 -0.16626705 0.11006129
-0.7218281 -0.16408415 0.10730621
-0.68915057 -0.16045345 0.092759609
-0.708713 -0.15686455 0.096634671
-0.72948879 -0.15744634 0.096657574
-0.74045563 -0.15822917 0.097853661
-0.7487849 -0.15494804 0.099211201
-0.68806356 -0.16438547 0.10134301
-0.70201004 -0.16495904 0.095247507
-0.69460356 -0.16263433 0.087675832
-0.70079941 -0.16177429 0.087733947
-0.70629901 -0.15947555 0.085000366
-0.71497321 -0.16127501 0.08525604
-0.73525053 -0.15396333 0.074167773
-0.75366968 -0.15344191 0.075216115
-0.6823175 -0.16161409 0.082084499
-0.70038676 -0.16056886 0.078090183
-0.70840603 -0.15418351 0.06550575
-0.76046687 -0.14978801 0.064219914
-0.73549771 -0.14773923 0.059305862
-0.77021545 -0.14598563 0.061321836
-0.69445038 -0.1565582 0.061801299
-0.70784223 -0.15607297 0.058465309
-0.71209687 -0.15337938 0.054767992
-0.7415486 -0.15100597 0.060834657
-0.71408665 -0.14698827 0.047682405
-0.73647845 -0.14421472 0.044365332
-0.71083999 -0.15393084 0.047721099
-0.71499574 -0.15033132 0.039651807
-0.72664809 -0.14661042 0.040709686
-0.74734998 -0.14722754 0.04093121
-0.76761448 -0.14590076 0.038628332
-0.7394045 -0.14055112 0.029507518
-0.75254297 -0.13929464 0.025281109
-0.72221655 -0.1478329 0.031293042
-0.72590572 -0.1401092 0.018572468
-0.74069339 -0.1411251 0.015207469
-0.75025803 -0.14055172 0.022978671
-0.76382905 -0.13914086 0.022365563
-0.73226231 -0.13644305 0.010239389
-0.75233632 -0.14090493 0.00693506
-0.73572463 -0.13328579 -0.004830379
-0.74987102 -0.13336384 -0.0038881339
-0.75739211 -0.13737205 -0.00067451969
-0.77717566 -0.13197196 0.00096911564
-0.78057361 -0.13421953 0.0035961997
-0.74637145 -0.13802738 0.00050380453
-0.78177345 -0.12888178 -0.012497324
-0.75418985 -0.13331755 -0.0070106685
-0.76157689 -0.13372558 -0.010413103
-0.76522118 -0.13327636 -0.01380603
-0.76529294 -0.12823336 -0.018239178
-0.75772727 -0.13183194 -0.028903518
-0.77962762 -0.12840936 -0.027155796
-0.77961582 -0.1237895 -0.03923972
-0.76639473 -0.12708066 -0.041572571
-0.80770528 -0.12353927 -0.034814961
-0.77057427 -0.12230684 -0.049945548
-0.78766525 -0.12145031 -0.044716645
-0.79129279 -0.123564 -0.046015959
-0.80109006 -0.12136716 -0.04991354
-0.76880378 -0.1237582 -0.057152316
-0.78305835 -0.12272456 -0.056334507
-0.8050772 -0.11756209 -0.06504555
-0.79568708 -0.11560194 -0.076779157
-0.80906421 -0.11375703 -0.08017756
-0.83466953 -0.11024098 -0.087782986
-0.85028487 -0.11070389 -0.083861016
-0.80748564 -0.1152956 -0.083907068
-0.80969739 -0.11128812 -0.099390954
-0.81305128 -0.10995196 -0.095309556
-0.81938469 -0.10856061 -0.10855365
-0.8371619 -0.10680355 -0.10390174
