# .PCD v0.7 - Point Cloud Data file format
VERSION 0.7
FIELDS x y z
SIZE 4 4 4
TYPE F F F
COUNT 1 1 1
WIDTH 233
HEIGHT 1
VIEWPOINT 0 0 0 1 0 0 0
POINTS 233
DATA ascii
-0.76076853 0.27328339 -2.4141116
-0.77313328 0.27537274 -2.4106939
-0.78185868 0.27223384 -2.4138901
-0.80216795 0.27092725 -2.4148366
-0.80913758 0.2725769 -2.4121687
-0.81647807 0.27342683 -2.4152079
-0.78118491 0.28102544 -2.4256871
-0.78977042 0.27894893 -2.4216342
-0.80755508 0.28128773 -2.4240434
-0.79042661 0.27270836 -2.4225235
-0.79324466 0.27246174 -2.4257848
-0.78919119 0.28166413 -2.4323771
-0.79637009 0.28359929 -2.432482
-0.81026977 0.28480113 -2.4327209
-0.76848638 0.27615854 -2.4310462
-0.77770907 0.27515057 -2.4332733
-0.80264086 0.27441835 -2.4304342
-0.80749476 0.27465737 -2.4310305
-0.79274684 0.2861363 -2.440167
-0.76835084 0.27786344 -2.4419975
-0.77944845 0.28184956 -2.4402583
-0.78636044 0.27960491 -2.4421358
-0.80035353 0.28329718 -2.4431441
-0.74770796 0.28348985 -2.4536123
-0.75550622 0.28568318 -2.4526262
-0.76370704 0.28553697 -2.4525216
-0.79501486 0.28402826 -2.4521205
-0.76680911 0.28162634 -2.4491682
-0.7824648 0.2793113 -2.4505544
-0.79723573 0.27755323 -2.4479079
-0.74224997 0.28560469 -2.4642463
-0.7532385 0.288311 -2.4647655
-0.76015681 0.2824097 -2.4609759
-0.77442002 0.29022342 -2.4597478
-0.78474927 0.28767404 -2.4601784
-0.77515912 0.28194255 -2.4570293
-0.73389643 0.29342693 -2.4735899
-0.76301837 0.29200125 -2.4735274
-0.7414614 0.28691086 -2.4720562
-0.7787627 0.28936028 -2.4685977
-0.7671445 0.29822558 -2.4877925
-0.71889007 0.29379916 -2.4808989
-0.73490906 0.28890502 -2.4799333
-0.74827015 0.29198208 -2.481379
-0.74944127 0.28747389 -2.4782653
-0.71227169 0.30113766 -2.4974108
-0.72553158 0.2989876 -2.4910681
-0.7542879 0.30023414 -2.494586
-0.70902818 0.2944169 -2.4890113
-0.72756821 0.29220536 -2.49562
-0.73328447 0.29163495 -2.492296
-0.73826742 0.29097402 -2.4915102
-0.6815297 0.29786447 -2.5024414
-0.69825578 0.30263603 -2.5047753
-0.71490872 0.30031705 -2.5054092
-0.72848046 0.29877156 -2.5001113
-0.73915917 0.29917735 -2.501966
-0.75056076 0.2914674 -2.5056505
-0.69545484 0.30384949 -2.5132308
-0.71449757 0.3048963 -2.5127022
-0.71957403 0.30691367 -2.5133719
-0.73763043 0.30430165 -2.5160339
-0.69330794 0.30219144 -2.5095928
-0.70346785 0.29967183 -2.5124116
-0.73270905 0.29938564 -2.5092583
-0.70286185 0.30826828 -2.5217607
-0.70671177 0.30658677 -2.5235195
-0.71519929 0.30834055 -2.5247009
-0.72401023 0.30759743 -2.5218723
-0.73571444 0.30551988 -2.5261705
-0.74638742 0.3044959 -2.5187354
-0.71076071 0.29765368 -2.5176687
-0.74201208 0.29553428 -2.519737
-0.70329106 0.3133139 -2.5348916
-0.7188707 0.31432357 -2.5356472
-0.67490333 0.30855983 -2.5335081
-0.68817598 0.30968446 -2.5304465
-0.69129246 0.30924752 -2.532671
-0.69917417 0.30930111 -2.5302219
-0.70809972 0.30084461 -2.5336382
-0.71009064 0.30391303 -2.5312288
-0.72091746 0.30623621 -2.5359066
-0.72901487 0.30781183 -2.5303872
-0.65203935 0.31106523 -2.5449173
-0.68663907 0.31143862 -2.5429657
-0.69239974 0.31457299 -2.5457039
-0.69899195 0.3143155 -2.5428071
-0.70517784 0.31405509 -2.5441539
-0.71442723 0.31268385 -2.538496
-0.69613206 0.3041738 -2.5396101
-0.69848132 0.30485189 -2.5423515
-0.70722902 0.30508187 -2.5432234
-0.71803308 0.3058072 -2.5382066
-0.69550431 0.31885087 -2.5580406
-0.69960022 0.31657848 -2.5511079
-0.67272002 0.31069902 -2.5513678
-0.68578154 0.31206214 -2.5545623
-0.69445825 0.31553999 -2.548928
-0.70740247 0.30789816 -2.5490468
-0.67301601 0.31468949 -2.5672379
-0.68097639 0.31558824 -2.5622993
-0.68566489 0.3192839 -2.5651071
-0.69369572 0.3180725 -2.5596287
-0.70045364 0.31796822 -2.5609896
-0.6434325 0.3136642 -2.5648079
-0.65964305 0.31034896 -2.5612795
-0.67011195 0.31382647 -2.5670195
-0.68490285 0.31169951 -2.559485
-0.69922698 0.31135282 -2.5615973
-0.70620275 0.30768597 -2.5631392
-0.71989268 0.31066239 -2.565397
-0.6703124 0.3179507 -2.5699317
-0.68062276 0.31954288 -2.572408
-0.6864326 0.31862906 -2.5725334
-0.6907531 0.31497395 -2.5721178
-0.69685721 0.31881538 -2.5718114
-0.68501902 0.30986252 -2.5720117
-0.71201169 0.30837232 -2.5754793
-0.6653623 0.3227464 -2.5800099
-0.67792177 0.32518235 -2.5844812
-0.66750389 0.31695402 -2.5826714
-0.67998695 0.31436437 -2.583931
-0.6983245 0.31079891 -2.5838587
-0.66613901 0.32949513 -2.5940852
-0.64058357 0.32804373 -2.5971372
-0.65405506 0.32771668 -2.592983
-0.66638637 0.32728276 -2.594161
-0.67021787 0.32609153 -2.5911567
-0.68030423 0.32537028 -2.5934482
-0.69676673 0.32002044 -2.5933254
-0.65400469 0.3186537 -2.5965168
-0.66704106 0.31683412 -2.5945444
-0.68156791 0.31976378 -2.5901067
-0.67205685 0.33164319 -2.6011865
-0.65739357 0.32371536 -2.6033289
-0.66489577 0.32008141 -2.5983231
-0.67308372 0.3238 -2.6040871
-0.67587286 0.32648671 -2.5984771
-0.68292111 0.31954834 -2.6032257
-0.68367863 0.31785318 -2.5979133
-0.71340299 0.31712532 -2.6017196
-0.64477289 0.33187175 -2.6128631
-0.66249907 0.33271459 -2.6100776
-0.67080498 0.33029678 -2.6145866
-0.67732185 0.3288734 -2.6165054
-0.65695322 0.32196134 -2.6117446
-0.66228765 0.32320899 -2.6139748
-0.67328578 0.32073861 -2.6116052
-0.7017507 0.31860787 -2.6103551
-0.66411537 0.3380332 -2.6230395
-0.61789054 0.33125517 -2.6212304
-0.62242192 0.33226722 -2.621567
-0.63199615 0.33075511 -2.6193991
-0.65085143 0.32632473 -2.6192904
-0.65717709 0.33216557 -2.6187282
-0.66389716 0.33431718 -2.6197569
-0.67071718 0.32891041 -2.6248517
-0.63493752 0.32435569 -2.625133
-0.67928344 0.31917533 -2.6206982
-0.69146556 0.32351357 -2.620074
-0.65154719 0.33547011 -2.6345949
-0.65904188 0.33745262 -2.6340744
-0.67008239 0.33768338 -2.628736
-0.6073302 0.32907942 -2.6320729
-0.62128854 0.32865068 -2.6296263
-0.6488449 0.32843176 -2.6322815
-0.65611535 0.33187243 -2.6320474
-0.66529721 0.32614338 -2.6337082
-0.66870636 0.33238369 -2.6308582
-0.67854404 0.32591781 -2.6282153
-0.68248588 0.32863471 -2.633492
-0.59484237 0.33452338 -2.6457574
-0.60906214 0.3340193 -2.6439114
-0.63253611 0.33808571 -2.6446261
-0.64023882 0.3385765 -2.6400254
-0.64833939 0.33906338 -2.6448667
-0.657655 0.33752379 -2.6436369
-0.65498579 0.32993916 -2.6451063
-0.6704399 0.33041283 -2.641233
-0.66414672 0.34139201 -2.6558774
-0.59748697 0.33410707 -2.6514068
-0.63977927 0.33313069 -2.6526389
-0.64145094 0.33857381 -2.6498446
-0.66035581 0.33897075 -2.6541886
-0.66533482 0.33208558 -2.6513896
-0.67405772 0.33752269 -2.6483622
-0.58828253 0.33801013 -2.6641073
-0.63606894 0.34411761 -2.6639094
-0.65152729 0.34088868 -2.6588094
-0.65755236 0.34292573 -2.6621726
-0.61523998 0.3346706 -2.6588588
-0.62685782 0.33553502 -2.6607797
-0.63355887 0.33407322 -2.659255
-0.6430788 0.33564526 -2.6659355
-0.65068018 0.33129811 -2.6587265
-0.65701073 0.33356923 -2.6617475
-0.58576274 0.33734059 -2.668859
-0.61647272 0.34171677 -2.6726105
-0.62377584 0.3417331 -2.6728888
-0.62994266 0.34477648 -2.6719677
-0.63781768 0.346075 -2.6714144
-0.64383262 0.34209406 -2.6728024
-0.6479581 0.3429316 -2.6743672
-0.65797615 0.3419278 -2.6711287
-0.61021727 0.33568841 -2.6736035
-0.65326834 0.33478355 -2.6734853
-0.66540509 0.33299211 -2.6656859
-0.62741804 0.34855479 -2.686729
-0.64312351 0.34987465 -2.6832063
-0.65815306 0.34818915 -2.6810699
-0.58317399 0.33976611 -2.6821268
-0.59262437 0.3434208 -2.6843102
-0.60885823 0.34227228 -2.6792169
-0.62905979 0.3403205 -2.6828229
-0.63402277 0.3428967 -2.6825607
-0.64113158 0.33657506 -2.6812849
-0.6510511 0.34272259 -2.6799071
-0.65480566 0.34204975 -2.6783216
-0.65985107 0.33530942 -2.6783149
-0.6019482 0.34626296 -2.6900849
-0.62979996 0.34688643 -2.6918116
-0.64090973 0.3525514 -2.6957693
-0.65477169 0.34900087 -2.6921611
-0.63399708 0.33953798 -2.6947329
-0.59637779 0.34762564 -2.7013447
-0.66049659 0.34523827 -2.6993709
-0.60793889 0.34160796 -2.696538
-0.62107015 0.3416521 -2.7029421
-0.58438945 0.34631237 -2.7091994
-0.65429473 0.33858773 -2.7057159
-0.59458202 0.35136721 -2.7179124
-0.59521621 0.3458806 -2.7193608
-0.58944392 0.34966812 -2.7317548
