# .PCD v0.7 - Point Cloud Data file format
VERSION 0.7
FIELDS x y z
SIZE 4 4 4
TYPE F F F
COUNT 1 1 1
WIDTH 1310
HEIGHT 1
VIEWPOINT 0 0 0 1 0 0 0
POINTS 1310
DATA ascii
-0.97603846 -0.15254091 -0.18305327
-0.93843788 -0.15847561 -0.18422908
-0.94689417 -0.15909742 -0.18759809
-0.96698499 -0.15474033 -0.18473008
-0.94564366 -0.15733886 -0.18988067
-0.95442265 -0.15582642 -0.19376618
-0.94835877 -0.15040094 -0.20575707
-0.95571858 -0.15098408 -0.2077623
-0.9626466 -0.14676595 -0.21091972
-0.95189285 -0.15242743 -0.213162
-0.95835274 -0.15034632 -0.21661946
-0.97017521 -0.15369974 -0.21605651
-0.96380371 -0.14323443 -0.22541714
-0.97966188 -0.14119992 -0.22370437
-0.92524624 -0.14794552 -0.22924341
-0.93922776 -0.1458215 -0.23262945
-0.95975626 -0.14364648 -0.23640513
-0.97771978 -0.15021327 -0.23037264
-0.96888351 -0.13870519 -0.24235448
-0.97581249 -0.13994949 -0.24379075
-0.94732916 -0.14755198 -0.24386731
-0.96234727 -0.15012175 -0.24271095
-0.9418658 -0.14218296 -0.24969131
-0.94688755 -0.13689795 -0.25587493
-0.95340526 -0.13747394 -0.25234675
-0.96549898 -0.13561428 -0.25165877
-0.975187 -0.13930878 -0.25641641
-1.0072043 -0.13952172 -0.25190017
-0.95928407 -0.14546645 -0.25049788
-0.95535302 -0.13301936 -0.26637596
-0.97181439 -0.13372675 -0.26563206
-0.98271495 -0.12924029 -0.26196587
-0.98521078 -0.12906222 -0.26190233
-0.99549913 -0.1286884 -0.26557022
-0.93307316 -0.1406434 -0.26187772
-0.94279003 -0.14374898 -0.26451072
-0.94450402 -0.13854443 -0.26675317
-0.95915878 -0.13891621 -0.2661258
-1.0006894 -0.14396206 -0.26525906
-0.95043415 -0.1453411 -0.25695965
-0.96719998 -0.14626743 -0.26370445
-1.0487357 -0.11582215 -0.27411327
-1.0590242 -0.11544834 -0.27778113
-0.97653109 -0.12657578 -0.27294517
-1.0263647 -0.12756696 -0.27657384
-0.94707686 -0.13416871 -0.27303454
-0.95609719 -0.13655743 -0.27445751
-0.9571808 -0.13100277 -0.27129468
-0.96937066 -0.12936807 -0.27188611
-0.98278409 -0.13218701 -0.27137446
-1.0057876 -0.12831458 -0.26923808
-1.0160761 -0.12794077 -0.27290598
-0.96091664 -0.14512536 -0.26845104
-0.97084886 -0.14316201 -0.26773918
-0.98007661 -0.14178142 -0.27103931
-1.0110408 -0.14358595 -0.26894936
-0.97824764 -0.1466952 -0.26649085
-0.95565057 -0.12515014 -0.28745934
-0.97228813 -0.12862062 -0.28387722
-0.99064261 -0.12669604 -0.27823475
-1.0013206 -0.12930766 -0.28657287
-1.0128106 -0.12146977 -0.27901626
-1.036653 -0.12719315 -0.2802417
-1.0469414 -0.12681934 -0.28390962
-0.93807173 -0.13003965 -0.28119785
-0.96081209 -0.13388143 -0.28237924
-0.96659899 -0.13702948 -0.2790235
-0.97654939 -0.13581435 -0.2817488
-0.97974992 -0.12901923 -0.28154746
-0.98803896 -0.13630025 -0.28352603
-1.0000939 -0.13429031 -0.27871126
-1.0646026 -0.13064107 -0.27754462
-0.93958879 -0.14029357 -0.28009871
-0.96160716 -0.14270252 -0.28501651
-0.96687245 -0.14357479 -0.27950785
-0.9724111 -0.14060903 -0.28240523
-1.0142819 -0.13893798 -0.28270233
-0.94816518 -0.12825632 -0.28998214
-0.95937186 -0.12697136 -0.28800696
-0.97497177 -0.12655781 -0.29025429
-0.98127431 -0.12262646 -0.28909627
-0.9868753 -0.12572172 -0.2964918
-0.99805003 -0.12336186 -0.29272625
-0.96296287 -0.13218285 -0.29458344
-0.97484863 -0.13488543 -0.29321826
-0.97753191 -0.13268653 -0.29478616
-0.98667854 -0.14185393 -0.28661308
-0.94552344 -0.12170976 -0.3057346
-0.97354984 -0.12218914 -0.3028422
-0.98603237 -0.11609869 -0.3058767
-0.95069808 -0.12572341 -0.30574286
-0.97318548 -0.12689029 -0.29759184
-0.99311692 -0.1257166 -0.30284515
-1.0056628 -0.12516356 -0.30305329
-0.9681614 -0.13534617 -0.30317742
-0.97400212 -0.13895772 -0.29925102
-0.9786064 -0.13905293 -0.30252689
-0.98443335 -0.14056319 -0.30211785
-0.99352062 -0.13463901 -0.29972732
-1.0154423 -0.13278082 -0.30195317
-1.0276798 -0.13395661 -0.299977
-1.0379059 -0.13358507 -0.3036226
-0.98446918 -0.11188565 -0.31531247
-0.95642877 -0.12096156 -0.31595919
-0.98357558 -0.11578813 -0.31465083
-0.99400085 -0.1224242 -0.31143618
-0.99965298 -0.11462144 -0.31080544
-0.9499048 -0.12542921 -0.30735138
-0.96431071 -0.12677222 -0.31360933
-0.97391748 -0.12637335 -0.30976227
-0.98180825 -0.13057713 -0.30914477
-0.98716211 -0.12679526 -0.30733901
-0.98104089 -0.13882893 -0.30891955
-0.98777032 -0.13979998 -0.30912989
-0.98728395 -0.1102565 -0.32246804
-0.99348241 -0.10991725 -0.32252291
-0.99895835 -0.11155031 -0.32487074
-1.0036615 -0.11189732 -0.3242237
-0.96747398 -0.12020043 -0.32632798
-0.98938507 -0.12270526 -0.32429415
-0.99357325 -0.11708431 -0.318813
-1.0004395 -0.12324707 -0.32028934
-1.0100052 -0.12101942 -0.31953368
-1.0129037 -0.12350787 -0.3163251
-0.97837335 -0.13082984 -0.31859729
-0.99264306 -0.12966082 -0.3181639
-0.99720007 -0.13410699 -0.31919912
-0.98876363 -0.1368379 -0.31838176
-1.0056322 -0.105683 -0.32875171
-1.0241659 -0.10659421 -0.3324939
-0.9862529 -0.11209553 -0.33196616
-0.98986489 -0.10853945 -0.33380905
-1.0014682 -0.1124106 -0.33194789
-1.0035267 -0.11108913 -0.32766539
-1.0195426 -0.11142127 -0.33624771
-0.9629721 -0.11745189 -0.3294397
-0.97460723 -0.12505236 -0.32685134
-0.98395306 -0.12293649 -0.33188477
-1.0007708 -0.12125042 -0.33085683
-0.95844686 -0.13221517 -0.33234641
-0.98134279 -0.13081692 -0.32885957
-0.98718005 -0.13040757 -0.32654661
-0.99404347 -0.12738377 -0.3304888
-0.99788135 -0.13027656 -0.33081156
-1.023856 -0.097286925 -0.34584418
-0.99257153 -0.10666009 -0.34052727
-1.001665 -0.10750514 -0.34314439
-1.0177885 -0.10103752 -0.34470946
-0.9955042 -0.11077849 -0.33754957
-1.0024925 -0.11289172 -0.34459379
-1.0082518 -0.11582914 -0.34132487
-1.0118332 -0.10988707 -0.34118888
-0.97798765 -0.12068701 -0.33984211
-0.98462188 -0.12484407 -0.34071648
-0.99160802 -0.11861526 -0.34124926
-0.99891919 -0.12460396 -0.33847457
-1.0065455 -0.11991584 -0.33610135
-1.0192895 -0.12128193 -0.34105071
-0.95141971 -0.1315487 -0.33592385
-0.98041093 -0.13169986 -0.33745429
-0.99362445 -0.12771454 -0.33929697
-1.0009929 -0.13101776 -0.33705777
-0.9989652 -0.09899497 -0.35297945
-1.0203505 -0.097966813 -0.35267171
-1.0400165 -0.09174332 -0.35684982
-1.0576744 -0.095363766 -0.35530081
-0.9865635 -0.10417148 -0.35088348
-1.0083944 -0.10804735 -0.34804839
-1.0138818 -0.10783273 -0.35534734
-1.0196092 -0.10592204 -0.35077265
-1.0234451 -0.10786255 -0.35323372
-1.036032 -0.10184236 -0.35111356
-0.97857374 -0.11528018 -0.35315296
-1.0038767 -0.11029743 -0.34715089
-1.0126514 -0.11658461 -0.35191339
-1.0288173 -0.11095612 -0.3523095
-0.99208826 -0.12072675 -0.34956932
-0.99698573 -0.12482581 -0.3491478
-1.0075161 -0.12534183 -0.34841797
-0.96243083 -0.13085973 -0.34642878
-1.0344483 -0.090483695 -0.36369103
-1.0389447 -0.091548152 -0.36178955
-0.99691886 -0.10165288 -0.36244211
-1.013258 -0.098703451 -0.3631883
-1.0277628 -0.09348309 -0.36282507
-1.0390967 -0.096770748 -0.36006424
-1.0570953 -0.096737333 -0.36187762
-1.0053208 -0.10574304 -0.35999393
-1.0161732 -0.10579173 -0.36071584
-1.0248069 -0.10561737 -0.36247873
-1.0458654 -0.11105211 -0.3598451
-0.99291301 -0.11701246 -0.36049193
-1.0150474 -0.11623944 -0.35792994
-1.0203165 -0.11832413 -0.36163294
-1.0267779 -0.11782132 -0.35526058
-1.0344425 -0.11354014 -0.36149883
-0.97358102 -0.13015771 -0.35708377
-0.98423535 -0.12469903 -0.35431603
-0.99981296 -0.12656647 -0.35677829
-1.0066413 -0.12334247 -0.35698354
-1.0396316 -0.088539153 -0.37315279
-1.0467235 -0.089561448 -0.37142745
-1.0610356 -0.091829523 -0.37282801
-0.99490982 -0.095327318 -0.37636387
-1.0075561 -0.10013106 -0.37013048
-1.014671 -0.10295928 -0.37185052
-1.0185304 -0.1022857 -0.36901855
-1.0277826 -0.098414153 -0.37353632
-1.0421844 -0.098485827 -0.36704573
-1.0464835 -0.094689727 -0.36860877
-1.0607542 -0.099277258 -0.37366995
-1.065933 -0.095569305 -0.37397295
-0.97848868 -0.11113507 -0.36946076
-0.99160749 -0.10471034 -0.36659688
-1.0203954 -0.10746766 -0.3696526
-1.0273478 -0.10430381 -0.37021971
-1.0339966 -0.1057073 -0.36899692
-1.0394927 -0.10768655 -0.36863491
-0.99892342 -0.11854146 -0.36465314
-1.0029076 -0.11529668 -0.37311643
-1.0210639 -0.11746565 -0.37026963
-1.0342664 -0.11436071 -0.36947045
-0.99914098 -0.12505762 -0.36419746
-1.0062 -0.12295208 -0.36529541
-1.0484222 -0.082933925 -0.38177809
-1.0542357 -0.085158721 -0.38475192
-1.0721694 -0.080109827 -0.38240984
-1.0353657 -0.09194243 -0.38517281
-1.0444115 -0.086985998 -0.38147932
-1.0553195 -0.090721861 -0.38220868
-1.0612113 -0.089994989 -0.38225955
-1.0182033 -0.097623438 -0.381899
-1.0297006 -0.10257806 -0.37633502
-1.0345062 -0.10090414 -0.37823254
-1.0424842 -0.10073091 -0.38187033
-0.98988247 -0.11030808 -0.38032198
-1.0111133 -0.10466446 -0.37731203
-1.0344555 -0.10913096 -0.37924808
-1.0405697 -0.10930747 -0.37683216
-1.0531695 -0.1075286 -0.37732029
-1.0610346 -0.11121602 -0.38198185
-1.0135789 -0.11823656 -0.37467828
-1.0194582 -0.11870877 -0.37630749
-1.0882688 -0.072185777 -0.39698097
-1.0338194 -0.08184626 -0.39221957
-1.0563961 -0.079946287 -0.39505255
-1.0300524 -0.096664749 -0.39310905
-1.0541601 -0.091239505 -0.38844928
-1.06608 -0.090405695 -0.39122632
-1.0731672 -0.092899576 -0.39134565
-1.0783455 -0.087378822 -0.39375776
-1.015131 -0.098692596 -0.38871026
-1.0257627 -0.10050222 -0.39011583
-1.0324992 -0.099639252 -0.38907322
-1.0460724 -0.099196449 -0.39000604
-1.0525757 -0.10133512 -0.3923201
-1.0613836 -0.10161864 -0.39109108
-1.0141242 -0.11377825 -0.38740388
-1.0306655 -0.11397199 -0.38613963
-1.039373 -0.11329976 -0.38809988
-1.05318 -0.10879533 -0.38744813
-1.0607094 -0.11186189 -0.38784984
-1.009136 -0.11695741 -0.38626534
-1.0144699 -0.11614223 -0.390589
-1.0319407 -0.079670347 -0.40626222
-1.0783689 -0.076727584 -0.39846405
-1.0973568 -0.077355832 -0.40538502
-1.0403547 -0.08127825 -0.39839351
-1.0472826 -0.080297634 -0.40038872
-1.0538357 -0.082650468 -0.3995769
-1.0622391 -0.081740774 -0.40032437
-1.0694927 -0.085119389 -0.39963463
-1.0752641 -0.083178915 -0.39778358
-1.0948583 -0.082515478 -0.40176857
-1.0421124 -0.095704004 -0.4044593
-1.0447456 -0.093923904 -0.40139833
-1.057699 -0.088782214 -0.40219623
-1.0681789 -0.089455873 -0.39875233
-1.0804023 -0.088873267 -0.40431941
-1.0858533 -0.096671119 -0.39657769
-1.0275609 -0.097957358 -0.39977539
-1.0461645 -0.10067137 -0.40342495
-1.0613004 -0.10157552 -0.4002775
-1.0692226 -0.1008881 -0.39891356
-1.0729516 -0.10301245 -0.40077525
-1.0247666 -0.11332554 -0.39870396
-1.0929976 -0.065673344 -0.41310093
-1.1138873 -0.064649023 -0.41623124
-1.0522667 -0.073866308 -0.41338995
-1.0696467 -0.078406595 -0.41481587
-1.0737249 -0.07678438 -0.41199774
-1.1166307 -0.077991076 -0.41241989
-1.045131 -0.081476353 -0.40654856
-1.0548723 -0.081071936 -0.41540968
-1.0703186 -0.084117562 -0.41206402
-1.0828066 -0.086247005 -0.41024953
-1.1139991 -0.087212786 -0.40981427
-1.0258026 -0.09668912 -0.40696758
-1.040204 -0.097221434 -0.41098392
-1.0511091 -0.096912697 -0.40688416
-1.0586373 -0.089838177 -0.41029596
-1.0710799 -0.096318848 -0.40714961
-1.105038 -0.097456403 -0.4035441
-1.0544741 -0.10518797 -0.41220009
-1.0630367 -0.1056255 -0.40332657
-1.0642118 -0.10126922 -0.40552092
-1.0793215 -0.065642953 -0.42180225
-1.0935143 -0.063606672 -0.42002341
-1.0997699 -0.066530488 -0.42665696
-1.0307044 -0.07590428 -0.42273948
-1.0463961 -0.076576643 -0.42046386
-1.0719312 -0.074002042 -0.4199141
-1.0801891 -0.077124231 -0.41775197
-1.0862503 -0.078382693 -0.4229849
-1.0947335 -0.071915969 -0.41819653
-1.1089848 -0.080487221 -0.42223823
-1.0470181 -0.089742742 -0.41873133
-1.0604582 -0.084976561 -0.42004177
-1.0684183 -0.087643206 -0.41979215
-1.0734545 -0.08150658 -0.41687873
-1.0859327 -0.085235275 -0.418697
-1.0420244 -0.091411546 -0.42134672
-1.0661219 -0.096812688 -0.42054313
-1.0748612 -0.093239978 -0.42317384
-1.0782104 -0.095639713 -0.41903275
-1.0623457 -0.10097516 -0.4133338
-1.1511406 -0.050251387 -0.43325368
-1.1603855 -0.047850274 -0.43640628
-1.0923741 -0.059868593 -0.43272287
-1.0971513 -0.063708663 -0.43069282
-1.1132152 -0.058987591 -0.4292801
-1.1190718 -0.060539842 -0.43276995
-1.1240968 -0.059187938 -0.43323177
-1.0471064 -0.071712717 -0.43416363
-1.0803177 -0.07098338 -0.43487599
-1.0930696 -0.065045722 -0.43006963
-1.112938 -0.065342851 -0.42995745
-1.1197761 -0.067198165 -0.43251374
-1.0534074 -0.078026503 -0.42980009
-1.0584242 -0.076244384 -0.43513346
-1.0747263 -0.079910971 -0.42879283
-1.0768199 -0.078721173 -0.43063515
-1.0918106 -0.078930363 -0.42679444
-1.0965785 -0.075749829 -0.43431908
-1.0259914 -0.091279864 -0.42576677
-1.072197 -0.091150805 -0.42492709
-1.099648 -0.087492779 -0.42850566
-1.1075494 -0.086339429 -0.42529416
-1.1199651 -0.084318399 -0.42737892
-1.0406705 -0.092893191 -0.42808691
-1.0608177 -0.096733503 -0.42808348
-1.0823501 -0.098894224 -0.42770192
-1.1035752 -0.096849769 -0.4277432
-1.0537252 -0.10189504 -0.42664623
-1.1693892 -0.049592488 -0.44228008
-1.0691803 -0.06148665 -0.43872648
-1.0764637 -0.059359305 -0.44227114
-1.0889503 -0.064221606 -0.43761596
-1.0947858 -0.057336088 -0.44150177
-1.1135668 -0.062498625 -0.4415915
-1.1245426 -0.061605137 -0.43826717
-1.0718782 -0.073749229 -0.44066715
-1.0857238 -0.071265072 -0.44131553
-1.0975355 -0.068051167 -0.43631941
-1.1098512 -0.070539169 -0.43774107
-1.1191329 -0.073420227 -0.44217995
-1.1304266 -0.065332592 -0.43966782
-1.1457332 -0.066415854 -0.44021413
-1.0582075 -0.077975921 -0.44000715
-1.0637926 -0.079179071 -0.43985251
-1.0842423 -0.078841597 -0.44109008
-1.0924914 -0.07918828 -0.43801814
-1.1156217 -0.079702258 -0.43999398
-1.0419363 -0.087119088 -0.43823421
-1.0534613 -0.092103682 -0.439601
-1.0721254 -0.090020038 -0.43764135
-1.0793831 -0.089185588 -0.43347549
-1.086614 -0.089326724 -0.43402037
-1.0920216 -0.086283363 -0.4417544
-1.0657279 -0.0977332 -0.43854704
-1.0850654 -0.097897477 -0.4322637
-1.0897489 -0.056848817 -0.44846779
-1.1043638 -0.056728829 -0.45347953
-1.1198218 -0.053774353 -0.45441547
-1.1497713 -0.048413493 -0.45575789
-1.0646476 -0.058008183 -0.45294717
-1.0803738 -0.060534179 -0.45087638
-1.0998296 -0.062221386 -0.4515532
-1.1278642 -0.065459281 -0.44682363
-1.1343646 -0.058941796 -0.45338359
-1.16394 -0.065883383 -0.44929492
-1.0784978 -0.070294112 -0.44767556
-1.0863789 -0.070293292 -0.4503887
-1.0952729 -0.069431514 -0.44975632
-1.097964 -0.072378322 -0.44656995
-1.1134555 -0.071063355 -0.45297459
-1.0850915 -0.081233144 -0.44558349
-1.0976387 -0.077929556 -0.45295841
-1.1043612 -0.081542321 -0.44587517
-1.1193603 -0.078299865 -0.4441908
-1.1250225 -0.081859007 -0.44569138
-1.1410352 -0.079573199 -0.44501474
-1.0541348 -0.08607427 -0.45000318
-1.0595552 -0.092887834 -0.44490907
-1.0664655 -0.091310158 -0.45127162
-1.079533 -0.086685859 -0.45213294
-1.0847033 -0.091380864 -0.44589934
-1.0946465 -0.086317211 -0.44739202
-1.1052563 -0.089493357 -0.44535935
-1.1217915 -0.046894848 -0.4602685
-1.1261629 -0.047651563 -0.46134642
-1.1480168 -0.043524638 -0.46698597
-1.1577073 -0.044936839 -0.46125171
-1.1769805 -0.042193711 -0.4634116
-1.0787034 -0.057501666 -0.46461901
-1.1042055 -0.050122246 -0.46444798
-1.1271154 -0.056943499 -0.45627856
-1.0916941 -0.059560262 -0.46321297
-1.1137547 -0.060661841 -0.45757031
-1.1179125 -0.062349688 -0.46252084
-1.1265371 -0.058761623 -0.46145764
-1.1347678 -0.06134418 -0.46055201
-1.1465483 -0.061857838 -0.45947281
-1.0631051 -0.073341571 -0.45864326
-1.0871433 -0.07351236 -0.4614796
-1.0915624 -0.075448714 -0.46038261
-1.0963087 -0.075266249 -0.45435059
-1.1115053 -0.069031194 -0.46352059
-1.1272247 -0.070388481 -0.45565042
-1.0624177 -0.083073914 -0.45377016
-1.0835903 -0.085433118 -0.46157715
-1.0918765 -0.081424043 -0.45947665
-1.1026785 -0.083307706 -0.46076369
-1.1108426 -0.083037786 -0.46128973
-1.1217442 -0.080646142 -0.45611385
-1.1269383 -0.078672267 -0.45530424
-1.0706803 -0.092158958 -0.45710295
-1.0791832 -0.088332877 -0.45678627
-1.1656125 -0.038379747 -0.47299787
-1.1386399 -0.046668161 -0.47151506
-1.1465837 -0.041309215 -0.47031391
-1.1532379 -0.044768553 -0.47383401
-1.1602302 -0.041576609 -0.46775159
-1.1758587 -0.044773929 -0.47134376
-1.1925902 -0.044529948 -0.46894214
-1.1299562 -0.055949636 -0.47343445
-1.1378995 -0.056473117 -0.47206783
-1.1439676 -0.051109646 -0.47507814
-1.153501 -0.050385378 -0.46600524
-1.1848853 -0.053980898 -0.46868724
-1.084376 -0.068204872 -0.46988246
-1.0957043 -0.063554853 -0.46714291
-1.1195927 -0.063903406 -0.46783802
-1.1353163 -0.067356743 -0.46912095
-1.1478318 -0.067851707 -0.46979275
-1.1845901 -0.065308414 -0.46971011
-1.0742556 -0.072473519 -0.47093505
-1.0819818 -0.0773727 -0.46669605
-1.098119 -0.073472753 -0.47056943
-1.1083034 -0.069670595 -0.4689191
-1.1133132 -0.073520452 -0.46696246
-1.1221988 -0.07475695 -0.46344185
-1.131444 -0.069669247 -0.46882704
-1.1434137 -0.075197048 -0.46315607
-1.1761491 -0.068912692 -0.46469575
-1.1014256 -0.079590499 -0.46791744
-1.1118871 -0.081273764 -0.47088939
-1.1290767 -0.078161962 -0.46333757
-1.1386071 -0.081857428 -0.46700209
-1.1448711 -0.078242935 -0.46442351
-1.2092289 -0.030987952 -0.48266748
-1.2406625 -0.024331927 -0.48273569
-1.1198108 -0.041420043 -0.48523149
-1.1494926 -0.041964032 -0.48027346
-1.1556182 -0.04001186 -0.48140997
-1.1732854 -0.036785837 -0.48197737
-1.182021 -0.037996992 -0.48057446
-1.1924522 -0.032773808 -0.47796404
-1.1973088 -0.041253578 -0.47779298
-1.2129517 -0.033072017 -0.48573858
-1.0895689 -0.048076864 -0.48297864
-1.111613 -0.046788067 -0.47893947
-1.1171046 -0.045007627 -0.4791559
-1.1338491 -0.044407226 -0.47890443
-1.1366298 -0.046023346 -0.48311359
-1.1548985 -0.046287037 -0.48429459
-1.1669117 -0.048629574 -0.47781289
-1.1709225 -0.044647533 -0.48468032
-1.0961372 -0.057757292 -0.48429778
-1.1032133 -0.058580443 -0.47571462
-1.1146784 -0.059911642 -0.48391461
-1.120841 -0.059989575 -0.48265645
-1.1400912 -0.057507563 -0.47667238
-1.1530545 -0.055972576 -0.4752095
-1.1577554 -0.054469597 -0.47897467
-1.1245059 -0.068976589 -0.48021349
-1.1418141 -0.06425184 -0.47763458
-1.1434078 -0.06432499 -0.48259145
-1.1870977 -0.060949694 -0.47601253
-1.1009024 -0.076894701 -0.47524068
-1.1168325 -0.075881302 -0.47882658
-1.1250745 -0.07607457 -0.47721502
-1.133028 -0.073131353 -0.47808117
-1.149416 -0.07390555 -0.4816725
-1.1598152 -0.074689806 -0.47496253
-1.079993 -0.083072625 -0.47590369
-1.1105063 -0.083473504 -0.47500291
-1.1408414 -0.034143656 -0.4945142
-1.2124661 -0.029280551 -0.48957533
-1.2337503 -0.033367138 -0.49365589
-1.1463773 -0.039271455 -0.49359921
-1.1635234 -0.038624283 -0.49431339
-1.1831304 -0.036478549 -0.4944317
-1.2047228 -0.039643746 -0.48765883
-1.2148964 -0.040304709 -0.48961061
-1.1461709 -0.051442418 -0.48572138
-1.1514877 -0.047724798 -0.48978984
-1.1732568 -0.045167897 -0.49424401
-1.1861806 -0.049580835 -0.48918411
-1.2035124 -0.048112322 -0.4884249
-1.1148584 -0.057576954 -0.48841262
-1.1241654 -0.058090046 -0.49230051
-1.1308016 -0.05473417 -0.48779637
-1.1489377 -0.053702779 -0.49367476
-1.1677488 -0.05353263 -0.48761156
-1.176458 -0.05412028 -0.4878118
-1.1773604 -0.054516017 -0.49065518
-1.1887411 -0.061523098 -0.48777765
-1.2093718 -0.053329881 -0.48578888
-1.084286 -0.063818887 -0.48713788
-1.1234256 -0.069031194 -0.48954213
-1.1399559 -0.067276053 -0.48761502
-1.1495581 -0.063080281 -0.48904526
-1.1518168 -0.066225424 -0.48587313
-1.1796708 -0.065209694 -0.48305991
-1.0855321 -0.071585 -0.48341507
-1.1018169 -0.073647656 -0.4851858
-1.129099 -0.080221906 -0.48146492
-1.1374475 -0.076084957 -0.48704454
-1.2409186 -0.021933902 -0.49860957
-1.2458242 -0.020034216 -0.50031149
-1.1732777 -0.030143142 -0.50585282
-1.1958286 -0.02819337 -0.50091588
-1.2032745 -0.028404258 -0.49985665
-1.2127788 -0.027255297 -0.50117862
-1.0894789 -0.043690875 -0.50023401
-1.1658794 -0.037484914 -0.49682009
-1.1939855 -0.040879004 -0.49921823
-1.2204783 -0.037044387 -0.49851322
-1.1287341 -0.04845456 -0.50293016
-1.1384356 -0.050888415 -0.49945319
-1.1718851 -0.048204556 -0.49533811
-1.1776811 -0.052769437 -0.50144655
-1.1845202 -0.05286333 -0.49968275
-1.193467 -0.045568433 -0.50207043
-1.2220085 -0.04800944 -0.49966463
-1.1267015 -0.056565017 -0.50128686
-1.1481099 -0.060817033 -0.49393827
-1.1520338 -0.059861742 -0.49823156
-1.1585981 -0.057458628 -0.49749956
-1.1694727 -0.054273218 -0.50010413
-1.1831927 -0.061506689 -0.50142401
-1.0996084 -0.069238439 -0.4991433
-1.1166902 -0.068151385 -0.49650002
-1.1259782 -0.069172449 -0.4937579
-1.1539607 -0.069568157 -0.49892151
-1.1622124 -0.070279434 -0.49324581
-1.1816912 -0.06534116 -0.49305451
-1.157151 -0.073563173 -0.4928284
-1.188802 -0.027038783 -0.51219916
-1.2313498 -0.026983723 -0.51252151
-1.2605084 -0.021031309 -0.50844157
-1.1478261 -0.030828841 -0.51055622
-1.1703932 -0.033372633 -0.51243114
-1.1885375 -0.033791646 -0.51313889
-1.2027334 -0.03540777 -0.51397574
-1.2071581 -0.035163105 -0.50623327
-1.2138315 -0.027806625 -0.51286095
-1.2191809 -0.035196953 -0.5110271
-1.1572982 -0.042022828 -0.50665939
-1.167758 -0.046141308 -0.51303399
-1.1582698 -0.051408194 -0.50451976
-1.1799947 -0.049743071 -0.50909656
-1.1924541 -0.050975133 -0.5080322
-1.2148268 -0.053424533 -0.50586587
-1.1233336 -0.064547457 -0.50718212
-1.1338954 -0.058953241 -0.50732291
-1.1435409 -0.063569613 -0.50984359
-1.1522627 -0.059459738 -0.5071193
-1.1608542 -0.057429098 -0.50918728
-1.1659454 -0.06158457 -0.50540829
-1.1731083 -0.056353014 -0.51025015
-1.1918989 -0.063599192 -0.50444156
-1.1212518 -0.071422338 -0.50322437
-1.1335226 -0.065685958 -0.50807399
-1.1395104 -0.071320631 -0.50343436
-1.1491718 -0.070422769 -0.51012158
-1.1572368 -0.066303618 -0.50318551
-1.1790516 -0.022395495 -0.52546436
-1.2003993 -0.024956476 -0.51711136
-1.1788765 -0.034886248 -0.52379715
-1.1910563 -0.033375412 -0.51544195
-1.2116015 -0.033770416 -0.5207054
-1.2248247 -0.034316473 -0.51829749
-1.1665279 -0.040955104 -0.51921326
-1.1822566 -0.038992018 -0.52314705
-1.1836629 -0.043804761 -0.51550019
-1.1998621 -0.042079382 -0.51863158
-1.2086774 -0.045697048 -0.51838803
-1.2255871 -0.044246603 -0.51832551
-1.2361879 -0.040396493 -0.52101582
-1.154009 -0.053497482 -0.51604408
-1.165195 -0.049155027 -0.51980937
-1.1716666 -0.054763149 -0.51728302
-1.2152528 -0.051489674 -0.52083081
-1.2344304 -0.053056788 -0.51513445
-1.152648 -0.062805533 -0.51499891
-1.1742636 -0.057862118 -0.51816124
-1.1785237 -0.060570739 -0.51880127
-1.1856039 -0.063684344 -0.51188028
-1.1734706 -0.020151727 -0.53452128
-1.172959 -0.023316294 -0.53345811
-1.1949326 -0.02709356 -0.53085965
-1.1996602 -0.022681314 -0.53128582
-1.2052748 -0.026820108 -0.5335601
-1.1887414 -0.032181345 -0.52888036
-1.1725429 -0.044711903 -0.52417809
-1.1826289 -0.044970121 -0.52753794
-1.1856035 -0.044428065 -0.52795452
-1.2078649 -0.041816205 -0.53085268
-1.2204206 -0.042451646 -0.52672976
-1.1615243 -0.056129869 -0.52767396
-1.1736073 -0.051724315 -0.52854037
-1.1878459 -0.056326941 -0.52736634
-1.1970432 -0.053952463 -0.52391279
-1.2187887 -0.051471271 -0.52444136
-1.1232415 -0.060063727 -0.52482218
-1.1603109 -0.062825978 -0.52162379
-1.1853569 -0.017803364 -0.54174167
-1.2051002 -0.016420931 -0.54509306
-1.2180332 -0.018817604 -0.54420871
-1.1793756 -0.030257549 -0.54208738
-1.2115425 -0.026554123 -0.54120493
-1.156232 -0.037045833 -0.53861517
-1.1683699 -0.03679226 -0.53779763
-1.1794022 -0.035569292 -0.54027629
-1.1734725 -0.044382654 -0.53336787
-1.1937281 -0.044858336 -0.5387274
-1.2051244 -0.047995292 -0.5377022
-1.2148581 -0.047974121 -0.53325242
-1.2199062 -0.047048718 -0.53849161
-1.1511956 -0.050123774 -0.53292805
-1.1641918 -0.054603033 -0.53897786
-1.1813036 -0.055537224 -0.53405243
-1.2004119 -0.052375678 -0.53424996
-1.1585821 -0.062722497 -0.53232592
-1.2164115 -0.012539804 -0.54771304
-1.2021827 -0.021210127 -0.54922575
-1.20793 -0.022008944 -0.55214912
-1.197988 -0.035653055 -0.54745686
-1.2268666 -0.038934834 -0.5434227
-1.1615698 -0.049432632 -0.5460934
-1.1671976 -0.059320197 -0.54483485
-1.1914347 -0.055642307 -0.54959118
-1.2084458 -0.054038752 -0.54971582
-1.1897078 -0.01262489 -0.56396753
-1.1750021 -0.023213912 -0.55553293
-1.1533136 -0.029885896 -0.55976081
-1.1631994 -0.029577732 -0.56105781
-1.19645 -0.025996778 -0.5609681
-1.1525667 -0.033803977 -0.55471843
-1.1836087 -0.042819656 -0.55520463
-1.1917683 -0.039527573 -0.55496627
-1.1486717 -0.049919479 -0.55641836
-1.1855913 -0.051456034 -0.55576354
-1.2053003 -0.04904902 -0.55809551
-1.2175349 -0.043124046 -0.55199182
-1.1874992 -0.015552253 -0.57124537
-1.193651 -0.011455499 -0.57204038
-1.1519498 -0.019172207 -0.57033497
-1.1997647 -0.01820305 -0.56771535
-1.2105854 -0.017197788 -0.57073814
-1.1850034 -0.032479767 -0.56753486
-1.1977324 -0.03458 -0.56697315
-1.2029508 -0.029706299 -0.56916893
-1.1482509 -0.046402913 -0.56301284
-1.1472054 -0.012793005 -0.58251274
-1.1519854 -0.025840253 -0.5774613
-1.1803735 -0.021000147 -0.57866788
-1.1363772 -0.028152686 -0.57398325
-1.1693842 -0.035087604 -0.57792366
-1.1877631 -0.029484712 -0.5811525
-1.1941843 -0.035082322 -0.57339418
-1.2056022 -0.029842138 -0.57740128
-1.1469227 -0.042357266 -0.58071333
-1.2049989 -0.040976051 -0.57533276
-1.1450064 -0.046677623 -0.57252157
-1.1972798 -0.046694666 -0.5748806
-1.1723188 -0.015532777 -0.59246004
-1.1905316 -0.030651286 -0.58286214
-1.1427554 -0.04000267 -0.58358002
-1.195079 -0.039028753 -0.58501166
-1.1581954 -0.010257952 -0.59832275
-1.1734285 -0.0069542229 -0.59710592
-1.1782572 -0.007856898 -0.59553468
-1.10812 -0.020231724 -0.59598392
-1.1314378 -0.017841019 -0.60174751
-1.1506574 -0.021794617 -0.5951618
-1.1553744 -0.02747215 -0.60030013
-1.1821312 -0.027070411 -0.59731096
-1.1918865 -0.022604927 -0.59399515
-1.1723242 -0.036455858 -0.59952122
-1.1288692 -0.040937699 -0.59166378
-1.1592549 -0.041205097 -0.59457242
-1.2008015 -0.042991661 -0.59324473
-1.1827672 -0.0035529435 -0.61265069
-1.1763731 -0.011835739 -0.61010629
-1.1166993 -0.019363247 -0.60888982
-1.1443843 -0.015734628 -0.60638535
-1.1787758 -0.020888716 -0.6073364
-1.1788359 -0.021972321 -0.60627723
-1.1252292 -0.037718162 -0.60765618
-1.1362307 -0.04070219 -0.60885209
-1.1535736 -0.036512725 -0.60573101
-1.1849488 -0.031784825 -0.60959601
-1.1225289 -0.012384892 -0.62017179
-1.1571269 -0.010094136 -0.62337554
-1.1733981 -0.022678033 -0.61664534
-1.1308315 -0.031447984 -0.6197648
-1.1733521 -0.031728052 -0.61769706
-1.1502347 -0.035840333 -0.61411721
-1.1597002 -0.034191791 -0.61839581
-1.173378 -0.039149672 -0.61310267
-1.1033325 -0.0097384378 -0.62476414
-1.1448536 -0.012127109 -0.62787396
-1.1528982 -0.0091371983 -0.63057816
-1.1130846 -0.016165897 -0.62477195
-1.12809 -0.017068416 -0.62641013
-1.1638232 -0.01619415 -0.62631083
-1.1519508 -0.025759384 -0.63063425
-1.15642 -0.032586891 -0.62414008
-1.1215892 -0.034498628 -0.62364852
-1.1685368 -0.038205847 -0.62459326
-1.1081177 -0.0058031008 -0.64106256
-1.1384867 -0.0071269125 -0.64008147
-1.1131034 -0.0087678954 -0.63831091
-1.1218172 -0.015274554 -0.63795263
-1.1528432 -0.010327064 -0.63639188
-1.1087346 -0.024875931 -0.6403091
-1.1162314 -0.024673693 -0.64081758
-1.1346139 -0.018901512 -0.63346732
-1.1226894 -0.033161316 -0.63066214
-1.1294639 -0.035358671 -0.63810331
-1.1607382 -0.030293558 -0.6353606
-1.1616913 -0.030682899 -0.63690907
-1.1383841 0.00071004033 -0.65009481
-1.1309131 -0.0039981604 -0.64994222
-1.1360754 -0.0046174973 -0.64852452
-1.1147226 -0.0097602382 -0.64792603
-1.1476067 -0.018024415 -0.6462909
-1.1337138 -0.022310078 -0.64200652
-1.1450802 -0.025134034 -0.64822501
-1.1056284 -0.028862804 -0.64233071
-1.1249589 -0.034540132 -0.64105213
-1.1043656 -0.040983967 -0.64230734
-1.1290027 0.00068084151 -0.65988761
-1.107648 -0.0050403625 -0.65905041
-1.1312236 -0.0048229769 -0.65384263
-1.1416792 -0.005341664 -0.65624559
-1.0934858 -0.019128196 -0.65980649
-1.1181774 -0.01205501 -0.65394497
-1.1255999 -0.01939778 -0.65685475
-1.1371007 -0.018748768 -0.65966785
-1.1433625 -0.017663993 -0.65565735
-1.1093616 -0.0257347 -0.65214664
-1.1149228 -0.020687275 -0.65825891
-1.1266807 -0.030468345 -0.65303779
-1.1289207 -0.03092733 -0.65829623
-1.1528528 -0.032271765 -0.65512848
-1.1229259 0.0032569021 -0.67284501
-1.1073605 -0.0072553083 -0.66290647
-1.1145844 -0.007072486 -0.66768682
-1.1355892 -0.0098535493 -0.66922027
-1.1092703 -0.021283969 -0.66965687
-1.1165739 -0.02761624 -0.66016775
-1.1364352 -0.021018676 -0.66299605
-1.1015919 -0.037657909 -0.65895289
-1.1316466 -0.035087045 -0.66516095
-1.139908 -0.034412973 -0.66095006
-1.0948509 -0.010147899 -0.67594182
-1.1032128 -0.0039726272 -0.67816651
-1.1081843 -0.010189839 -0.67514724
-1.1176519 -0.012028426 -0.67970622
-1.1249306 -0.0079939663 -0.67555088
-1.0996672 -0.019642003 -0.67983168
-1.1005669 -0.014045127 -0.67887276
-1.1202245 -0.01442799 -0.67726541
-1.1281794 -0.016784757 -0.67703372
-1.1106694 -0.024840027 -0.67162567
-1.117058 -0.023126096 -0.67791045
-1.0988183 -0.034331851 -0.67559844
-1.0865785 -0.001178287 -0.69062781
-1.1130413 -0.0053221732 -0.69008869
-1.1136191 -0.0088586807 -0.68831962
-1.1284192 -0.012773529 -0.68511075
-1.0843176 -0.032968752 -0.68366635
-1.1123781 -0.027313754 -0.68656737
-1.1196896 -0.024022005 -0.68139273
-1.1086253 -0.032976069 -0.67890459
-1.0964323 0.0036120564 -0.69877791
-1.0516249 -0.0055799186 -0.70051992
-1.1146516 -0.0042013898 -0.69199282
-1.1315594 -0.0053908303 -0.6989305
-1.0827585 -0.010986 -0.69607377
-1.0992676 -0.010087699 -0.69618732
-1.1118125 -0.0072444603 -0.69326919
-1.0895357 -0.025250383 -0.69629657
-1.0947837 -0.019270763 -0.68997723
-1.1082473 -0.024950527 -0.69372988
-1.0713799 -0.026059568 -0.69742304
-1.1038183 -0.032807685 -0.69138765
-1.1073165 -0.028989658 -0.69634604
-1.0829302 -0.00083426386 -0.71041846
-1.1034207 -0.0021213293 -0.70381194
-1.1193871 -0.0061161071 -0.70841295
-1.0673271 -0.011532575 -0.71024704
-1.0913962 -0.012481406 -0.70331144
-1.0956855 -0.017099619 -0.70374513
-1.1100067 -0.021513186 -0.70035791
-1.0801977 -0.02970805 -0.69882441
-1.1148468 -0.028627083 -0.69877326
-1.0781087 0.0037040785 -0.72118962
-1.0851147 0.0016633868 -0.71445537
-1.0985167 0.0055053458 -0.71991867
-1.1010488 0.00065778941 -0.71556658
-1.0565908 -0.0065948367 -0.71619189
-1.0609034 -0.0046135336 -0.71429503
-1.0704484 -0.004078947 -0.71476531
-1.074676 -0.0029282272 -0.71544129
-1.0446784 -0.018011048 -0.71865201
-1.0984702 -0.018256485 -0.71632415
-1.0635378 -0.027211666 -0.71190089
-1.0769553 -0.024495266 -0.71479988
-1.0850232 -0.022411883 -0.71121812
-1.0912855 -0.020705536 -0.71058726
-1.0986073 -0.021972016 -0.7090717
-1.0815907 0.011180997 -0.73149157
-1.0498 0.0020070374 -0.7293821
-1.0731398 0.00012227148 -0.72582585
-1.0803635 0.0045035109 -0.72954905
-1.0520893 -0.0061721504 -0.72796112
-1.0664141 -0.0021304563 -0.72799349
-1.0938665 -0.0085979775 -0.72778195
-1.0429046 -0.011810862 -0.72785211
-1.0690104 -0.017432518 -0.72760576
-1.0814708 -0.012702711 -0.72352999
-1.0891759 -0.015031211 -0.72658169
-1.0976781 -0.018464267 -0.72678071
-1.0464547 0.0077354088 -0.74158639
-1.0301043 0.000769265 -0.73472899
-1.0462297 0.00088959187 -0.73289722
-1.0578337 0.0029360354 -0.73504394
-1.0726722 0.0060407668 -0.73276746
-1.0860189 0.0046655238 -0.73263735
-1.0302724 -0.012465008 -0.73708636
-1.0763084 -0.0092415586 -0.73331296
-1.0877756 -0.0080932155 -0.73348677
-1.0490496 -0.018736675 -0.73278248
-1.0651143 -0.01535321 -0.73602575
-1.0483255 -0.021745689 -0.72960395
-1.0652002 -0.024703965 -0.73606318
-1.0740404 -0.021045133 -0.72892278
-1.0892161 -0.022701293 -0.73564517
-1.0828557 0.014934942 -0.74705219
-1.0151358 0.0059554204 -0.75114983
-1.0234625 0.0086404458 -0.74663347
-1.0696458 0.0093312413 -0.74627799
-1.0862238 0.0073244274 -0.74183279
-1.0370489 -0.00088220835 -0.74543941
-1.0554708 0.0019008741 -0.74689692
-1.066884 0.0022291839 -0.7452206
-1.0201752 -0.0064072311 -0.74771661
-1.0416421 -0.0079651847 -0.74467766
-1.0552032 -0.0071771368 -0.74250036
-1.0682209 -0.0083242357 -0.74096811
-1.0761178 -0.0086020827 -0.74349093
-1.0447837 -0.018612854 -0.74516559
-1.0714153 -0.019936763 -0.74283338
-1.0725482 -0.022101447 -0.73866701
-1.0819682 -0.02251976 -0.74311012
-1.0190952 0.011387706 -0.76107544
-1.0451922 0.011581078 -0.75841188
-1.0577451 0.0072591826 -0.75205219
-1.0746137 0.011497043 -0.75381327
-1.0489413 0.00013144314 -0.7542783
-1.0571414 -0.0015928522 -0.75913024
-1.0599601 -0.0010214373 -0.75192475
-1.0704844 -0.0026217774 -0.75566602
-1.08032 -0.00089726597 -0.75377566
-1.0337468 -0.013351984 -0.74943364
-1.0392833 -0.011541538 -0.75102931
-1.063473 -0.012314469 -0.75142252
-1.0774091 -0.0071057007 -0.7520566
-1.0233731 -0.024811469 -0.75509477
-1.0368295 -0.023665786 -0.74776894
-1.0555729 -0.017734639 -0.75524855
-1.0676583 -0.02025003 -0.753272
-1.0426445 0.012213238 -0.76893896
-1.0575566 0.013551697 -0.7697621
-1.0595264 0.016294651 -0.76467961
-1.0111028 0.0064048469 -0.76443952
-1.0291342 0.0095196292 -0.76731294
-1.044394 0.0030585006 -0.76106727
-1.0624002 0.0033997297 -0.76900691
-1.0672462 0.0041906387 -0.76132268
-1.0158079 -0.0036599636 -0.76215857
-1.0403796 -0.0041195154 -0.76150316
-1.0578805 -0.0034845471 -0.75981569
-1.0581341 -0.0020528212 -0.76655674
-1.0667627 -0.0021679401 -0.76523572
-1.0718977 0.0012120306 -0.76203156
-1.029792 -0.013239689 -0.76252878
-1.0365857 -0.008306779 -0.76721793
-1.0409185 -0.012301102 -0.76269937
-1.0629352 -0.013361625 -0.76447737
-1.0665425 -0.015575446 -0.75985426
-1.0781555 -0.015810646 -0.76320654
-1.0349292 -0.021366976 -0.76271534
-1.0531858 -0.019780636 -0.7648502
-1.0642756 -0.020019017 -0.76152539
-1.0255512 0.012258731 -0.77440238
-1.0439297 0.015426748 -0.7752375
-1.0579808 0.018422134 -0.7792213
-1.0076308 0.0094757378 -0.77969366
-1.0411149 0.0066409335 -0.77567548
-1.0545387 0.0032549053 -0.77685755
-1.0222427 -0.0028861463 -0.77549249
-1.0377527 -0.0034189299 -0.77334261
-1.0391171 -0.00027384609 -0.77832878
-1.0541677 -0.0034096912 -0.7762199
-1.0649356 -0.0066444203 -0.77028799
-1.0189341 -0.018031016 -0.7765826
-1.0368528 -0.0090833232 -0.77765781
-1.0484669 -0.010692939 -0.77642351
-1.020694 -0.021598741 -0.77117324
-1.063243 -0.018755294 -0.76910448
-1.0452565 0.018428884 -0.78880048
-1.0149188 0.014844127 -0.78529537
-1.0431076 0.016510434 -0.78591937
-1.0522856 0.013458498 -0.78736436
-1.0355378 0.0063652471 -0.7857495
-1.0478094 0.0053566471 -0.78137547
-1.0535256 0.004191421 -0.78650534
-1.0596172 0.0084468797 -0.78020972
-1.0150704 -0.0079516768 -0.77965063
-1.0338881 -0.00507202 -0.78340656
-1.0468187 -0.0085905641 -0.78456312
-1.0539713 -0.0070696026 -0.78463995
-1.0223008 -0.013423234 -0.78373408
-1.0433204 -0.012872964 -0.78646088
-1.0494045 -0.012275398 -0.7820825
-1.0528286 -0.012879744 -0.78442836
-1.0328609 -0.01905109 -0.77774614
-1.004159 0.012546651 -0.79494768
-1.0250827 0.011496902 -0.79239321
-1.0331378 0.014247678 -0.79360449
-1.0399433 0.014125034 -0.7940554
-1.0503316 0.0087768883 -0.7969085
-1.0178469 -0.00012112409 -0.79002768
-1.0258261 0.0059862584 -0.79737228
-1.0391512 0.0019503906 -0.79159695
-1.0465636 0.0034427941 -0.79303801
-1.0115755 -0.0048603639 -0.79500616
-1.0216299 -0.0037619621 -0.79401463
-1.0414305 -0.0037422776 -0.79731393
-1.0490704 -0.010039292 -0.79378945
-1.0145383 -0.015265986 -0.79111779
-1.0333242 -0.014753886 -0.79472643
-1.052388 -0.011339709 -0.79187012
-1.000687 0.015617557 -0.81020176
-1.0100412 0.016648516 -0.80854666
-1.0122578 0.018035077 -0.80126482
-1.027383 0.020307325 -0.8088249
-0.98159212 0.0083895028 -0.80729485
-1.023232 0.014789425 -0.80613214
-1.0259157 0.012989737 -0.80690384
-1.0323567 0.01331041 -0.80093765
-1.0412276 0.01380863 -0.80125433
-1.045653 0.0083220601 -0.80017334
-1.0331453 -0.0016576648 -0.79959345
-0.99941814 -0.010465831 -0.80656755
-1.0091943 -0.0071100518 -0.80261225
-1.0393933 -0.0050740391 -0.8025825
-1.0459207 -0.0038704127 -0.80486023
-1.0075274 -0.018536888 -0.79681599
-1.0272974 0.017992146 -0.81619751
-1.0390468 0.021539316 -0.81433541
-1.0143198 0.012290142 -0.81548691
-1.0226309 0.0071870163 -0.81483352
-1.0266303 0.0079744607 -0.81020355
-0.995781 0.0035152584 -0.81142253
-1.0080806 -0.0017690286 -0.81036162
-1.0183091 -0.00069040805 -0.81051129
-1.0352861 0.0011255592 -0.81078035
-1.0375044 0.0028787702 -0.81642538
-0.98171532 -0.0094514638 -0.81426024
-1.034055 -0.0082006156 -0.81110269
-1.0433856 -0.0049899146 -0.81293494
-0.98627847 0.020660803 -0.82679743
-0.99520254 0.021732017 -0.82449019
-1.012682 0.021306172 -0.82603824
-1.0226041 0.020228907 -0.82101375
-1.0285348 0.016601831 -0.82384169
-1.0350257 0.016858317 -0.82276809
-0.97728002 0.011101887 -0.82155353
-0.99266005 0.0050466731 -0.82657838
-1.0054053 0.0057722405 -0.81915134
-1.0101278 0.0095259994 -0.82319766
-1.0351604 0.0095282122 -0.82234567
-0.9963178 -0.00089436769 -0.82122087
-1.0228453 0.0025016367 -0.82480669
-1.029487 0.0020339563 -0.8228001
-1.0345324 0.0031002089 -0.81789327
-0.99505073 -0.0077185631 -0.82100946
-1.0145303 -0.0098625198 -0.82191616
-1.0289301 -0.010950878 -0.81664801
-1.0331756 -0.0093494505 -0.82033741
-1.0140049 0.023365781 -0.8337639
-1.0214334 0.024372742 -0.83379829
-1.0325745 0.025850698 -0.83136582
-0.97296798 0.0138143 -0.83581215
-0.98027295 0.013185188 -0.83819008
-0.99979436 0.018247277 -0.83467084
-1.0040789 0.019116968 -0.83383101
-1.0151154 0.013214186 -0.83305395
-1.0193286 0.013408832 -0.83356524
-1.0190371 0.0052651167 -0.82987618
-1.0277661 0.01035998 -0.83686215
-1.0308834 0.0052407905 -0.83080417
-0.96972239 -0.001042366 -0.83688152
-1.0117376 -0.0025068074 -0.83332175
-1.0195794 -0.0011244118 -0.83091754
-1.0239424 0.00066102296 -0.82876641
-0.98838615 -0.0083908588 -0.82769114
-0.98282927 0.023711562 -0.84195143
-1.0001533 0.024722926 -0.84860104
-1.0070972 0.025951087 -0.84829938
-1.0134596 0.026057288 -0.84179658
-1.0064827 0.013642497 -0.84592938
-1.0146885 0.01173415 -0.8410235
-0.98566866 0.0075401738 -0.84017402
-0.99005365 0.0064936802 -0.84232014
-1.0108135 0.0069713742 -0.84179336
-1.0191793 0.0087887719 -0.84326988
-1.0265613 0.0042731315 -0.8457042
-0.98583615 -0.0047487542 -0.84046435
-1.0143166 -0.0033332184 -0.83988941
-1.0216423 -0.0063619539 -0.83743238
-1.0151148 -0.0089856088 -0.83605289
-0.98698205 0.024264202 -0.85294664
-0.99238962 0.025108278 -0.85212898
-1.0076925 0.021732926 -0.85410619
-1.0103886 0.018529408 -0.85708433
-0.96865594 0.016526692 -0.85007083
-0.97764748 0.016333461 -0.85394597
-0.98382097 0.012981199 -0.85542679
-1.000319 0.016998716 -0.85680902
-0.96541035 0.0016700253 -0.85114014
-0.97351217 0.0010863841 -0.8558374
-0.99384505 0.0066377595 -0.85417539
-0.99969888 0.0048566684 -0.85323721
-1.010365 0.0087924823 -0.8498134
-0.99261296 -0.0028034821 -0.85429019
-1.0124698 -0.0027063861 -0.84934038
-0.98575419 0.028004311 -0.86931032
-0.99327534 0.030805267 -0.86572492
-1.0068755 0.02891361 -0.8647486
-0.97475243 0.017411582 -0.86379272
-0.9903245 0.017672934 -0.8619656
-0.99759012 0.02123943 -0.86402005
-1.0046877 0.020653173 -0.86230844
-0.97571492 0.011596777 -0.85870516
-0.99091786 0.015738964 -0.86570454
-1.0110046 0.0163517 -0.86034584
-0.97148591 0.0024597421 -0.864869
-0.99332333 0.0047079176 -0.86347628
-1.0015681 0.0054801106 -0.86582059
-1.0047413 0.0077183992 -0.8577193
-0.9804129 -0.0020802468 -0.85702729
-0.98601216 -0.0072194636 -0.85819352
-0.97857523 0.025598139 -0.87062854
-0.96156812 0.016632386 -0.87487608
-0.96411109 0.021496683 -0.87098873
-0.96950424 0.016538113 -0.87245798
-0.98725909 0.018897913 -0.86929208
-0.99341875 0.020134084 -0.87485284
-1.0034336 0.017238736 -0.86841959
-0.96000296 0.0063503161 -0.87286764
-0.97542393 0.011274986 -0.87121624
-0.98768038 0.014195144 -0.87271279
-0.99388564 0.0094816834 -0.87114429
-0.9658711 0.0030887872 -0.87255585
-0.9735142 0.0003048107 -0.87309504
-0.97864568 -0.0031745434 -0.87361282
-0.9824391 0.0037413538 -0.87357974
-0.99040622 -0.0023997054 -0.87054926
-0.99967551 0.0038127974 -0.8748377
-1.0051391 0.00084843487 -0.86744606
-0.96150303 0.024624184 -0.88664049
-0.97350353 0.028173581 -0.88379306
-0.97780871 0.028530404 -0.88570821
-0.98418188 0.027495705 -0.88262773
-0.99181139 0.02913256 -0.8867808
-0.99696016 0.027956337 -0.88010633
-0.96529627 0.021188617 -0.88553959
-0.97038245 0.016995907 -0.88126171
-0.98563081 0.022114322 -0.88558799
-0.99128044 0.016517013 -0.88131624
-0.96714634 0.0051895157 -0.879219
-0.98626304 0.010487884 -0.8839516
-0.99089503 0.011938967 -0.88002598
-0.99966806 0.006721206 -0.87727976
-0.96860039 -0.00051800907 -0.8754589
-0.96995091 -0.00066696852 -0.87624276
-0.97933936 -0.00130371 -0.87611598
-0.98726392 -0.00036214292 -0.87822527
-0.9665767 0.035018712 -0.89774048
-0.97922689 0.033526197 -0.89480311
-0.9660731 0.022871122 -0.89249265
-0.98101062 0.026596248 -0.89284521
-0.98548299 0.026564643 -0.89445627
-0.98974299 0.026149511 -0.89121062
-0.96853161 0.018737301 -0.89020258
-0.96881652 0.017698288 -0.88901317
-0.97947901 0.016287714 -0.89235955
-0.98779368 0.017151818 -0.89148045
-0.96190995 0.0062238574 -0.88712984
-0.96553397 0.0076511204 -0.890459
-0.97752261 0.006671831 -0.89207971
-0.98295009 0.0057708323 -0.8917082
-0.99572319 0.0077548176 -0.88677251
-0.96617615 0.001030013 -0.88779068
-0.97516543 0.0012051612 -0.89168692
-0.96903276 0.035914585 -0.90256745
-0.97859383 0.035547003 -0.90320438
-0.98533887 0.035347506 -0.90328473
-0.99090946 0.036430538 -0.90268046
-0.96011502 0.026037678 -0.90120292
-0.97843546 0.024735093 -0.90468717
-0.98552299 0.023707166 -0.90498573
-0.99014151 0.025645033 -0.90315986
-0.96666229 0.018617123 -0.89738518
-0.97867382 0.019220978 -0.90060157
-0.98602664 0.015102357 -0.90005362
-0.99363172 0.01511547 -0.89970857
-0.96704429 0.0089584738 -0.90206826
-0.97203565 0.0082055181 -0.90013576
-0.98075348 0.0050716102 -0.89701664
-0.98471451 0.0055556297 -0.89951855
-0.99211842 0.0073572993 -0.90282667
-0.97282481 0.038923338 -0.91274726
-0.99147165 0.04099521 -0.91364723
-1.0046197 0.041513279 -0.91739333
-0.96612239 0.0301494 -0.91530478
-0.98131841 0.035685077 -0.91103667
-0.98523885 0.03132242 -0.91312617
-0.99272275 0.035297662 -0.9125123
-0.99870431 0.034565076 -0.91206902
-1.0068015 0.032159135 -0.91312003
-1.0233796 0.032420367 -0.91379774
-0.96245915 0.027852714 -0.91377169
-0.97459984 0.022062972 -0.91094708
-0.98002422 0.02321963 -0.91298425
-0.9861868 0.02462396 -0.91040385
-0.97431874 0.011457756 -0.91280758
-0.97829032 0.015572727 -0.91124803
-0.98455089 0.012603402 -0.90876544
-0.99666035 0.017008305 -0.91270465
-0.97247654 0.0035116076 -0.90494674
-0.97867471 0.0059386939 -0.90865391
-0.98391014 0.0058252364 -0.90871882
-0.98301691 0.041292325 -0.92159426
-0.99104124 0.042281389 -0.92208898
-0.99657059 0.043965578 -0.92464083
-0.97010523 0.029320851 -0.92053026
-0.97983801 0.030384272 -0.9174937
-0.98769498 0.031730667 -0.92505717
-0.9912107 0.030117318 -0.91924489
-1.0002269 0.031633198 -0.92500156
-1.0053908 0.034993961 -0.92173052
-0.97269404 0.021848202 -0.91859049
-0.97724879 0.022836372 -0.92212552
-0.98709589 0.026862681 -0.9231562
-0.98997062 0.024102524 -0.92019308
-0.9986639 0.021914348 -0.91914874
-1.0058721 0.023927972 -0.91969496
-0.97405726 0.011585474 -0.91787946
-0.9809081 0.015877441 -0.91955596
-0.98450142 0.013328075 -0.91946131
-0.99310035 0.014352486 -0.91776276
-1.0000134 0.015648171 -0.91949451
-1.0015097 0.046504647 -0.93446445
-1.0067636 0.046027318 -0.93604594
-0.98786014 0.040969193 -0.93420005
-0.98944068 0.042733163 -0.93125319
-0.99924821 0.038251147 -0.9315834
-1.005126 0.041915417 -0.93234569
-1.0096991 0.040527806 -0.93715024
-1.0162458 0.040728256 -0.93085712
-1.0319405 0.038158804 -0.93238753
-0.98526746 0.028015867 -0.9285354
-0.99291891 0.030964047 -0.93315148
-0.9993425 0.030674443 -0.93094027
-1.004931 0.032819137 -0.93167436
-1.0187691 0.031838045 -0.9282738
-1.0277542 0.034337178 -0.92975873
-0.98566353 0.02321814 -0.92943192
-0.99458307 0.021374255 -0.93222237
-1.0006473 0.020813346 -0.92783672
-1.0042826 0.020644277 -0.93091959
-1.0123549 0.021411851 -0.93143415
-0.97283494 0.0095918328 -0.93281859
-0.97500372 0.015684366 -0.92715311
-0.98469585 0.01161088 -0.92861921
-0.99127012 0.011837527 -0.92745209
-0.99660271 0.011693686 -0.927921
-1.0031092 0.014171928 -0.92760247
-0.98437643 0.044898093 -0.93967646
-0.98925179 0.047404379 -0.94474733
-0.99854016 0.047622994 -0.94384015
-1.0078703 0.049367592 -0.94690794
-1.0183735 0.044633403 -0.9469946
-1.0271661 0.043984771 -0.94645518
-1.0339509 0.052198261 -0.94581139
-0.99560696 0.041671887 -0.94056869
-1.0134622 0.038269266 -0.94276494
-1.0180746 0.04207015 -0.94277579
-1.0391808 0.03781122 -0.94232976
-0.98043597 0.029674828 -0.94423395
-0.98999959 0.030445561 -0.93862689
-1.0012698 0.031110838 -0.9432621
-1.0049475 0.030168787 -0.94008511
-1.0123228 0.028280988 -0.93679655
-1.0291773 0.02840279 -0.94029504
-0.98474824 0.016911536 -0.93811077
-0.99201715 0.020255029 -0.94197518
-0.99523425 0.02097328 -0.93675429
-1.0039308 0.018522575 -0.93924153
-1.0512625 0.024270326 -0.93765533
-0.99930358 0.045857787 -0.95034778
-1.0052004 0.047153115 -0.95076007
-1.0122297 0.043718442 -0.95402378
-1.0164081 0.049249113 -0.9480142
-1.025967 0.047547996 -0.95393956
-0.99392027 0.038377017 -0.94838643
-0.99593836 0.033862963 -0.94958478
-1.0036383 0.036532491 -0.95406413
-1.0102057 0.037517861 -0.95163226
-1.0291111 0.037397519 -0.95120591
-0.99086434 0.026698664 -0.94993895
-0.99972177 0.026675254 -0.94986147
-1.0056081 0.025408551 -0.94875473
-1.0133345 0.026799753 -0.94819403
-1.0174034 0.031897098 -0.95044494
-1.025453 0.026586786 -0.94945371
-1.0341233 0.026248276 -0.94892877
-0.98480803 0.020359829 -0.95170718
-0.99304533 0.020834401 -0.94877678
-0.99928296 0.017448038 -0.94881105
-1.0109991 0.019214138 -0.94693601
-1.0215915 0.020270556 -0.94800878
-0.97778785 0.012945905 -0.94423938
-1.0040131 0.05152607 -0.9606908
-1.014231 0.052230567 -0.95935142
-1.022845 0.052223787 -0.96022868
-1.0036319 0.049461707 -0.96508628
-1.0104043 0.044501737 -0.96322477
-1.0254081 0.046222061 -0.96294063
-1.0316226 0.046303228 -0.96066123
-1.0372585 0.048201144 -0.96227163
-0.99364519 0.032262564 -0.95937324
-1.0003754 0.036441639 -0.95707595
-1.0103948 0.035869747 -0.96015012
-1.0187505 0.037535593 -0.9605673
-1.0299031 0.033309817 -0.96224207
-1.0380563 0.033860877 -0.95760286
-0.99016231 0.024792001 -0.95603269
-1.0002261 0.027048841 -0.95498669
-1.0060254 0.024389893 -0.96123725
-1.0086215 0.028423488 -0.95810062
-1.0169348 0.027672142 -0.96081299
-1.0242714 0.022596762 -0.95660049
-1.0326811 0.029964283 -0.95582092
-0.99275833 0.021357521 -0.95744556
-1.0105358 0.053807139 -0.97192317
-1.0303907 0.049888894 -0.97134954
-1.026721 0.041506857 -0.97196501
-1.0096174 0.032892331 -0.9674232
-1.0194354 0.035401687 -0.96755469
-1.0227817 0.034705684 -0.96985781
-1.032699 0.032375157 -0.96716094
-1.0354474 0.035034776 -0.9739567
-0.99758339 0.026864126 -0.96404815
-1.0064484 0.027488187 -0.96857756
-1.0122324 0.026524857 -0.96987742
-1.0238554 0.026791379 -0.96981943
-1.0112603 0.043278441 -0.97846764
-0.99776685 0.031743005 -0.97663182
-1.020294 0.030515015 -0.97744417
-1.0229198 0.029975966 -0.9765445
