# .PCD v0.7 - Point Cloud Data file format
VERSION 0.7
FIELDS x y z
SIZE 4 4 4
TYPE F F F
COUNT 1 1 1
WIDTH 1463
HEIGHT 1
VIEWPOINT 0 0 0 1 0 0 0
POINTS 1463
DATA ascii
1.1399062 -0.2832011 -1.3022908
1.1308299 -0.28585309 -1.3073075
1.3603461 -0.38031292 -1.2904422
1.3294538 -0.38651305 -1.2970884
1.3643465 -0.40046966 -1.2934943
1.3328489 -0.39273873 -1.2901969
1.2987607 -0.40010303 -1.2921224
1.2848722 -0.39263561 -1.2917234
1.2253213 -0.39622402 -1.2880187
1.3202242 -0.40770221 -1.2890366
1.3057646 -0.40497339 -1.2899565
1.2590832 -0.40409642 -1.2925198
1.2397038 -0.4015553 -1.2895156
1.2301694 -0.4007481 -1.2865086
1.1998758 -0.4059006 -1.2881355
1.1922269 -0.4058823 -1.2894773
1.183104 -0.40294194 -1.2870206
1.1317986 -0.40132236 -1.2873102
1.1288342 -0.40428036 -1.2846228
1.1298485 -0.2113106 -1.3255202
1.1174928 -0.21311273 -1.3215928
1.1478636 -0.22040205 -1.322957
1.1401643 -0.21712816 -1.3244021
1.1346546 -0.21808948 -1.3189348
1.1271435 -0.21798702 -1.3231184
1.1188101 -0.22093666 -1.3235573
1.1138482 -0.21670949 -1.3239398
1.1088419 -0.21679813 -1.3250365
1.1456439 -0.22981501 -1.3210753
1.1179402 -0.22397146 -1.3227104
1.1096853 -0.22401969 -1.3229803
1.1381686 -0.24077395 -1.3218759
1.1351603 -0.23703977 -1.3174586
1.129415 -0.23421296 -1.3253967
1.1076657 -0.23979355 -1.3189991
1.1394728 -0.2483314 -1.3201597
1.1286217 -0.25020415 -1.316596
1.1182523 -0.24351855 -1.3187966
1.1144534 -0.25093731 -1.321159
1.1071074 -0.24683082 -1.3164401
1.1434895 -0.25882003 -1.3185508
1.1332591 -0.25639993 -1.315185
1.1271528 -0.25383729 -1.3200736
1.09627 -0.25476193 -1.319329
1.1442133 -0.26766136 -1.3153142
1.1311915 -0.26597661 -1.3162024
1.1246324 -0.26191276 -1.3213991
1.1060476 -0.26239401 -1.3137815
1.1035842 -0.26954123 -1.3142433
1.1414709 -0.27784914 -1.3194888
1.1366014 -0.27105328 -1.3198156
1.1270021 -0.27124903 -1.3162166
1.1232535 -0.27120522 -1.3196363
1.11492 -0.273294 -1.3123043
1.1142342 -0.28177458 -1.3132589
1.3422362 -0.38875648 -1.3034507
1.3339803 -0.3837927 -1.2998737
1.2338164 -0.39205119 -1.3019449
1.3529562 -0.39404175 -1.3004905
1.3150804 -0.40102142 -1.3031095
1.3085536 -0.39851481 -1.2994647
1.2877793 -0.39269251 -1.2981147
1.2392107 -0.39691263 -1.299274
1.1922348 -0.39954513 -1.2982718
1.1406438 -0.39781153 -1.2989624
1.357725 -0.40631399 -1.3009506
1.3211436 -0.40320015 -1.3001697
1.2611624 -0.40458536 -1.2973777
1.2085356 -0.40337527 -1.3001057
1.1543523 -0.20608112 -1.3372782
1.137977 -0.21191284 -1.3292346
1.1348453 -0.20653158 -1.3298746
1.125535 -0.2088591 -1.3366995
1.1239368 -0.20959312 -1.3326703
1.1152276 -0.21578246 -1.3368424
1.1612195 -0.22382936 -1.3362762
1.1546611 -0.21963567 -1.3302971
1.1510522 -0.22155049 -1.3358537
1.141519 -0.21633628 -1.3338743
1.1280197 -0.21986648 -1.334106
1.1456476 -0.23308253 -1.3339144
1.1352841 -0.23285684 -1.3315084
1.130625 -0.23034035 -1.333304
1.1229135 -0.22996426 -1.3264768
1.1141988 -0.23342241 -1.3311217
1.1484901 -0.2367554 -1.3337965
1.1422243 -0.23700397 -1.3288629
1.1367484 -0.23800653 -1.3288333
1.1266309 -0.24019283 -1.3298345
1.1156317 -0.23615502 -1.3311262
1.106833 -0.23652852 -1.3313917
1.150654 -0.24520534 -1.3297826
1.1399133 -0.24455133 -1.3295028
1.1312783 -0.25139326 -1.332638
1.1296666 -0.25034851 -1.3312397
1.1075429 -0.24824624 -1.3312606
1.1443003 -0.26051438 -1.3241726
1.1323222 -0.2579574 -1.3272773
1.1153611 -0.25782353 -1.3242551
1.1332883 -0.26453921 -1.3221467
1.121287 -0.26969379 -1.3283467
1.1006488 -0.2652097 -1.3213418
1.1483673 -0.27615118 -1.3249424
1.1373185 -0.27593976 -1.3220502
1.1236874 -0.27245894 -1.3265177
1.3792653 -0.37228701 -1.3171543
1.3382815 -0.38217682 -1.3115598
1.3036058 -0.3851997 -1.3164023
1.3633366 -0.39019126 -1.3153541
1.3573253 -0.3866545 -1.3089504
1.2964711 -0.38842309 -1.3123631
1.1900146 -0.38990521 -1.3129578
1.371901 -0.3956455 -1.310505
1.3171169 -0.39640087 -1.3146888
1.2705548 -0.40109128 -1.3089511
1.2614018 -0.39964646 -1.3089995
1.2557386 -0.3941609 -1.3106486
1.2180723 -0.39867783 -1.3121072
1.1609983 -0.40057182 -1.3073961
1.1467229 -0.39762563 -1.3066651
1.3276554 -0.4029566 -1.3057702
1.1348467 -0.20753132 -1.3468145
1.1311464 -0.20146371 -1.3465748
1.1516787 -0.21619807 -1.3412385
1.1413881 -0.21320078 -1.3457041
1.1320086 -0.20765664 -1.341664
1.1197913 -0.2122158 -1.339451
1.1131891 -0.21015692 -1.3392024
1.1570948 -0.22274934 -1.3442509
1.1486353 -0.22312602 -1.3428032
1.1199985 -0.22408357 -1.3435111
1.1354581 -0.23345412 -1.337718
1.1238441 -0.23235528 -1.3433971
1.1553253 -0.24115315 -1.3417217
1.1450567 -0.23828369 -1.3372598
1.1357462 -0.24322531 -1.3369857
1.1409333 -0.25186771 -1.3365093
1.1353819 -0.25130981 -1.3360817
1.1304039 -0.24858554 -1.3386148
1.1226697 -0.25278482 -1.3379283
1.1128814 -0.24869573 -1.3394963
1.1478603 -0.26080203 -1.334594
1.1390611 -0.25501683 -1.3386657
1.1341962 -0.26159623 -1.3350278
1.1301126 -0.25839272 -1.3380568
1.1225486 -0.25539392 -1.3370794
1.1052927 -0.26103449 -1.338639
1.1390361 -0.27307859 -1.3376707
1.1233556 -0.26633435 -1.332986
1.1108476 -0.27117717 -1.3311757
1.1075633 -0.27179575 -1.3299549
1.376528 -0.37836343 -1.3282831
1.319537 -0.39129224 -1.3239675
1.2572932 -0.38924164 -1.3248048
1.1905884 -0.3873778 -1.3192155
1.3958673 -0.39789689 -1.3260474
1.3646277 -0.4010947 -1.3189667
1.3243964 -0.39706945 -1.3162626
1.2799472 -0.39759719 -1.3205245
1.2774309 -0.39760697 -1.3180746
1.2221198 -0.39908499 -1.3173555
1.2100462 -0.39832297 -1.3146367
1.1699054 -0.39703631 -1.3191298
1.1556671 -0.39429826 -1.3176862
1.1303161 -0.20476002 -1.3523867
1.1197289 -0.20568749 -1.3534929
1.1128138 -0.2052729 -1.3532606
1.1534907 -0.21469079 -1.3490423
1.1477382 -0.21552655 -1.3539371
1.1411678 -0.21156716 -1.3527623
1.1343317 -0.2119154 -1.3483347
1.1519319 -0.21777238 -1.3476939
1.1382043 -0.22191145 -1.351825
1.126732 -0.2257778 -1.349908
1.108907 -0.2241258 -1.3473312
1.1463108 -0.23282978 -1.3497132
1.1415396 -0.22851709 -1.3499234
1.135125 -0.22993025 -1.3481913
1.1282064 -0.23236442 -1.3461157
1.1662083 -0.24524485 -1.3501419
1.1429182 -0.24017093 -1.3483282
1.1288553 -0.24612904 -1.3492891
1.1153497 -0.23764148 -1.3516358
1.139215 -0.24998516 -1.351213
1.1318933 -0.24976918 -1.3494686
1.1197177 -0.24690998 -1.3512263
1.1647162 -0.26398194 -1.3479948
1.1439464 -0.25570709 -1.3432119
1.1197093 -0.26141971 -1.3497555
1.1122166 -0.25894287 -1.3462399
1.1472805 -0.27148616 -1.3404871
1.1346067 -0.27137244 -1.3404335
1.1289259 -0.2663855 -1.3424833
1.1233363 -0.26768982 -1.3454056
1.1174811 -0.2666437 -1.3456706
1.3681864 -0.38363332 -1.33377
1.3610104 -0.38079202 -1.3299583
1.3129724 -0.38148177 -1.328742
1.3051628 -0.38415366 -1.3266114
1.2740457 -0.38653225 -1.332468
1.2508066 -0.3837055 -1.329797
1.3337122 -0.39311749 -1.3294157
1.3246087 -0.39128083 -1.3310595
1.2133925 -0.38919765 -1.3287808
1.206394 -0.38815159 -1.3300599
1.1788125 -0.39350086 -1.3308636
1.1739681 -0.39548498 -1.3307993
1.2824532 -0.39870083 -1.3284301
1.1756648 -0.39715338 -1.325418
1.1406624 -0.20059755 -1.3666642
1.1262687 -0.20121805 -1.3677833
1.1247636 -0.19605607 -1.3663434
1.1454393 -0.20747417 -1.3675369
1.141068 -0.2069082 -1.3593632
1.1334449 -0.20701098 -1.3620564
1.1205668 -0.20423959 -1.3622239
1.15532 -0.21527685 -1.3649539
1.1516403 -0.21874562 -1.3616287
1.1324271 -0.21881068 -1.3652992
1.1088768 -0.21784317 -1.3631518
1.1255606 -0.21992682 -1.3594557
1.1203828 -0.22408524 -1.3576764
1.1154468 -0.21965638 -1.3616215
1.1497018 -0.23364489 -1.3583765
1.1418173 -0.23248486 -1.3573408
1.1338626 -0.24110746 -1.3545675
1.1164726 -0.24298953 -1.3537005
1.1092743 -0.2399682 -1.3543717
1.1549097 -0.25485748 -1.3531576
1.1487162 -0.25210136 -1.3577689
1.142031 -0.25018901 -1.3546934
1.123518 -0.25229543 -1.3559968
1.1601613 -0.26269001 -1.3548547
1.1391423 -0.25900236 -1.3591582
1.1372012 -0.25721583 -1.3538533
1.1099367 -0.25685924 -1.3559362
1.1441016 -0.2670365 -1.3583403
1.3559914 -0.37020013 -1.3460909
1.4004627 -0.38026962 -1.3453368
1.355937 -0.37350431 -1.3405027
1.3548723 -0.38867289 -1.3380078
1.3279225 -0.38454878 -1.342998
1.3138545 -0.37988424 -1.34086
1.2663344 -0.38540614 -1.3375702
1.2593017 -0.37953264 -1.3437233
1.4034849 -0.39303237 -1.3432001
1.2962755 -0.38933367 -1.3415159
1.2844366 -0.39386666 -1.3354652
1.2405096 -0.39224374 -1.3400158
1.236269 -0.39145505 -1.3360786
1.2278658 -0.39076358 -1.3397958
1.1846706 -0.39380318 -1.3365147
1.1310892 -0.39530215 -1.3331538
1.4006693 -0.3990494 -1.3406625
1.144853 -0.20273723 -1.3775011
1.1281713 -0.19709362 -1.3774459
1.1201032 -0.19701906 -1.3712375
1.1523201 -0.20974591 -1.3677875
1.1500872 -0.20885059 -1.3736943
1.1415397 -0.20815815 -1.3700545
1.1204823 -0.21028824 -1.3740143
1.1478508 -0.22119553 -1.3721081
1.1437743 -0.21302791 -1.3706528
1.1171689 -0.21574847 -1.3719159
1.1480112 -0.22880778 -1.369676
1.1406193 -0.22658946 -1.3678472
1.1097667 -0.22862943 -1.3671963
1.1459231 -0.23579054 -1.3671536
1.1410075 -0.2396058 -1.3720318
1.1282929 -0.23301315 -1.3706379
1.1197802 -0.23668399 -1.3668213
1.116976 -0.23738156 -1.3660693
1.107885 -0.23321812 -1.3701689
1.1666548 -0.24005058 -1.3694413
1.1423467 -0.24593756 -1.3714296
1.1363705 -0.2481308 -1.3654239
1.1435924 -0.25089976 -1.3622512
1.1174784 -0.25448689 -1.3628224
1.1056482 -0.25344053 -1.3627409
1.0948923 -0.25020233 -1.3644693
1.1349776 -0.26605001 -1.3595405
1.1241148 -0.26211026 -1.3601656
1.1508725 -0.27332148 -1.3585905
1.1374829 -0.26815465 -1.3661256
1.3647648 -0.36916807 -1.3549742
1.3758014 -0.37842911 -1.3504099
1.361717 -0.38349757 -1.355872
1.3370527 -0.38224959 -1.352631
1.2955569 -0.3884359 -1.3528042
1.2902086 -0.38864452 -1.3496895
1.2349017 -0.38426065 -1.3517171
1.220193 -0.38557547 -1.3440236
1.1760238 -0.38376814 -1.345571
1.1411548 -0.3885293 -1.3488517
1.3475478 -0.39298451 -1.3453465
1.2898259 -0.39366224 -1.3445402
1.1936761 -0.39045301 -1.3476114
1.1822146 -0.39143431 -1.3443178
1.1332264 -0.39085284 -1.3469629
1.0882938 -0.39353418 -1.3405786
1.1209704 -0.19222847 -1.3836161
1.1124845 -0.18925077 -1.3870329
1.1422851 -0.20305884 -1.3852522
1.1369358 -0.19549146 -1.3834902
1.1511497 -0.20480102 -1.3865325
1.1425231 -0.20824106 -1.3807697
1.1374485 -0.20432767 -1.3834862
1.1244824 -0.20993692 -1.3839421
1.1296237 -0.21650872 -1.3777063
1.1219866 -0.21518697 -1.3759121
1.1147766 -0.21338215 -1.3785504
1.1536692 -0.22439206 -1.3837073
1.1442409 -0.22603405 -1.3790957
1.1364906 -0.22394562 -1.3793696
1.1283103 -0.22936496 -1.3808198
1.113785 -0.22895586 -1.3802527
1.1514407 -0.23428291 -1.3755214
1.1545506 -0.24899241 -1.3772001
1.1479919 -0.24764836 -1.3729309
1.1428814 -0.24610496 -1.374238
1.1054853 -0.2428616 -1.3748672
1.1021026 -0.24473479 -1.3773605
1.1606079 -0.25749573 -1.3741541
1.1402061 -0.25283542 -1.3726786
1.1357573 -0.25459599 -1.3776251
1.1282957 -0.25804508 -1.3731813
1.1187465 -0.25255665 -1.3762791
1.1128261 -0.25295424 -1.3774328
1.1425066 -0.26584667 -1.3732636
1.1341664 -0.2635375 -1.3740344
1.1126349 -0.27009696 -1.3698753
1.3834165 -0.37322491 -1.3670497
1.3945645 -0.38117293 -1.3615367
1.3381823 -0.37859029 -1.3584847
1.2420617 -0.37795171 -1.3629594
1.1914442 -0.38098884 -1.3617709
1.1778467 -0.38108957 -1.3601347
1.355101 -0.38782269 -1.3618507
1.3499496 -0.38871986 -1.3559704
1.3114682 -0.39074993 -1.3577358
1.2971985 -0.38862363 -1.3606505
1.2586536 -0.38962001 -1.3623406
1.2285619 -0.3814646 -1.3577429
1.1966265 -0.38642994 -1.3543315
1.1870663 -0.38597178 -1.3569616
1.1493075 -0.38690183 -1.3576218
1.1412958 -0.38688919 -1.360191
1.0964737 -0.38715354 -1.3548523
1.4068928 -0.39326346 -1.3639371
1.3964554 -0.39336991 -1.3600416
1.0969431 -0.39031649 -1.3512363
1.1393485 -0.19227922 -1.396364
1.1244889 -0.18882184 -1.39187
1.1503749 -0.20125178 -1.3942034
1.1404655 -0.20202892 -1.3905383
1.1082438 -0.20411076 -1.3944149
1.1538156 -0.2131265 -1.3916383
1.1342676 -0.2123335 -1.3950034
1.1277218 -0.2084484 -1.3893527
1.1445372 -0.21898572 -1.3895469
1.1361847 -0.21983653 -1.3870606
1.1504555 -0.23057944 -1.3865952
1.1448272 -0.22518381 -1.3885139
1.1353548 -0.23117319 -1.3899992
1.1177044 -0.22915585 -1.3840406
1.1480302 -0.24099396 -1.3896132
1.1389297 -0.24147364 -1.3910922
1.1380436 -0.24190664 -1.3897094
1.1237481 -0.23294601 -1.3847862
1.1442249 -0.24536051 -1.3849026
1.1383946 -0.2432175 -1.3844972
1.1225076 -0.24479496 -1.3882399
1.159217 -0.2558651 -1.3804634
1.1440698 -0.25819036 -1.3805559
1.1255087 -0.25618815 -1.3867642
1.1549089 -0.26743644 -1.379472
1.1483302 -0.26624924 -1.3807275
1.1371291 -0.26334733 -1.3851649
1.1677682 -0.27298582 -1.3778416
1.1531281 -0.27285832 -1.3818911
1.1620386 -0.28985384 -1.3838421
1.3735925 -0.36483181 -1.3694456
1.3685616 -0.37832221 -1.373736
1.3458118 -0.377947 -1.3669902
1.3069433 -0.38032684 -1.3732997
1.2901311 -0.37764362 -1.3692771
1.1957861 -0.38227269 -1.3692731
1.3733203 -0.39086801 -1.3716326
1.3242298 -0.38660768 -1.3660593
1.2989442 -0.38460207 -1.3681332
1.2502544 -0.38375324 -1.3691999
1.2055335 -0.38289446 -1.3660653
1.1700553 -0.38772202 -1.3690755
1.1575608 -0.38545442 -1.3657724
1.1055926 -0.38709879 -1.3618942
1.1183418 -0.18482186 -1.4023205
1.1607296 -0.19095287 -1.4002208
1.1465725 -0.1945748 -1.4040139
1.1433015 -0.18996519 -1.4049672
1.1213276 -0.19617774 -1.3984717
1.1499792 -0.19985618 -1.4052778
1.1410075 -0.20179273 -1.4006972
1.1352344 -0.20325121 -1.4032569
1.1296172 -0.2049765 -1.3985841
1.1211226 -0.19979003 -1.4019097
1.1563734 -0.20723718 -1.4018366
1.1430433 -0.21503788 -1.4014987
1.1476295 -0.22257552 -1.3973119
1.1226163 -0.22298454 -1.3961921
1.116405 -0.22388892 -1.4013846
1.1290684 -0.22833356 -1.4014157
1.1616102 -0.23454434 -1.3967054
1.1428844 -0.24128516 -1.4003294
1.1556357 -0.24495982 -1.3958616
1.1459849 -0.24705257 -1.3918861
1.143211 -0.24845503 -1.3915042
1.1266675 -0.24681512 -1.3933294
1.1192248 -0.24850884 -1.3905307
1.1459498 -0.26230761 -1.3958119
1.1437383 -0.25548828 -1.3961276
1.1326368 -0.25616026 -1.3970307
1.1315112 -0.25368822 -1.3924583
1.1517053 -0.262952 -1.3974648
1.3824204 -0.36049557 -1.383917
1.3751525 -0.36136597 -1.3854713
1.2986906 -0.37343907 -1.383309
1.2025589 -0.37323555 -1.3805275
1.1703181 -0.36881858 -1.3771223
1.4021189 -0.37634873 -1.3785474
1.3936889 -0.37765491 -1.3820555
1.3694271 -0.38030902 -1.3790603
1.3470842 -0.37592077 -1.3801712
1.3045713 -0.38358501 -1.3767607
1.2586859 -0.37961161 -1.3830216
1.2503136 -0.38067448 -1.379729
1.1860332 -0.37706831 -1.3735549
1.1663847 -0.38217181 -1.3766452
1.1373322 -0.37680766 -1.3755538
1.347147 -0.38854313 -1.3830003
1.2676284 -0.38581264 -1.3750123
1.2491933 -0.38446426 -1.3752414
1.2168797 -0.38480788 -1.3791491
1.1788396 -0.38423532 -1.3806477
1.1596944 -0.38750601 -1.3709679
1.1244508 -0.38633546 -1.3747141
1.1137559 -0.3851971 -1.3737837
1.1524233 -0.19439529 -1.4137772
1.1391588 -0.19412071 -1.4105133
1.1174346 -0.19161519 -1.4150757
1.1547492 -0.20196809 -1.4116195
1.1348397 -0.20055382 -1.4150425
1.1275345 -0.2014246 -1.4109505
1.153861 -0.21528436 -1.4097854
1.1389117 -0.2081583 -1.4123007
1.1170822 -0.21159984 -1.4113102
1.1536146 -0.22484377 -1.4082978
1.1473885 -0.22164099 -1.4060105
1.1428646 -0.21862587 -1.4070808
1.1296924 -0.22016189 -1.4096019
1.12481 -0.22046977 -1.4055841
1.151933 -0.22702973 -1.4048046
1.1374481 -0.23150951 -1.4073581
1.1183546 -0.23464356 -1.4038447
1.1550298 -0.2442174 -1.4092337
1.1404188 -0.2383042 -1.4035705
1.1356088 -0.23713613 -1.4078913
1.1223372 -0.2413111 -1.4074575
1.1173671 -0.23723684 -1.4023836
1.1376551 -0.24963023 -1.4080426
1.1695127 -0.25629276 -1.4018482
1.136775 -0.25854003 -1.4042039
1.1633765 -0.2734189 -1.4032872
1.1367515 -0.27419779 -1.4014245
1.4096735 -0.37152457 -1.395558
1.375406 -0.37314689 -1.3916003
1.3633305 -0.36934182 -1.3957084
1.2423995 -0.37315437 -1.3926067
1.1904175 -0.37064761 -1.3916438
1.3648124 -0.37922868 -1.3894373
1.3119441 -0.37854642 -1.392871
1.2766035 -0.3820053 -1.3876841
1.2256619 -0.38108233 -1.3915486
1.2069539 -0.37928218 -1.3848733
1.20338 -0.38049638 -1.3891668
1.1682919 -0.38385877 -1.3831066
1.1574342 -0.37896186 -1.386647
1.1330564 -0.38291967 -1.3860508
1.122291 -0.38180226 -1.3850572
1.3213334 -0.38666087 -1.3835167
1.1487552 -0.18798302 -1.4231857
1.1428176 -0.18942994 -1.4209678
1.138853 -0.18351083 -1.4214451
1.1158029 -0.1888669 -1.418673
1.148809 -0.1949113 -1.4240229
1.1439606 -0.19734491 -1.4190512
1.1359763 -0.19422817 -1.4206831
1.1199585 -0.19525297 -1.4249902
1.1603984 -0.20435588 -1.421209
1.1506211 -0.20219231 -1.4190178
1.1416062 -0.20177868 -1.4187831
1.1328573 -0.20024399 -1.4228512
1.1475587 -0.21353717 -1.4184394
1.1442143 -0.21842109 -1.4207907
1.1300325 -0.21604709 -1.4220425
1.1249155 -0.21168008 -1.4208103
1.1634939 -0.2241572 -1.4177588
1.122305 -0.2194279 -1.4167831
1.1612571 -0.23631191 -1.4156448
1.1579148 -0.23021683 -1.4143754
1.1475747 -0.22929934 -1.4190116
1.124789 -0.23053458 -1.4183336
1.1137576 -0.22869483 -1.4166396
1.1546972 -0.24142729 -1.4136207
1.1489309 -0.24148807 -1.4122792
1.1358848 -0.24008587 -1.4160128
1.161501 -0.24710716 -1.4127526
1.151826 -0.24721006 -1.4158032
1.130231 -0.25048792 -1.4112154
1.1485379 -0.25951901 -1.4132389
1.1331638 -0.26435012 -1.4156297
1.3986466 -0.36281645 -1.4003291
1.354576 -0.37080076 -1.3965417
1.3376921 -0.3764286 -1.4011954
1.3072504 -0.36923453 -1.3973411
1.2671173 -0.37546998 -1.3968436
1.2573985 -0.37615019 -1.3956821
1.2152002 -0.3752315 -1.3983917
1.3286455 -0.38199151 -1.3999814
1.2946146 -0.38462228 -1.393195
1.1876237 -0.38074869 -1.3922195
1.1773748 -0.38068789 -1.3965698
1.1416301 -0.38246304 -1.3969687
1.131541 -0.3774457 -1.3938679
1.1296393 -0.38080001 -1.39937
1.1415521 -0.18730533 -1.430316
1.1283088 -0.18945825 -1.4337623
1.1221479 -0.18481505 -1.4329605
1.1137986 -0.18574527 -1.4282812
1.1488465 -0.19625074 -1.4357786
1.1397631 -0.19249068 -1.4283142
1.1348811 -0.19289953 -1.4332162
1.1435558 -0.20398308 -1.429598
1.1157178 -0.21011296 -1.4323723
1.1115811 -0.2029011 -1.4262373
1.1574605 -0.21834241 -1.4300677
1.1500772 -0.21010008 -1.4268692
1.1373599 -0.21590315 -1.4252228
1.1699525 -0.22788712 -1.4246951
1.1533244 -0.2197727 -1.4261686
1.1412332 -0.22733852 -1.425496
1.1213382 -0.2249711 -1.4290669
1.1474181 -0.23709473 -1.4293665
1.1444041 -0.23669955 -1.4284999
1.1252253 -0.23154037 -1.4290426
1.1056197 -0.22940186 -1.424467
1.1724064 -0.24671687 -1.4240024
1.157594 -0.23866323 -1.4240835
1.1423352 -0.24542281 -1.4254732
1.1459706 -0.2562803 -1.4185179
1.136421 -0.25373274 -1.423243
1.1246572 -0.24836339 -1.4260677
1.1687589 -0.2576631 -1.4215925
1.3720895 -0.36503923 -1.4100674
1.3158098 -0.36502996 -1.411373
1.3777599 -0.37233716 -1.4113635
1.3722438 -0.37448311 -1.4061708
1.3193167 -0.37350783 -1.4089813
1.301236 -0.37961566 -1.4104769
1.2755489 -0.37132835 -1.4106655
1.2635949 -0.37462205 -1.4067105
1.2354783 -0.37740782 -1.4069607
1.2104167 -0.37568742 -1.4045429
1.1854869 -0.37656426 -1.4073843
1.1502675 -0.37608811 -1.4087241
1.3765956 -0.38331091 -1.409445
1.104978 -0.17202374 -1.4480158
1.135214 -0.17924953 -1.4388447
1.121279 -0.18207087 -1.4405439
1.1061149 -0.1776668 -1.4472247
1.1476386 -0.18996641 -1.4427679
1.1359423 -0.18704896 -1.4381602
1.125816 -0.19082408 -1.4402778
1.1576879 -0.1982991 -1.4426389
1.1398133 -0.1952751 -1.4391209
1.1292183 -0.19598271 -1.4402508
1.1179261 -0.19884925 -1.4405246
1.1102688 -0.19886012 -1.4364283
1.1490734 -0.20763531 -1.4393477
1.1438639 -0.21127816 -1.441202
1.1359471 -0.21041323 -1.4415327
1.1482859 -0.21441567 -1.4345332
1.1405125 -0.21343178 -1.4378151
1.1368057 -0.21580379 -1.4372556
1.1542192 -0.22588928 -1.4320452
1.1192205 -0.22165218 -1.4333149
1.111477 -0.22497295 -1.4397546
1.1574442 -0.23108765 -1.4328603
1.1512524 -0.23549095 -1.4327496
1.1450921 -0.23455162 -1.4338477
1.1177611 -0.23826207 -1.4373235
1.1637106 -0.24359369 -1.4308627
1.1481304 -0.24288252 -1.4334731
1.1356381 -0.24381015 -1.4313555
1.1204182 -0.24703364 -1.4360425
1.145298 -0.25398314 -1.43345
1.3959101 -0.36730027 -1.4224746
1.3637642 -0.36304939 -1.423555
1.3444232 -0.37133908 -1.4187634
1.2707957 -0.36970097 -1.4224451
1.3932954 -0.37732744 -1.4219314
1.3359575 -0.37732214 -1.4164461
1.3202195 -0.37974602 -1.4174578
1.2310572 -0.37715849 -1.4185206
1.1940845 -0.37291706 -1.4195232
1.1859878 -0.37717193 -1.411218
1.1793914 -0.37814444 -1.4161217
1.1177058 -0.17405806 -1.4542675
1.1431746 -0.18437295 -1.4483538
1.1308969 -0.17948096 -1.4516693
1.1192082 -0.17954749 -1.4505758
1.1069604 -0.17721452 -1.4556096
1.1518275 -0.19190513 -1.4544545
1.1432172 -0.19221364 -1.4530663
1.1394119 -0.18772155 -1.4472021
1.1260904 -0.19268459 -1.4541193
1.1344332 -0.19492827 -1.4463868
1.1177493 -0.19518572 -1.4486909
1.1560518 -0.21179777 -1.4492537
1.1405028 -0.21097228 -1.4439607
1.1215752 -0.20568407 -1.44766
1.1579428 -0.21826893 -1.4424554
1.1509248 -0.21842727 -1.4474404
1.1157123 -0.21472451 -1.4455694
1.1423 -0.22420728 -1.4464824
1.1304479 -0.22711769 -1.4455009
1.1604351 -0.23622088 -1.4454352
1.1482899 -0.23245843 -1.4496061
1.1404222 -0.23203306 -1.4454823
1.0949496 -0.23482008 -1.4472194
1.1720467 -0.24183109 -1.4433523
1.147015 -0.24121538 -1.4429039
1.1269423 -0.24065773 -1.4404933
1.1207055 -0.24373208 -1.4429219
1.178918 -0.25719509 -1.4430496
1.1595516 -0.25641337 -1.4403584
1.1723374 -0.26508236 -1.4360251
1.3890954 -0.36279625 -1.4273286
1.3243695 -0.36082542 -1.425405
1.385313 -0.36717531 -1.4278679
1.3279603 -0.36607292 -1.4334692
1.2839804 -0.36718673 -1.4244875
1.1816419 -0.36707088 -1.426331
1.3826307 -0.37819996 -1.4284648
1.3614041 -0.37660959 -1.4263245
1.3417875 -0.37501606 -1.423671
1.3078575 -0.37460902 -1.4277588
1.2860827 -0.3735376 -1.4269969
1.2448199 -0.37337822 -1.4235919
1.1455497 -0.37298465 -1.4254524
1.1615956 -0.17649715 -1.4584379
1.1140027 -0.17086744 -1.4655211
1.1112292 -0.17068438 -1.4627144
1.1556937 -0.17854135 -1.4586346
1.1476288 -0.18414854 -1.4602661
1.1296678 -0.18539752 -1.4561141
1.125448 -0.18601 -1.4629226
1.1552337 -0.19349083 -1.4609646
1.1125067 -0.19031768 -1.455145
1.1628958 -0.19905291 -1.4639076
1.1425099 -0.19973156 -1.4610366
1.1381235 -0.19873463 -1.4609925
1.1271085 -0.20042557 -1.4583814
1.1235675 -0.20217521 -1.4579225
1.1609477 -0.21388853 -1.4612808
1.1501881 -0.20959032 -1.4559575
1.1252501 -0.21286674 -1.4553941
1.1430004 -0.21580793 -1.4533074
1.1173344 -0.22054406 -1.4550421
1.1674509 -0.23042165 -1.4542422
1.1498313 -0.22905457 -1.4527811
1.1032094 -0.22508989 -1.4527227
1.1672184 -0.24065407 -1.4492425
1.1623942 -0.2367186 -1.4513513
1.1593904 -0.23704426 -1.4511782
1.1419291 -0.23909709 -1.4503182
1.1333768 -0.23654872 -1.4549822
1.1234438 -0.23439865 -1.4584745
1.1610738 -0.24713342 -1.456291
1.1436111 -0.24631137 -1.4563084
1.1389441 -0.24781686 -1.4527874
1.1614552 -0.25783682 -1.4548123
1.1562479 -0.25429964 -1.4553537
1.1810552 -0.26470524 -1.4498498
1.4047381 -0.36296403 -1.4369459
1.3928661 -0.36201346 -1.4443722
1.3711352 -0.35834223 -1.4401528
1.3350756 -0.35946855 -1.436515
1.3329293 -0.35662085 -1.4394369
1.2924119 -0.3630451 -1.4383094
1.2399395 -0.3630794 -1.4389472
1.1897111 -0.3631072 -1.4395591
1.3887628 -0.37201548 -1.441263
1.3492192 -0.36993712 -1.4399101
1.2779965 -0.36477986 -1.4381796
1.2383364 -0.37112582 -1.4355382
1.1862398 -0.37083775 -1.4313209
1.1535051 -0.36907697 -1.4384935
1.3261023 -0.37476432 -1.4359965
1.1670349 -0.37463152 -1.4324639
1.1591415 -0.17168888 -1.4767636
1.1517118 -0.17387486 -1.4756169
1.1454639 -0.17454341 -1.4722105
1.1127347 -0.17284861 -1.4706799
1.1426673 -0.18111119 -1.469487
1.1390607 -0.18295243 -1.4660902
1.1216303 -0.18343621 -1.4745425
1.115943 -0.18379635 -1.4709641
1.107072 -0.18186904 -1.4695673
1.1530204 -0.19140115 -1.4742793
1.1393831 -0.19654466 -1.4726322
1.1214192 -0.18885033 -1.472531
1.119418 -0.19319664 -1.4705794
1.1475778 -0.20480107 -1.4726118
1.1402971 -0.20214128 -1.4650126
1.1216998 -0.20462622 -1.4691008
1.1633292 -0.21506879 -1.4671028
1.1564289 -0.2154526 -1.465194
1.1338819 -0.20666325 -1.4699162
1.1200495 -0.20883159 -1.462376
1.147374 -0.21993171 -1.4633158
1.1341902 -0.21608934 -1.4645932
1.1228455 -0.2169165 -1.4659683
1.1106898 -0.2214155 -1.4649854
1.1499622 -0.23185229 -1.4664804
1.143839 -0.2291348 -1.4606977
1.1270638 -0.22967428 -1.4646066
1.0886451 -0.22552629 -1.4623709
1.1709673 -0.23659179 -1.4654611
1.1516948 -0.23700796 -1.4603345
1.1432084 -0.23546821 -1.4676316
1.3983673 -0.35213143 -1.453145
1.3417516 -0.35442084 -1.4539387
1.3414888 -0.35241631 -1.4534688
1.3200585 -0.35498795 -1.4502246
1.2871445 -0.35268843 -1.4537783
1.2614347 -0.36521697 -1.4508287
1.231527 -0.36126047 -1.4506708
1.3886659 -0.37308902 -1.4474845
1.314479 -0.36960238 -1.4450406
1.2932229 -0.36897796 -1.4430746
1.2094706 -0.36775917 -1.4451122
1.193157 -0.3675766 -1.4465452
1.1471905 -0.1746252 -1.4861943
1.141522 -0.17479339 -1.4778899
1.1293 -0.17357397 -1.4798985
1.11333 -0.17787281 -1.4836583
1.1527796 -0.18868254 -1.4792902
1.1436232 -0.18241799 -1.4780407
1.130022 -0.18189776 -1.479959
1.1588836 -0.19435069 -1.4810201
1.1360081 -0.19568679 -1.4781778
1.1491369 -0.20446905 -1.4786116
1.1290144 -0.20400055 -1.4805043
1.1146156 -0.20023128 -1.4768461
1.1465646 -0.20775421 -1.4760659
1.1383456 -0.20977421 -1.4788206
1.1276829 -0.213328 -1.4779432
1.1636083 -0.2251568 -1.4715915
1.1486516 -0.2240701 -1.4716762
1.129227 -0.22237 -1.4759396
1.1181772 -0.22523113 -1.4735692
1.1628407 -0.23152432 -1.4706507
1.142445 -0.22763278 -1.4770169
1.1277483 -0.22762425 -1.4697069
1.118951 -0.23097515 -1.4777119
1.1736414 -0.23730084 -1.4757334
1.1715244 -0.23698311 -1.4733319
1.1429609 -0.2392745 -1.4722639
1.1308632 -0.2381883 -1.4689593
1.1557811 -0.24608016 -1.4679872
1.1654779 -0.25448185 -1.4666401
1.3785064 -0.35363513 -1.4567508
1.1256959 -0.35345066 -1.4603471
1.3842305 -0.36670345 -1.4605943
1.3566508 -0.36485818 -1.4561495
1.3211004 -0.36459577 -1.4623224
1.2854676 -0.35895592 -1.4567043
1.2781065 -0.36664236 -1.4612387
1.2639551 -0.36621618 -1.4535118
1.2315969 -0.35924307 -1.4531543
1.1977803 -0.35914356 -1.452787
1.1614604 -0.36516929 -1.4515346
1.3319848 -0.36978257 -1.4545354
1.1566874 -0.16688061 -1.4950892
1.1477301 -0.16920838 -1.4925994
1.1214383 -0.16469005 -1.4955158
1.1433498 -0.17607349 -1.492808
1.1290611 -0.17978607 -1.4867241
1.1513116 -0.18455625 -1.4896052
1.1335438 -0.18447116 -1.4898365
1.1272277 -0.18609908 -1.4898992
1.1492213 -0.19591346 -1.4836271
1.1383824 -0.19537815 -1.4855446
1.1229089 -0.1969319 -1.4886546
1.1693342 -0.20888488 -1.4852371
1.1480783 -0.20644929 -1.4837548
1.1608555 -0.21022226 -1.4855744
1.1570269 -0.21735974 -1.4894495
1.1524168 -0.21075039 -1.4823064
1.1438193 -0.21598324 -1.4851598
1.1637158 -0.22380292 -1.4817708
1.1364321 -0.22552234 -1.4868553
1.132794 -0.22611803 -1.4846348
1.1221728 -0.21881393 -1.4842274
1.1732769 -0.2318224 -1.4871978
1.1565423 -0.22909319 -1.4830592
1.1370438 -0.22989993 -1.4864827
1.1229115 -0.22870629 -1.4848913
1.1673471 -0.25461259 -1.4775994
1.3357575 -0.341977 -1.4690583
1.2955136 -0.34857753 -1.4674975
1.4019694 -0.35550076 -1.4731047
1.3640827 -0.35977924 -1.4723885
1.3424681 -0.35680836 -1.4661371
1.2923981 -0.35493767 -1.4696487
1.2564324 -0.354978 -1.4659842
1.238542 -0.35563669 -1.4673954
1.3947011 -0.36797804 -1.4665042
1.3810837 -0.36288276 -1.4715745
1.3143083 -0.36422032 -1.47068
1.2704184 -0.36132908 -1.4703811
1.2171406 -0.3620944 -1.4630501
1.2000325 -0.36303064 -1.4617964
1.1816232 -0.36724147 -1.4630845
1.1224616 -0.36136383 -1.4646256
1.1120503 -0.15971065 -1.5005221
1.157266 -0.16788429 -1.4980741
1.150607 -0.1673722 -1.5059584
1.1079825 -0.16958779 -1.4977866
1.1587329 -0.17958759 -1.5024118
1.1516145 -0.1745927 -1.4998691
1.134596 -0.17778552 -1.4969952
1.122559 -0.17575942 -1.501223
1.1548713 -0.18964846 -1.4981325
1.1503257 -0.18387429 -1.4976159
1.1455257 -0.19158594 -1.501297
1.1349425 -0.18936302 -1.4952041
1.1297091 -0.18448155 -1.5030115
1.1555132 -0.1976949 -1.4978024
1.1521178 -0.20012344 -1.4972875
1.1245925 -0.19548373 -1.4946517
1.1620665 -0.20477247 -1.4945318
1.1564643 -0.20705383 -1.4976184
1.1421012 -0.20563561 -1.4968179
1.1328666 -0.20893817 -1.4942795
1.1505394 -0.21373768 -1.4989368
1.1333308 -0.21839824 -1.4934455
1.1285179 -0.21476209 -1.4985147
1.1146173 -0.20949273 -1.4907292
1.1632873 -0.22633003 -1.4899499
1.1560346 -0.22808476 -1.4897724
1.1474718 -0.21908565 -1.4905714
1.1838868 -0.23693144 -1.495852
1.1533887 -0.23660374 -1.4909893
1.1373615 -0.23151939 -1.4932486
1.1731758 -0.24648927 -1.4891934
1.1675135 -0.24900517 -1.4927677
1.3442525 -0.33780417 -1.4829844
1.3038826 -0.34446663 -1.4812169
1.2646787 -0.35092729 -1.4795027
1.3497221 -0.35217607 -1.482471
1.2928225 -0.35352892 -1.4754474
1.2594197 -0.35777533 -1.4804957
1.222096 -0.35821295 -1.4780641
1.2139188 -0.35121626 -1.479243
1.2066991 -0.3577728 -1.4773897
1.1446475 -0.35467416 -1.4740212
1.1302521 -0.35753703 -1.4773967
1.3435941 -0.3663094 -1.4797759
1.3378675 -0.36480087 -1.4730742
1.3099593 -0.36429372 -1.4803052
1.2838441 -0.36178347 -1.4793204
1.220433 -0.36529166 -1.4757565
1.1896353 -0.36330596 -1.4762185
1.1542333 -0.16207235 -1.5134149
1.157326 -0.16854656 -1.5139583
1.1461575 -0.17179061 -1.513998
1.1374382 -0.16772273 -1.5102706
1.1257635 -0.16947214 -1.5124347
1.1529793 -0.17793158 -1.5068156
1.1458135 -0.17772341 -1.5086726
1.1373006 -0.1805907 -1.5092765
1.1201023 -0.17876545 -1.5080973
1.1652951 -0.18921474 -1.5042051
1.1584097 -0.19164094 -1.5126088
1.1154242 -0.18771812 -1.5052099
1.1673356 -0.2015215 -1.5094388
1.1297547 -0.19366024 -1.5058956
1.1621178 -0.21040247 -1.5037493
1.1583821 -0.20537572 -1.5040458
1.1331308 -0.2103923 -1.5017731
1.1559234 -0.21462713 -1.50629
1.1504177 -0.21254447 -1.5042346
1.1194367 -0.21183288 -1.5024463
1.1709675 -0.22717381 -1.5014023
1.1612403 -0.22217262 -1.5044566
1.1499588 -0.22353302 -1.4994187
1.1413081 -0.22934295 -1.501876
1.1365496 -0.22197941 -1.5026318
1.111111 -0.22252098 -1.4988226
1.2853835 -0.342801 -1.4914913
1.2995988 -0.35001653 -1.4853833
1.2454436 -0.35040072 -1.4843334
1.3855476 -0.35682833 -1.4871017
1.3715143 -0.35470027 -1.4886278
1.34375 -0.35981911 -1.4916129
1.2175431 -0.35249692 -1.4847033
1.1758534 -0.3606537 -1.4857801
1.1639024 -0.35592788 -1.4878938
1.291954 -0.36297074 -1.4874791
1.1896228 -0.36147574 -1.4856013
1.1497458 -0.16242146 -1.5239958
1.1683108 -0.16751978 -1.520489
1.157553 -0.17460312 -1.5213071
1.1479189 -0.17026518 -1.517539
1.1289192 -0.17141268 -1.5151212
1.1258764 -0.17439955 -1.5231675
1.1478716 -0.179066 -1.5159416
1.1218445 -0.17551762 -1.5184592
1.1584578 -0.19265051 -1.5215905
1.1411351 -0.18906757 -1.5165807
1.1371285 -0.18919379 -1.5194911
1.1335195 -0.18815944 -1.5194126
1.1617097 -0.19992629 -1.5137248
1.1527052 -0.20198752 -1.5149055
1.1443924 -0.20134594 -1.516531
1.1317617 -0.19658229 -1.513464
1.1734265 -0.21087734 -1.510426
1.1529982 -0.20822698 -1.51731
1.1364566 -0.20762928 -1.5117087
1.1258413 -0.20745598 -1.5164409
1.1637338 -0.22113577 -1.5092493
1.1379395 -0.21425477 -1.5106113
1.1813731 -0.23200658 -1.514622
1.1671321 -0.2281891 -1.512292
1.1471663 -0.2301245 -1.5086967
1.1296011 -0.22350718 -1.5099204
1.1835369 -0.23608992 -1.5139199
1.1579652 -0.23412773 -1.5077292
1.1495463 -0.23133889 -1.5083387
1.1705428 -0.24458933 -1.5117452
1.3671678 -0.33980262 -1.4955646
1.3122514 -0.34035578 -1.4949362
1.2924165 -0.33897218 -1.5018997
1.3569762 -0.34754378 -1.4988049
1.2729253 -0.34687659 -1.4930211
1.252367 -0.34597951 -1.4999229
1.221988 -0.34725255 -1.492471
1.3502698 -0.36126173 -1.4971998
1.314137 -0.35968998 -1.5003251
1.2895817 -0.35692456 -1.4974021
1.2805926 -0.35911739 -1.4951675
1.2279127 -0.3569794 -1.4927782
1.213519 -0.35341778 -1.4927459
1.1853262 -0.35344622 -1.4906583
1.1497111 -0.35948014 -1.4888933
1.1358309 -0.15538505 -1.5309606
1.1662599 -0.16142482 -1.5358953
1.1533136 -0.16384433 -1.5310707
1.1465969 -0.16667974 -1.5329875
1.1352795 -0.16706593 -1.5290192
1.1302212 -0.16498241 -1.5299375
1.1204131 -0.16164979 -1.525777
1.1508249 -0.17145683 -1.5265698
1.1409971 -0.17625776 -1.5255536
1.160434 -0.18672764 -1.5316819
1.146847 -0.18024401 -1.5323571
1.1764662 -0.18900974 -1.5268395
1.1465158 -0.19037917 -1.5297292
1.1364392 -0.18939933 -1.522475
1.1301183 -0.19538912 -1.5261244
1.1661463 -0.19649671 -1.5284867
1.1559085 -0.20052919 -1.5225173
1.1293269 -0.20209698 -1.5269247
1.170172 -0.20632149 -1.5287055
1.1659822 -0.21382253 -1.5284095
1.1494272 -0.21268736 -1.5214446
1.1262529 -0.2128001 -1.5192332
1.1706076 -0.22228804 -1.5207522
1.1599524 -0.22294679 -1.5213172
1.1495765 -0.21904497 -1.5260425
1.1365232 -0.21768849 -1.5235748
1.1188331 -0.2200585 -1.5202479
1.1913429 -0.22878993 -1.5202255
1.146317 -0.22566742 -1.522478
1.1643986 -0.23982456 -1.52469
1.361779 -0.33927768 -1.5062097
1.3345697 -0.34233701 -1.507419
1.3069922 -0.34448034 -1.5073534
1.2069449 -0.34308919 -1.5080657
1.3789462 -0.34962136 -1.5048672
1.3330127 -0.34812832 -1.5093523
1.2946641 -0.34889442 -1.5053021
1.2736008 -0.34808373 -1.5114832
1.2428805 -0.34922588 -1.504483
1.2380054 -0.35416296 -1.5029119
1.2209796 -0.3497225 -1.506997
1.1932814 -0.34953853 -1.5036995
1.3825721 -0.35757846 -1.5051674
1.2984692 -0.35804453 -1.5044835
1.1830178 -0.35678649 -1.5014398
1.1575557 -0.35562682 -1.501753
1.111436 -0.35581863 -1.5010478
1.1502328 -0.15593322 -1.537643
1.1300555 -0.15855074 -1.5433234
1.1266285 -0.15768078 -1.5397722
1.1650817 -0.16299987 -1.5386238
1.1532141 -0.16000354 -1.542955
1.1442235 -0.16593766 -1.5352091
1.1609924 -0.17067389 -1.5368911
1.1563733 -0.16961867 -1.5402023
1.1447239 -0.17215106 -1.5434121
1.1316506 -0.17003365 -1.5382377
1.1269523 -0.17119202 -1.5345563
1.1692764 -0.18462673 -1.53511
1.1598473 -0.17855372 -1.5384421
1.1519901 -0.18714949 -1.541435
1.1431206 -0.18579392 -1.5345962
1.1392219 -0.18472764 -1.5354925
1.1555264 -0.18853118 -1.5403553
1.1354885 -0.19247557 -1.5313226
1.1540315 -0.20092547 -1.5382379
1.1466215 -0.19839959 -1.5314802
1.1322457 -0.20307906 -1.5304354
1.1636808 -0.21310671 -1.5298268
1.1551939 -0.21247454 -1.5368239
1.1384624 -0.21553674 -1.5338999
1.1749051 -0.21875553 -1.5357898
1.1641123 -0.21913427 -1.5288694
1.1563768 -0.21510713 -1.5289087
1.1369863 -0.22069259 -1.5346534
1.165393 -0.22670072 -1.5268288
1.1574959 -0.23036829 -1.5312771
1.1735719 -0.24017352 -1.530723
1.3684548 -0.33422998 -1.5236335
1.3488452 -0.3366051 -1.5150447
1.2995027 -0.33395562 -1.5203322
1.3863779 -0.34454238 -1.5211062
1.3779217 -0.33903375 -1.521709
1.3029714 -0.34481382 -1.5189204
1.2898086 -0.34666783 -1.5209887
1.2592905 -0.34155834 -1.5155125
1.1762834 -0.34614658 -1.515946
1.1536241 -0.34605667 -1.5157105
1.3569458 -0.35621399 -1.5146233
1.3183148 -0.35508624 -1.5203451
1.2953193 -0.35206568 -1.5154837
1.2640351 -0.35120869 -1.5166733
1.2347213 -0.34866667 -1.5110155
1.213671 -0.35149944 -1.5156206
1.1902925 -0.352543 -1.5168924
1.1191201 -0.35204411 -1.5136447
1.1212151 -0.14958411 -1.5534248
1.1637862 -0.15657827 -1.5543669
1.1581984 -0.15889651 -1.5458789
1.1630217 -0.1631346 -1.5528897
1.1521267 -0.16689754 -1.5453539
1.1470364 -0.16156888 -1.5519768
1.134761 -0.16090095 -1.5468464
1.1250993 -0.16125062 -1.5526386
1.1451459 -0.17140892 -1.5516593
1.1374753 -0.17630465 -1.550823
1.122493 -0.17142802 -1.5471816
1.1732115 -0.18445385 -1.5451188
1.1624582 -0.18181434 -1.5507551
1.1463552 -0.18225414 -1.5512514
1.1274701 -0.18468228 -1.5455148
1.1685365 -0.19167402 -1.5438297
1.1649569 -0.19147195 -1.5475348
1.1352639 -0.19103158 -1.5423403
1.1766959 -0.20560975 -1.5417254
1.1680146 -0.20017569 -1.5452424
1.1669172 -0.20176563 -1.5469848
1.147157 -0.20596778 -1.5449429
1.1371393 -0.19838761 -1.5427718
1.169838 -0.20894264 -1.5394579
1.1633683 -0.20963186 -1.5468711
1.1599269 -0.20871083 -1.5477757
1.1524084 -0.20834175 -1.5401205
1.1440611 -0.21370219 -1.5386264
1.1298418 -0.20843732 -1.5382872
1.148128 -0.21927309 -1.5410094
1.1516622 -0.22607903 -1.5374982
1.1733789 -0.23854989 -1.5359972
1.3560419 -0.33200935 -1.5312496
1.2662139 -0.33713719 -1.5311021
1.3359077 -0.34138912 -1.5320399
1.2806914 -0.34323794 -1.5269769
1.2722217 -0.3471874 -1.5300936
1.2410339 -0.34389353 -1.5274915
1.227911 -0.34498554 -1.5221428
1.2244205 -0.34613585 -1.5261065
1.173245 -0.34792018 -1.5274725
1.3878639 -0.35282069 -1.5248781
1.3555151 -0.34985566 -1.5286906
1.3297795 -0.35031098 -1.5283042
1.2436048 -0.34942102 -1.5205584
1.2088341 -0.35319251 -1.5262722
1.1472863 -0.34929079 -1.5253251
1.1268042 -0.34826955 -1.5262415
1.1248902 -0.15014651 -1.5574343
1.1703286 -0.15971759 -1.5644271
1.1618527 -0.15847996 -1.5567589
1.1549394 -0.1611668 -1.564342
1.1393007 -0.15681949 -1.5637552
1.1698169 -0.16965866 -1.5610369
1.1551934 -0.1646342 -1.5590975
1.134434 -0.16341999 -1.5595733
1.1171077 -0.16323826 -1.5607841
1.1654881 -0.17952105 -1.5525312
1.1569394 -0.17668399 -1.5555499
1.1296782 -0.17654175 -1.5531147
1.1209484 -0.17579567 -1.5598644
1.1404095 -0.18667403 -1.5585563
1.1316725 -0.18973054 -1.556836
1.160996 -0.19023392 -1.5521111
1.1533682 -0.19321978 -1.5508097
1.1548371 -0.20762837 -1.556017
1.1305275 -0.20629668 -1.5492373
1.1230378 -0.20357662 -1.5527639
1.1478167 -0.20956358 -1.5566237
1.1314356 -0.21201061 -1.5486257
1.1842808 -0.22693922 -1.5484617
1.1763461 -0.2221569 -1.5521619
1.1573757 -0.22378944 -1.5498092
1.1766012 -0.23575768 -1.5497006
1.1585801 -0.22819233 -1.5525607
1.4011743 -0.34070474 -1.5414832
1.3915412 -0.33571228 -1.5417397
1.3782984 -0.33319896 -1.5378633
1.3211617 -0.33543181 -1.5392596
1.2339783 -0.3403528 -1.5388144
1.1406375 -0.33918303 -1.5381492
1.3224926 -0.35048246 -1.5403651
1.2962722 -0.34178072 -1.5378579
1.248786 -0.34544 -1.5375009
1.1971217 -0.34787574 -1.5318153
1.1829535 -0.34188718 -1.5309651
1.1055615 -0.34629709 -1.5308377
1.3636216 -0.35116625 -1.5320472
1.3171288 -0.35379392 -1.5345519
1.2907913 -0.35453495 -1.5328274
1.2374814 -0.35209912 -1.5359221
1.1007285 -0.35043353 -1.536487
1.1613125 -0.15173173 -1.5728384
1.1273882 -0.14564198 -1.5673252
1.1682562 -0.15780818 -1.5681382
1.1371679 -0.16254088 -1.5667504
1.1308326 -0.15691558 -1.5676023
1.1667979 -0.16799331 -1.5673987
1.1332272 -0.17009342 -1.5675011
1.1699569 -0.17989799 -1.5633981
1.1617 -0.17441538 -1.5699525
1.1493125 -0.17794281 -1.5697799
1.124573 -0.18120627 -1.5685862
1.1788225 -0.1906969 -1.5664368
1.1711204 -0.18810779 -1.5624344
1.1630627 -0.18675026 -1.5654285
1.1571239 -0.18908118 -1.568807
1.1655214 -0.19529036 -1.5638618
1.1380758 -0.19696626 -1.5607353
1.1290638 -0.194965 -1.5678622
1.1176469 -0.19902955 -1.5668786
1.1778363 -0.20486715 -1.565146
1.1723783 -0.20222668 -1.5589849
1.1650735 -0.20555291 -1.5671473
1.1553893 -0.20399615 -1.5587964
1.1488301 -0.20675705 -1.5665723
1.1431187 -0.21000516 -1.5623124
1.1377369 -0.20798664 -1.5628145
1.1889251 -0.21857511 -1.558948
1.1572438 -0.21715011 -1.5615854
1.1512878 -0.21811712 -1.563501
1.3856711 -0.32816038 -1.5539736
1.3632386 -0.32741365 -1.5474547
1.2591289 -0.32676929 -1.5463636
1.3431648 -0.33642954 -1.5478976
1.287782 -0.33839214 -1.5424707
1.2473466 -0.33912045 -1.5439672
1.1896235 -0.33762777 -1.5459841
1.185532 -0.33614323 -1.5416325
1.3931561 -0.34806293 -1.5445888
1.3702974 -0.34611854 -1.5494707
1.3613977 -0.34487396 -1.5472294
1.3349366 -0.34567454 -1.5475123
1.2296947 -0.34362841 -1.5418888
1.2170227 -0.34908396 -1.5463244
1.1810896 -0.34406686 -1.5403324
1.1344886 -0.34449503 -1.5388384
1.1119961 -0.34218806 -1.5453266
1.176477 -0.35074401 -1.540848
1.1671606 -0.35065174 -1.5412091
1.1853343 -0.15215018 -1.5845448
1.1572299 -0.1502558 -1.5807955
1.1433054 -0.15228978 -1.5805874
1.130427 -0.14832142 -1.5791748
1.1243752 -0.14830112 -1.581699
1.1715723 -0.16148916 -1.5789771
1.1672186 -0.16421951 -1.5767348
1.1518703 -0.16132 -1.5810506
1.1422757 -0.15821528 -1.5828475
1.1385534 -0.16340941 -1.5787821
1.1232809 -0.15929613 -1.5746845
1.1776139 -0.16546834 -1.5770209
1.1549001 -0.16886064 -1.5753851
1.1266816 -0.17146063 -1.5748279
1.1798131 -0.18171196 -1.5724704
1.1663039 -0.17906566 -1.5763509
1.1302832 -0.17945676 -1.5732135
1.1606392 -0.18538775 -1.5713044
1.1426499 -0.19285402 -1.5777717
1.1781613 -0.20165052 -1.5701338
1.1714897 -0.19717716 -1.5773782
1.1436857 -0.19471885 -1.5752177
1.1717558 -0.20835815 -1.5711846
1.1659186 -0.21044235 -1.5764596
1.1440383 -0.20396271 -1.5770035
1.1248834 -0.20961362 -1.5751393
1.1738324 -0.21723205 -1.5709319
1.132955 -0.21272498 -1.5670508
1.1804327 -0.2217529 -1.5661581
1.4043728 -0.32507259 -1.5569925
1.2660003 -0.3223815 -1.5618355
1.2272524 -0.33012116 -1.5537922
1.1348673 -0.32939875 -1.5524931
1.4150208 -0.3372224 -1.5601487
1.4071577 -0.33563769 -1.5603396
1.3432045 -0.33706045 -1.5556196
1.3180146 -0.34326586 -1.5554962
1.3091737 -0.33958468 -1.5576206
1.3067943 -0.34234789 -1.5516472
1.2542316 -0.33714223 -1.5581472
1.2417738 -0.33551151 -1.5524346
1.1889342 -0.34021354 -1.5531921
1.1421728 -0.34072047 -1.5514352
1.2958622 -0.34997597 -1.5517144
1.2424283 -0.3476516 -1.5543474
1.2285274 -0.34885949 -1.5512043
1.19152 -0.34542781 -1.5568525
1.1738906 -0.34605244 -1.5559148
1.166513 -0.34607095 -1.5478686
1.1260378 -0.34766316 -1.5507034
1.0972483 -0.34118864 -1.5497514
1.0646914 -0.34707558 -1.5472993
1.178457 -0.15669878 -1.590741
1.1628531 -0.15577075 -1.5931095
1.1294541 -0.15535399 -1.5885849
1.1448705 -0.15909226 -1.5925856
1.1791 -0.16954914 -1.5860066
1.1665063 -0.17198773 -1.5889019
1.15227 -0.17363152 -1.5883083
1.138166 -0.17087364 -1.5883131
1.1324148 -0.1671256 -1.5897917
1.1229478 -0.17266172 -1.5867416
1.1812252 -0.17960782 -1.5866787
1.1446093 -0.18086699 -1.5840119
1.1869228 -0.18766245 -1.5848675
1.1738925 -0.18614851 -1.5857643
1.1630279 -0.19040503 -1.5824813
1.1348379 -0.19059911 -1.5829322
1.1277646 -0.19284718 -1.5804431
1.1710856 -0.20118955 -1.5844007
1.1355065 -0.19912884 -1.5805321
1.1695284 -0.20763074 -1.578802
1.1624527 -0.21205564 -1.5786687
1.1536413 -0.21117023 -1.5821866
1.1380588 -0.21149486 -1.5806557
1.1680251 -0.21635957 -1.5833616
1.3930438 -0.32312176 -1.5700837
1.3356028 -0.32541102 -1.5640562
1.3859919 -0.3290146 -1.5641408
1.3608295 -0.33455604 -1.5660133
1.3503449 -0.33250076 -1.5716974
1.2966424 -0.33109409 -1.568465
1.2487051 -0.33077455 -1.5675805
1.2476176 -0.33164281 -1.5695269
1.1962935 -0.33336839 -1.5610032
1.398448 -0.34330511 -1.5642995
1.3672804 -0.33989221 -1.5657682
1.269845 -0.34382826 -1.5611048
1.2347914 -0.34412315 -1.5675532
1.2107803 -0.33854127 -1.5616608
1.2052692 -0.33764482 -1.5598586
1.166247 -0.33653042 -1.5680068
1.1580355 -0.33546922 -1.5636841
1.1498569 -0.33694595 -1.564032
1.1326243 -0.34316194 -1.5650955
1.3572485 -0.3477456 -1.5683192
1.3266703 -0.34587875 -1.5603851
1.1305556 -0.3437323 -1.5602185
1.1158903 -0.34298608 -1.5613416
1.086623 -0.34479508 -1.5598013
1.0721223 -0.34342545 -1.559481
1.1815505 -0.14771932 -1.6026366
1.1592377 -0.1453819 -1.5997158
1.1462399 -0.14801233 -1.5989704
1.1349329 -0.14427027 -1.5959581
1.1179821 -0.1397976 -1.595598
1.1697419 -0.15347449 -1.5980909
1.1520216 -0.15428016 -1.5994496
1.1356273 -0.15141188 -1.6024852
1.1343987 -0.14951524 -1.5976038
1.1828607 -0.16167219 -1.5975411
1.1633458 -0.15891351 -1.5942197
1.1559041 -0.15983093 -1.5969876
1.1718497 -0.17343587 -1.5925694
1.165223 -0.16951993 -1.5992451
1.1370037 -0.17326827 -1.5965766
1.1758099 -0.18183275 -1.5965359
1.1309696 -0.18284516 -1.595109
1.1199932 -0.18389538 -1.5952169
1.1767949 -0.19005097 -1.5934805
1.1652424 -0.19017294 -1.5943978
1.1466432 -0.19040754 -1.5937462
1.130281 -0.19039527 -1.5944854
1.1748804 -0.19705816 -1.5885595
1.1563076 -0.19881877 -1.5891868
1.1383862 -0.19542004 -1.5905861
1.1963997 -0.21022838 -1.5928468
1.1810427 -0.20883687 -1.5942607
1.1705112 -0.20928928 -1.5921499
1.1430779 -0.20999935 -1.5911503
1.1619638 -0.2193003 -1.588222
1.4050037 -0.32553321 -1.5768757
1.3957194 -0.32396159 -1.5777978
1.3576789 -0.32651034 -1.5796129
1.409078 -0.33062837 -1.5810934
1.31356 -0.33460069 -1.578337
1.3016379 -0.32927212 -1.5759504
1.2745639 -0.33574206 -1.5778438
1.2604033 -0.33519521 -1.5734977
1.2107371 -0.33301434 -1.5770904
1.2037706 -0.32861945 -1.5763981
1.3245296 -0.33833966 -1.5725005
1.2473751 -0.34320408 -1.5727727
1.1963489 -0.34108645 -1.5748378
1.1806206 -0.34145311 -1.5706205
1.137036 -0.33959401 -1.5748105
1.123471 -0.33926237 -1.573769
1.0930718 -0.34038782 -1.5738928
1.0795534 -0.33977532 -1.5716627
1.1800684 -0.14070153 -1.6151444
1.1394391 -0.14021908 -1.6127415
1.1236358 -0.13552287 -1.6103534
1.1632961 -0.15061855 -1.6122525
1.1394694 -0.14522111 -1.6135839
1.1396047 -0.15068434 -1.6063628
1.1753165 -0.16511828 -1.6040984
1.1685306 -0.16707443 -1.607975
1.1381482 -0.16279057 -1.6047552
1.1298096 -0.16217661 -1.6032902
1.1720136 -0.17771922 -1.6010331
1.1575766 -0.17250779 -1.6082637
1.1513935 -0.17644931 -1.6015898
1.1764308 -0.18095382 -1.6090194
1.1710161 -0.18000093 -1.6016833
1.1753213 -0.18997663 -1.605884
1.1706114 -0.19385383 -1.6035798
1.1645384 -0.19697663 -1.6037644
1.156641 -0.1959148 -1.6053813
1.1120096 -0.19163096 -1.6032244
1.1691686 -0.20274496 -1.5981519
1.1285924 -0.19966044 -1.5994688
1.1714011 -0.21139324 -1.6020707
1.1410162 -0.20718357 -1.599184
1.1902528 -0.22796245 -1.5976377
1.4004165 -0.31808317 -1.5861939
1.3424162 -0.32185903 -1.5871189
1.3090537 -0.32385474 -1.5889519
1.3023332 -0.32627475 -1.5863994
1.252655 -0.32577953 -1.5873121
1.383649 -0.33602309 -1.584318
1.3731631 -0.33491048 -1.584307
1.3452506 -0.33640164 -1.5859284
1.3310449 -0.33341342 -1.5895047
1.2896806 -0.3343668 -1.5877523
1.2693185 -0.33188275 -1.582577
1.1873505 -0.33685377 -1.5853261
1.1728208 -0.33233243 -1.5828093
1.0869842 -0.3361252 -1.5838443
1.4037399 -0.33854735 -1.5840102
1.2739172 -0.33934093 -1.5806186
1.2410554 -0.33938682 -1.583902
1.1772801 -0.33695266 -1.5818012
1.1392106 -0.33866069 -1.5794876
1.0968678 -0.33701798 -1.5808792
1.1770838 -0.14413308 -1.6211877
1.1709687 -0.14610223 -1.6145858
1.1491741 -0.14373484 -1.6173533
1.145879 -0.14639646 -1.6200728
1.1301806 -0.14340854 -1.6156236
1.1888673 -0.1555856 -1.6137185
1.1798815 -0.15491617 -1.6183523
1.1735907 -0.15767725 -1.6172255
1.1664704 -0.15397647 -1.6201711
1.1596308 -0.15572423 -1.6148461
1.1438816 -0.15845557 -1.6197189
1.134394 -0.15574381 -1.6189632
1.145135 -0.16878366 -1.6124063
1.1822077 -0.17245506 -1.6155614
1.1721356 -0.17364438 -1.616372
1.1671128 -0.17465293 -1.6193066
1.1339974 -0.17733565 -1.6119809
1.1835128 -0.18683228 -1.6110237
1.1767743 -0.18922672 -1.6168891
1.1496007 -0.18609625 -1.6122746
1.1382148 -0.17993817 -1.6101094
1.1250639 -0.17960125 -1.611197
1.1066746 -0.18618464 -1.6128967
1.1701089 -0.19849227 -1.6126044
1.1537665 -0.19308981 -1.6135967
1.1465569 -0.19135097 -1.6084272
1.1968538 -0.20494808 -1.6124656
1.1772287 -0.20437054 -1.6124972
1.1838053 -0.21206176 -1.6133627
1.1771821 -0.21653897 -1.6067389
1.4077892 -0.31304455 -1.6023042
1.401652 -0.31893754 -1.5964942
1.3848287 -0.31362653 -1.5960697
1.3500042 -0.3155688 -1.5955253
1.3740722 -0.32454279 -1.6005769
1.3082888 -0.32538867 -1.5941513
1.2763021 -0.32711005 -1.5978371
1.211357 -0.32349691 -1.5915874
1.1793947 -0.32813448 -1.5976118
1.2809259 -0.33093157 -1.5944484
1.2368013 -0.33242851 -1.5894871
1.2308785 -0.33452398 -1.5957445
1.2228886 -0.33061767 -1.5916905
1.2011776 -0.33674508 -1.5928233
1.1457971 -0.33415943 -1.5938797
1.0995207 -0.33598056 -1.5879844
1.1574599 -0.1404936 -1.6313907
1.1445401 -0.14092696 -1.6295639
1.1388834 -0.13744001 -1.6278532
1.1850193 -0.1503993 -1.6314149
1.1710435 -0.16142429 -1.6246192
1.1657274 -0.15345475 -1.6249781
1.1376932 -0.1611239 -1.6237448
1.1793239 -0.16764608 -1.622066
1.1746637 -0.17042312 -1.6235299
1.1588767 -0.16792905 -1.6271245
1.1533682 -0.16395092 -1.6280442
1.1477897 -0.16471729 -1.6218879
1.173846 -0.17420647 -1.6242776
1.1541221 -0.17194204 -1.6206152
1.1427546 -0.17585668 -1.6270183
1.1397306 -0.1730006 -1.6269445
1.1728078 -0.1850518 -1.6246541
1.1545877 -0.18608861 -1.6222266
1.1390835 -0.18304649 -1.6179811
1.1177028 -0.18732627 -1.6180834
1.1797142 -0.19477068 -1.6230648
