# .PCD v0.7 - Point Cloud Data file format
VERSION 0.7
FIELDS x y z
SIZE 4 4 4
TYPE F F F
COUNT 1 1 1
WIDTH 373
HEIGHT 1
VIEWPOINT 0 0 0 1 0 0 0
POINTS 373
DATA ascii
1.4730457 0.26671308 -1.6147264
1.4508404 0.27078283 -1.6201762
1.4647154 0.26396871 -1.6113553
1.4511198 0.26038346 -1.6133661
1.4606745 0.26870075 -1.630677
1.4353151 0.27868819 -1.6405084
1.4320995 0.2769506 -1.6363593
1.4451309 0.27177861 -1.6337798
1.4488649 0.28866875 -1.64362
1.4566336 0.27343279 -1.6499984
1.4500321 0.27687085 -1.6482192
1.4289407 0.27813387 -1.6505368
1.4218214 0.2735132 -1.6472692
1.4838797 0.26365376 -1.6445791
1.4497842 0.25720099 -1.6469768
1.4767665 0.24782097 -1.6464872
1.4404986 0.28195941 -1.6581088
1.481055 0.27553901 -1.6531072
1.444168 0.27011454 -1.65241
1.4611279 0.2690742 -1.6525303
1.463505 0.25929534 -1.6514046
1.4374456 0.25162601 -1.6544029
1.4652112 0.2362716 -1.6463155
1.4513154 0.23381911 -1.648685
1.445552 0.23554155 -1.6511796
1.4493384 0.29417735 -1.6640872
1.4499099 0.28182077 -1.664047
1.4350184 0.27882451 -1.6630337
1.4304817 0.28309485 -1.6634735
1.4130085 0.284383 -1.6670086
1.4430133 0.2762019 -1.6675581
1.4231007 0.27567512 -1.6659088
1.4514408 0.26509047 -1.6672345
1.4434924 0.262548 -1.6653939
1.4380072 0.2609694 -1.6616722
1.4284166 0.26039934 -1.6645818
1.4818267 0.25165612 -1.6620069
1.4751354 0.25811177 -1.6593064
1.4678142 0.25398105 -1.6577967
1.4580554 0.24252541 -1.6581254
1.4241123 0.24225026 -1.6636699
1.3987136 0.2434476 -1.6583898
1.3939623 0.24836029 -1.6631737
1.4620045 0.23771673 -1.6558472
1.4313627 0.3005093 -1.6803941
1.4193717 0.28923407 -1.6801935
1.4104377 0.288746 -1.6713655
1.3798486 0.29153591 -1.6795834
1.4028993 0.2703141 -1.6768022
1.4542804 0.2593019 -1.675257
1.4436501 0.26384485 -1.6724691
1.4365129 0.25717583 -1.6740831
1.4266901 0.26673591 -1.6702729
1.4069157 0.2664755 -1.6726378
1.4460346 0.24845371 -1.673902
1.4339696 0.25649157 -1.6739247
1.4554379 0.2426693 -1.6742278
1.4392768 0.2410015 -1.6724427
1.4007988 0.29509652 -1.6867734
1.3946294 0.29334819 -1.6871859
1.4496956 0.28632709 -1.6817387
1.4292209 0.28842106 -1.6836643
1.4317588 0.28303918 -1.6815673
1.4250051 0.28216738 -1.6853491
1.4196541 0.2804997 -1.685266
1.4240847 0.26867375 -1.6817877
1.4118851 0.26808947 -1.6860238
1.3969918 0.27366644 -1.6834406
1.4204473 0.24882123 -1.679323
1.3989322 0.25070834 -1.6803651
1.4492863 0.24320646 -1.6825291
1.4450105 0.23698007 -1.6820731
1.4309646 0.29236138 -1.6973932
1.4065213 0.29463789 -1.6959149
1.4220672 0.28830808 -1.6956258
1.4097843 0.28877932 -1.6948475
1.4115541 0.277704 -1.6956685
1.3888191 0.27602512 -1.6928011
1.4425799 0.26926643 -1.6924479
1.4407845 0.26901585 -1.6927522
1.4032377 0.27050811 -1.6963826
1.3912939 0.27277023 -1.688786
1.4181778 0.25979638 -1.6886505
1.4129885 0.26216692 -1.6872422
1.4079123 0.25549802 -1.6921943
1.4180471 0.24850743 -1.6853088
1.4279602 0.29374731 -1.703855
1.4054786 0.29930395 -1.704204
1.3994274 0.29560578 -1.7029148
1.4162074 0.28532428 -1.7046235
1.4074384 0.28854519 -1.7013479
1.3582547 0.28279719 -1.7051888
1.4232295 0.27459151 -1.7039561
1.4171869 0.27257931 -1.7027323
1.4008373 0.27790385 -1.7018676
1.4158494 0.25357181 -1.7009778
1.4062736 0.2614553 -1.7021803
1.4000303 0.25663447 -1.7008327
1.3841305 0.25685719 -1.6963922
1.4356726 0.25081646 -1.695191
1.422671 0.2508634 -1.6952636
1.4122896 0.24548358 -1.6952592
1.4237714 0.24286859 -1.6954393
1.4103668 0.2988753 -1.7143418
1.3839977 0.30160686 -1.7186785
1.4121934 0.29612923 -1.7114413
1.405811 0.29343233 -1.7138462
1.4162701 0.2819441 -1.7132344
1.439513 0.27438825 -1.7131178
1.4111345 0.27671617 -1.7123917
1.3992642 0.27516115 -1.7153814
1.4191169 0.26928681 -1.7105956
1.4095418 0.2669915 -1.7065995
1.3691504 0.26446465 -1.7141008
1.4151742 0.25696641 -1.7090987
1.4123067 0.25685063 -1.7098386
1.3951532 0.26116985 -1.7078202
1.3771908 0.25338101 -1.7068673
1.4311948 0.2504656 -1.7110858
1.3850803 0.24672608 -1.7061586
1.3968399 0.23578073 -1.7037728
1.3771985 0.24137886 -1.7040316
1.4132698 0.22002845 -1.7071445
1.4266995 0.29907352 -1.7240459
1.4101586 0.30351141 -1.7216347
1.3716116 0.30172729 -1.719772
1.425944 0.29308996 -1.7259319
1.4127609 0.29014888 -1.7239809
1.424058 0.27906027 -1.7218781
1.4193807 0.28043568 -1.7261058
1.4046826 0.28214127 -1.7202945
1.3612596 0.28717756 -1.7240142
1.4069421 0.27835768 -1.7171409
1.41099 0.26569542 -1.7197464
1.4050419 0.25880864 -1.7180208
1.4202955 0.24773413 -1.7149613
1.3907311 0.2435586 -1.7142184
1.3713881 0.22405572 -1.7096468
1.3642005 0.23222335 -1.7100743
1.4128358 0.21916515 -1.7095853
1.390747 0.21787317 -1.709402
1.412226 0.30338407 -1.7329664
1.3906152 0.30018556 -1.7370234
1.4049189 0.28738788 -1.7280965
1.3757343 0.28872648 -1.7324617
1.4382411 0.27976057 -1.7334836
1.3954775 0.28292537 -1.7282078
1.3817462 0.28526521 -1.7289833
1.4195863 0.27474803 -1.7308871
1.4060951 0.2718161 -1.7259569
1.3996794 0.27126443 -1.7345581
1.3721797 0.26888049 -1.7330785
1.4175296 0.26062232 -1.7260182
1.4020987 0.26274759 -1.7241937
1.3989985 0.26540726 -1.7262473
1.4288867 0.25837547 -1.726424
1.4097941 0.25605077 -1.7236066
1.3994294 0.25348333 -1.7279329
1.38976 0.2509335 -1.7235892
1.3802524 0.24583073 -1.7231642
1.4168891 0.23944636 -1.727705
1.4064015 0.23260292 -1.7205057
1.4025464 0.22539324 -1.7240512
1.3837849 0.22770177 -1.7197258
1.4254388 0.30439979 -1.7442366
1.4189907 0.29759321 -1.7396691
1.3937308 0.29274917 -1.7427292
1.3720207 0.2908197 -1.7428849
1.3628864 0.29004294 -1.7396748
1.3478578 0.29261744 -1.7392583
1.4123888 0.27916813 -1.7412173
1.4057531 0.28510264 -1.7370715
1.3769747 0.26988697 -1.7359314
1.4309404 0.26120895 -1.7361343
1.3894356 0.26516747 -1.7337899
1.4315211 0.2552008 -1.7404824
1.378688 0.2565738 -1.7382566
1.3972552 0.24713749 -1.7312465
1.3933142 0.24867322 -1.7322
1.3833938 0.24740957 -1.7393718
1.4004294 0.23319794 -1.7327701
1.3924119 0.2315274 -1.7382994
1.3876302 0.23193915 -1.7381529
1.4107447 0.22138664 -1.7333819
1.3744419 0.22850765 -1.7287794
1.4195184 0.31192619 -1.7564961
1.411851 0.30847734 -1.7531384
1.4267881 0.29444239 -1.7500194
1.4345866 0.28492737 -1.7521361
1.4187919 0.28595972 -1.7480057
1.3635155 0.29400876 -1.7474097
1.420056 0.28020933 -1.7511785
1.3885314 0.27674907 -1.7491415
1.3672844 0.27555463 -1.7497817
1.4171515 0.26575923 -1.7463628
1.4028437 0.26964468 -1.7446742
1.3740884 0.27142096 -1.7492975
1.3585474 0.2745131 -1.7483646
1.4247204 0.26408398 -1.7452352
1.4057871 0.2607429 -1.7427653
1.3971598 0.25291061 -1.7506269
1.3833061 0.25028265 -1.7422969
1.3722031 0.25450861 -1.7428793
1.4454156 0.24046959 -1.7437257
1.4415466 0.24174438 -1.7440312
1.3892004 0.23901747 -1.7474815
1.4251082 0.23670012 -1.7454805
1.360653 0.23451498 -1.7442179
1.4225931 0.22229926 -1.7394844
1.4241781 0.309726 -1.7644274
1.4149837 0.30228543 -1.7588279
1.4088352 0.30479002 -1.7617053
1.3983749 0.29692435 -1.7600265
1.3821547 0.29406711 -1.7633092
1.4233015 0.28933415 -1.7625673
1.4377677 0.2752558 -1.7588196
1.3901916 0.27516294 -1.7597568
1.4302651 0.26653323 -1.7576511
1.4276795 0.26647741 -1.7548792
1.4017801 0.26543519 -1.7619241
1.431491 0.25865912 -1.7608895
1.3991197 0.25934836 -1.7584506
1.3694457 0.25611362 -1.7576258
1.362548 0.26028949 -1.7566788
1.4287966 0.24607834 -1.7558293
1.4207726 0.24802746 -1.7576225
1.3854856 0.25248712 -1.7590828
1.4351655 0.24498723 -1.7545403
1.4164549 0.24134797 -1.7512904
1.3914756 0.2361766 -1.7565798
1.3824342 0.23756927 -1.7523347
1.4456838 0.23197737 -1.7499584
1.4281924 0.2267133 -1.7567805
1.3949658 0.22811384 -1.749156
1.4529135 0.22189277 -1.7532265
1.4294515 0.31290907 -1.7787716
1.4410417 0.29880989 -1.7764988
1.4175314 0.29128599 -1.7681966
1.4003403 0.29490072 -1.7707323
1.4319222 0.29014766 -1.7720321
1.4257299 0.28324345 -1.7674894
1.4205254 0.28567067 -1.7714698
1.3931755 0.28092432 -1.7664387
1.3782381 0.27771217 -1.7710339
1.4186635 0.27034426 -1.7653769
1.3845524 0.25856096 -1.7656626
1.4235607 0.24793346 -1.7614529
1.4242078 0.2379621 -1.7628393
1.3938801 0.2432249 -1.7649124
1.3726155 0.24352024 -1.7661636
1.3636823 0.23893076 -1.7631956
1.4222116 0.22748069 -1.7600052
1.4273527 0.30947387 -1.7868062
1.4091002 0.31677467 -1.7845082
1.4283469 0.30655718 -1.7852498
1.4030187 0.3010996 -1.7773236
1.4229231 0.29447103 -1.7829119
1.434262 0.28016308 -1.7785085
1.4270045 0.27180165 -1.776396
1.393813 0.27734467 -1.775625
1.4324679 0.26621795 -1.7814168
1.427482 0.26151615 -1.7805185
1.4037997 0.26355577 -1.7758812
1.4181082 0.2532478 -1.7775185
1.4304473 0.24793956 -1.7756898
1.4284151 0.25125971 -1.77635
1.4441103 0.24087106 -1.7708831
1.395321 0.24041407 -1.7750068
1.4502026 0.22720419 -1.7734698
1.4351449 0.22800729 -1.7712897
1.4239907 0.23247027 -1.7757514
1.3970754 0.23323423 -1.7690331
1.3530753 0.22975926 -1.7704725
1.4288778 0.32034099 -1.7913574
1.4111009 0.31866401 -1.7934823
1.441131 0.31447738 -1.7907784
1.4207188 0.29816782 -1.7932715
1.4017529 0.29815799 -1.7873404
1.4392852 0.2873891 -1.7942059
1.4344264 0.29587758 -1.7945805
1.429258 0.2953679 -1.7919282
1.4137191 0.28388667 -1.7868501
1.4163947 0.27603304 -1.787052
1.3883673 0.26276496 -1.783944
1.422289 0.25330585 -1.7818186
1.4052775 0.25626212 -1.783281
1.3894142 0.25918645 -1.7805623
1.4260554 0.24771726 -1.7864146
1.39856 0.24743232 -1.782343
1.4218301 0.23266207 -1.7805262
1.4335577 0.32454851 -1.8087881
1.4295936 0.32006246 -1.8064767
1.4098865 0.32099348 -1.8014693
1.4555912 0.3032515 -1.8034554
1.4236385 0.30421755 -1.7978191
1.4393544 0.29022735 -1.7968858
1.4307563 0.28507024 -1.7981976
1.4277219 0.27727789 -1.7983823
1.4143798 0.28235692 -1.7999552
1.3982784 0.28096145 -1.7940797
1.3957111 0.28040019 -1.7929225
1.4513658 0.27403736 -1.7977471
1.4404509 0.27615058 -1.8014694
1.4084795 0.2677632 -1.7933118
1.3896693 0.26264226 -1.7985045
1.4280335 0.25644112 -1.7968709
1.4386116 0.24187683 -1.7896775
1.3991663 0.24465144 -1.7934337
1.4474918 0.23251562 -1.7937132
1.4338621 0.23342651 -1.7918329
1.419789 0.23822726 -1.7947224
1.3999524 0.23935741 -1.7895724
1.4462409 0.3142367 -1.812355
1.4408215 0.29881781 -1.8090396
1.4244524 0.30173323 -1.8118304
1.4216819 0.30231795 -1.8117768
1.4345708 0.28689593 -1.8075767
1.4504619 0.26788777 -1.8033378
1.4329417 0.27172664 -1.8018838
1.441914 0.26563486 -1.8075098
1.4210175 0.2586782 -1.8021842
1.4096572 0.26231414 -1.8038632
1.4086957 0.26562294 -1.805908
1.444011 0.25229585 -1.8024663
1.4032398 0.25163972 -1.7997736
1.4298838 0.32534581 -1.8260248
1.4160069 0.32451141 -1.8211148
1.4598974 0.31050789 -1.8198169
1.4445673 0.30738473 -1.8186308
1.4447304 0.30002576 -1.8187708
1.4403017 0.29900068 -1.8167843
1.4531242 0.29160476 -1.8214053
1.4350452 0.2853975 -1.8222158
1.4185944 0.28426787 -1.8174917
1.415589 0.28441036 -1.8174059
1.452744 0.27925551 -1.8191264
1.4456581 0.26930445 -1.8174834
1.4532362 0.24586153 -1.8169723
1.4450656 0.25198436 -1.8121743
1.4030116 0.24888888 -1.8118607
1.4037993 0.2448488 -1.8095245
1.4012942 0.24347492 -1.808787
1.4656436 0.32200176 -1.8314011
1.4503808 0.32340479 -1.8287895
1.444651 0.30653679 -1.83479
1.4275315 0.30622166 -1.8311203
1.4392871 0.29113609 -1.8251426
1.4561251 0.2806825 -1.8286178
1.4334152 0.27723521 -1.822351
1.4302514 0.26549238 -1.8275537
1.4125412 0.2698603 -1.8243349
1.4094964 0.26650283 -1.8230349
1.4240103 0.25439852 -1.8206004
1.4654272 0.3190839 -1.838341
1.4492836 0.31162483 -1.8361968
1.4419421 0.30654883 -1.8366266
1.439092 0.28864846 -1.8410428
1.4340069 0.27488729 -1.8316545
1.4565675 0.26982683 -1.83496
1.4455435 0.25754094 -1.8328201
1.4213815 0.2472059 -1.8336114
1.4068676 0.25123173 -1.829551
1.4394593 0.24173577 -1.8275512
1.437678 0.31683981 -1.850111
1.4604859 0.29422671 -1.8463277
1.4541925 0.28743052 -1.8474063
1.4333559 0.27001801 -1.8470033
1.4287267 0.25863862 -1.8381666
1.4324384 0.3007164 -1.8565727
1.4551643 0.27785093 -1.8528905
1.4491504 0.27034819 -1.8520126
1.4498426 0.26147512 -1.8594533
1.4604552 0.24960661 -1.8641614
