# .PCD v0.7 - Point Cloud Data file format
VERSION 0.7
FIELDS x y z
SIZE 4 4 4
TYPE F F F
COUNT 1 1 1
WIDTH 873
HEIGHT 1
VIEWPOINT 0 0 0 1 0 0 0
POINTS 873
DATA ascii
0.4706614 -0.33107203 0.35068065
0.49058422 -0.32848412 0.3351666
0.47691929 -0.32707584 0.33658952
0.48236215 -0.32813823 0.32639223
0.5180589 -0.31214678 0.31425712
0.51072669 -0.32581809 0.31933799
0.49688551 -0.32446015 0.32097769
0.50183743 -0.31159231 0.30298677
0.51707172 -0.32176626 0.3050507
0.48786253 -0.32397926 0.31203637
0.51285005 -0.33580044 0.29748657
0.48388028 -0.3379336 0.30510414
0.53757298 -0.31905764 0.28895435
0.5234167 -0.31771439 0.29076344
0.4900665 -0.32023087 0.28547445
0.54119653 -0.3387495 0.29391116
0.50238556 -0.33499297 0.28822252
0.48938069 -0.3337746 0.29074824
0.54396248 -0.31497738 0.27456692
0.54758632 -0.33028942 0.2834177
0.51919502 -0.33174855 0.28319928
0.54763097 -0.3346405 0.27942234
0.53593934 -0.30588603 0.26685998
0.49466914 -0.31633306 0.27096921
0.54063487 -0.30190954 0.25206226
0.55035204 -0.31089711 0.26017946
0.56318647 -0.32313344 0.25517929
0.5442782 -0.32101601 0.25702116
0.4904325 -0.32998767 0.26479989
0.49698552 -0.29891807 0.24675089
0.5710305 -0.30587107 0.24491128
0.56050009 -0.32642248 0.25044471
0.54610074 -0.32502973 0.25256228
0.4950352 -0.32608992 0.25029469
0.55168444 -0.29971406 0.23938295
0.54533041 -0.29793313 0.23726451
0.56635165 -0.31964546 0.24001136
0.50406629 -0.31379753 0.23717853
0.49259299 -0.31243515 0.24133371
0.53384465 -0.32260311 0.2407058
0.55042243 -0.33187264 0.23992372
0.55002588 -0.2939567 0.22246677
0.57260066 -0.30121487 0.22977108
0.50090879 -0.29539078 0.23213793
0.54393768 -0.30413464 0.22998053
0.54100829 -0.31186315 0.23097077
0.5695169 -0.31615746 0.22484347
0.53786445 -0.3193582 0.22743799
0.54742563 -0.32306609 0.23508632
0.55748397 -0.33231747 0.23203924
0.54465419 -0.33103704 0.23578674
0.50483221 -0.2918635 0.21752498
0.56952053 -0.29865631 0.21701711
0.53756034 -0.29633257 0.21921679
0.53408456 -0.30000693 0.2229332
0.54570377 -0.30788672 0.21617304
0.58097172 -0.31761363 0.21990496
0.56662464 -0.31416669 0.22341922
0.55887979 -0.3168692 0.2237874
0.55148005 -0.31942099 0.21998525
0.56753904 -0.29097801 0.20376539
0.55797929 -0.29275244 0.20386849
0.5530532 -0.29678032 0.20535958
0.54560846 -0.29212719 0.20639259
0.53979349 -0.29571354 0.20646235
0.53324056 -0.29110986 0.20976943
0.50043964 -0.30538052 0.21210781
0.57138425 -0.31013605 0.20841959
0.56526929 -0.31278896 0.20939994
0.54344034 -0.31514218 0.21288511
0.55671161 -0.32494214 0.20978548
0.54557222 -0.32346353 0.21473823
0.5757677 -0.33051524 0.21404934
0.56105733 -0.28938553 0.19446793
0.57217371 -0.29348996 0.20230122
0.53975606 -0.30557129 0.1974131
0.54669851 -0.32552356 0.20419878
0.58528447 -0.28795463 0.18479997
0.56783193 -0.28935143 0.19075252
0.57231033 -0.2920883 0.18849078
0.5586291 -0.29256433 0.19080672
0.54115093 -0.30568174 0.18704619
0.57375306 -0.30894509 0.19476005
0.54748356 -0.31076893 0.19441672
0.55304354 -0.32147169 0.18991151
0.57544219 -0.28717697 0.17431414
0.60019481 -0.29545617 0.18091737
0.56825823 -0.3077783 0.18052217
0.55459213 -0.30671012 0.18377936
0.56300086 -0.31801155 0.17964725
0.58195704 -0.32421863 0.18481854
0.56620026 -0.28019673 0.16489983
0.65353233 -0.28662729 0.16856828
0.60816312 -0.28766906 0.16887967
0.58685672 -0.2884312 0.16907173
0.57793772 -0.28928903 0.17294443
0.58443785 -0.30054817 0.16623759
0.57079387 -0.30086166 0.16944614
0.5738728 -0.30353299 0.16586831
0.58902079 -0.31874311 0.16907413
0.5912587 -0.27619347 0.15407792
0.61457562 -0.28046694 0.15629072
0.61009711 -0.2825712 0.15713352
0.59507859 -0.28233528 0.15946731
0.5811215 -0.2801078 0.16062461
0.6412822 -0.28850415 0.15532118
0.63466239 -0.29308546 0.15901724
0.62015861 -0.29210243 0.16254278
0.59496617 -0.29433817 0.15892157
0.56200767 -0.29413426 0.15738778
0.61867619 -0.29977614 0.16107447
0.65013057 -0.30875799 0.15986507
0.56980783 -0.31777695 0.1587922
0.61533809 -0.27500528 0.14599459
0.58644843 -0.27496445 0.14417325
0.62144119 -0.2822786 0.14892353
0.60805678 -0.28082612 0.15046024
0.5817315 -0.2802465 0.14417592
0.65803444 -0.2888751 0.14804284
0.64227611 -0.29180732 0.14897493
0.62284189 -0.29603088 0.14555861
0.61655074 -0.2955901 0.14818144
0.60576296 -0.29545394 0.15311992
0.60554183 -0.29765943 0.14902292
0.59335852 -0.30027077 0.14762078
0.58534312 -0.29871759 0.14900389
0.57948738 -0.29928774 0.15121445
0.57393843 -0.29739642 0.15437703
0.61560756 -0.31022507 0.1516007
0.59038764 -0.30798876 0.1544968
0.5692901 -0.31108108 0.14950903
0.55806935 -0.30969217 0.15485157
0.64789063 -0.32325488 0.15296736
0.64545423 -0.3166416 0.14992297
0.62061036 -0.31496269 0.15246166
0.5890066 -0.31743491 0.15390041
0.58361185 -0.31888822 0.15525106
0.65298927 -0.27668417 0.14074594
0.6273728 -0.27715176 0.14201975
0.61871302 -0.27674726 0.14088055
0.61480796 -0.28338957 0.14261258
0.62520409 -0.28871366 0.13740513
0.61709327 -0.29611179 0.13964407
0.60818499 -0.29192317 0.13794601
0.60364562 -0.29504299 0.1440369
0.58237118 -0.29010952 0.13908172
0.62174094 -0.30231243 0.14035347
0.59484828 -0.30226961 0.14149246
0.61718065 -0.31180161 0.13913882
0.58657604 -0.31060049 0.14423297
0.60969037 -0.31958085 0.14786771
0.60066897 -0.31891033 0.14845967
0.63584006 -0.27447939 0.12623359
0.58487606 -0.27678123 0.12910679
0.64898068 -0.29157817 0.13149358
0.64445573 -0.29823586 0.13055168
0.62309062 -0.29112062 0.13389106
0.61197633 -0.2935504 0.13453409
0.59901202 -0.29599607 0.13286532
0.6035769 -0.30566195 0.13349265
0.5929656 -0.30652025 0.12984553
0.65385526 -0.31153199 0.13342565
0.64446616 -0.31326646 0.12949911
0.62985361 -0.31471333 0.13116795
0.61512083 -0.31364235 0.13315196
0.60128605 -0.3124966 0.13723141
0.64045244 -0.26821288 0.11343901
0.61424714 -0.27009451 0.11630496
0.67315161 -0.27529389 0.11507022
0.65422136 -0.27648574 0.11797593
0.62296742 -0.27823737 0.12148169
0.65747571 -0.28740531 0.11756747
0.64051485 -0.28643218 0.11620148
0.6290316 -0.28590351 0.12076703
0.60829461 -0.285557 0.12080107
0.64152735 -0.2925058 0.11781098
0.62747431 -0.29797739 0.12538986
0.62366015 -0.29920614 0.1169353
0.61182463 -0.29788411 0.12268558
0.60599893 -0.30213121 0.11831874
0.63782346 -0.31038499 0.12082075
0.65558141 -0.26882094 0.11126627
0.64856994 -0.26870543 0.10565723
0.64212543 -0.27129057 0.10745437
0.63643396 -0.26754764 0.11145968
0.63617033 -0.28218183 0.10531031
0.62866056 -0.27393267 0.10662277
0.66944778 -0.29053891 0.1052907
0.64869273 -0.2917811 0.11390511
0.62484545 -0.28533241 0.10555645
0.60999584 -0.28422716 0.10868779
0.6332075 -0.29364237 0.11042625
0.65346718 -0.30229929 0.10831512
0.64484483 -0.30860806 0.10857318
0.63784969 -0.31365091 0.11432259
0.66216785 -0.26431969 0.09687414
0.65021914 -0.26919809 0.095617563
0.62005925 -0.26759219 0.096877605
0.65126878 -0.28288931 0.1030797
0.64342844 -0.27880633 0.10165691
0.67646176 -0.28509426 0.10075153
0.65521944 -0.28761318 0.099208727
0.65091449 -0.28852355 0.10455719
0.64037865 -0.28892583 0.10448126
0.6353392 -0.28479522 0.099011034
0.64791858 -0.30196396 0.10532044
0.62230253 -0.30225435 0.1027616
0.64254302 -0.30659822 0.10295289
0.66875428 -0.25981843 0.082481995
0.65182036 -0.26512364 0.09008126
0.64416891 -0.2666977 0.089247055
0.65743697 -0.26784635 0.083818391
0.64882493 -0.27042726 0.087724708
0.63109863 -0.26854604 0.09064436
0.65738273 -0.27796039 0.089513615
0.64523757 -0.28481102 0.089168549
0.65357834 -0.29027045 0.091459401
0.64646292 -0.28811228 0.088882379
0.63705391 -0.28815958 0.095330052
0.66196221 -0.29812643 0.094389006
0.64891648 -0.29950348 0.093160562
0.6311934 -0.29854068 0.093933687
0.64973778 -0.3044644 0.093153112
0.67661607 -0.2674284 0.078007191
0.65613961 -0.26270172 0.077733554
0.65935242 -0.28590459 0.076389231
0.64987814 -0.28078339 0.081538066
0.63950491 -0.28105 0.083495177
0.67045736 -0.2939536 0.080462888
0.65354264 -0.29245645 0.08050099
0.64221102 -0.29341352 0.080017775
0.64939791 -0.30491912 0.084182248
0.65699297 -0.26412943 0.068908483
0.64520276 -0.26365137 0.069519587
0.66444165 -0.2738868 0.074295424
0.6528967 -0.27819517 0.073236361
0.64893287 -0.28451163 0.07340806
0.66601342 -0.29568744 0.068344936
0.65628773 -0.29921728 0.072921857
0.64922988 -0.30652478 0.072314411
0.66644883 -0.30884755 0.071210533
0.65757811 -0.25821069 0.056534734
0.65250045 -0.25920728 0.058215339
0.67102808 -0.26938555 0.05990329
0.65635949 -0.26781067 0.063525416
0.64134735 -0.27092442 0.060046334
0.67907608 -0.27657688 0.064795792
0.66060728 -0.27468082 0.064370722
0.65693527 -0.27852699 0.062403087
0.65140295 -0.28091097 0.05793374
0.64122063 -0.27567935 0.063607693
0.675484 -0.2886951 0.06354931
0.66012901 -0.28795514 0.066108853
0.64554274 -0.29247138 0.065892451
0.63900673 -0.29165706 0.062227443
0.62599808 -0.29037741 0.067814432
0.70152587 -0.25348407 0.047992863
0.66304988 -0.25222349 0.045377906
0.67016917 -0.2555851 0.051777832
0.66582626 -0.26030397 0.052571356
0.65960604 -0.26352933 0.045820363
0.64719701 -0.26236185 0.053590756
0.67761451 -0.26488429 0.045511156
0.66472852 -0.2636998 0.049806088
0.65058351 -0.26889637 0.047601148
0.64604616 -0.27159286 0.048400417
0.6876694 -0.27937815 0.050799564
0.66112995 -0.27475581 0.046779562
0.65614057 -0.27630228 0.050571784
0.6628837 -0.2819792 0.051330902
0.65506536 -0.28839046 0.050918896
0.65048283 -0.29099622 0.052030381
0.6655848 -0.29427966 0.050839894
0.65223897 -0.29297888 0.0566113
0.65770209 -0.30508655 0.056088403
0.71091294 -0.24950182 0.034739066
0.67664951 -0.25144687 0.037185833
0.67155051 -0.25469443 0.035737436
0.65531331 -0.25319085 0.03966105
0.69589043 -0.26128635 0.040038187
0.6808551 -0.25815827 0.038455866
0.67155915 -0.25806078 0.036517292
0.69785041 -0.26861241 0.038288198
0.67923898 -0.26677692 0.038064566
0.6738137 -0.27337384 0.038031232
0.66585749 -0.26991865 0.044052362
0.65829062 -0.27049482 0.040776007
0.64457595 -0.26736656 0.044574566
0.67330188 -0.27895266 0.037324585
0.66077942 -0.27837265 0.040691122
0.63980341 -0.28141689 0.039576497
0.68478775 -0.287723 0.041837335
0.6519897 -0.29084733 0.043346077
0.68276572 -0.29381439 0.045664199
0.67777419 -0.29833066 0.040809102
0.66240281 -0.29752231 0.043530144
0.68321055 -0.25471431 0.029169571
0.65712631 -0.25240922 0.032328181
0.64084995 -0.25433114 0.029553642
0.7072376 -0.26463017 0.025034398
0.69845784 -0.25979504 0.026700336
0.68384552 -0.25898191 0.031079561
0.67076111 -0.2627539 0.031331178
0.66104227 -0.25969893 0.031526614
0.68799108 -0.27428323 0.032737147
0.68785298 -0.26677388 0.02572687
0.67667472 -0.27280691 0.031178713
0.66532463 -0.27098459 0.031156044
0.70197922 -0.27836099 0.029077638
0.69130433 -0.27969715 0.032681834
0.65196216 -0.28266808 0.033289853
0.68608314 -0.29015881 0.029767465
0.66930979 -0.28788972 0.031472821
0.66154569 -0.28425214 0.0363269
0.65608603 -0.28996342 0.034146916
0.69339186 -0.29916561 0.03808162
0.68111235 -0.30285135 0.032132674
0.65617108 -0.3017804 0.037528418
0.68898755 -0.24733785 0.022423448
0.68312991 -0.24730858 0.022593834
0.69745421 -0.25549221 0.023813045
0.68979508 -0.25290567 0.014853335
0.68404776 -0.25463524 0.022876561
0.66351229 -0.2560983 0.016052291
0.68422544 -0.2615355 0.017821345
0.71112967 -0.27576181 0.017186716
0.69430411 -0.27206698 0.019006085
0.66914839 -0.27426174 0.026971789
0.65300447 -0.2668525 0.025153035
0.66802609 -0.28011391 0.021734899
0.66062826 -0.28543645 0.025364254
0.6989215 -0.29151726 0.023261726
0.68545407 -0.28864971 0.022730356
0.67249429 -0.28745553 0.023901559
0.65772301 -0.28651232 0.028382463
0.70989245 -0.29801229 0.028344763
0.67264116 -0.29981384 0.024861788
0.71291459 -0.24905711 0.0084580453
0.69116801 -0.24542865 0.0076866793
0.706662 -0.25520051 0.011286595
0.68908828 -0.25174528 0.0083066663
0.67000216 -0.25026828 0.0071878582
0.69437975 -0.26260599 0.011030497
0.68359971 -0.26508653 0.0071910843
0.66951925 -0.26721334 0.01553252
0.70626247 -0.27451009 0.013123868
0.6950894 -0.27160713 0.012046975
0.68446171 -0.26919556 0.012324426
0.6784904 -0.27294201 0.013235846
0.70356208 -0.27975854 0.015329743
0.69924349 -0.28233647 0.014133099
0.68838292 -0.28472853 0.010603797
0.68351042 -0.28120992 0.017946141
0.66482294 -0.28166527 0.0097407326
0.71118653 -0.29447713 0.017087936
0.69104117 -0.28926376 0.01181894
0.68267924 -0.29053131 0.016685769
0.6651994 -0.28893459 0.017856829
0.69049948 -0.29886913 0.018878877
0.72511238 -0.24992935 0.001322709
0.71661341 -0.25017783 -0.003955191
0.69820434 -0.24725628 -0.0050712377
0.69267476 -0.24856271 -0.0010097623
0.67573738 -0.24883404 -0.00089749135
0.7009064 -0.25843814 -0.0036658794
0.68672842 -0.25788683 0.0021405779
0.70808786 -0.26344728 0.0037935376
0.69762135 -0.26841143 0.0031093471
0.68822283 -0.26407513 0.0010383688
0.7058174 -0.27813846 -0.00066944771
0.70851034 -0.28494018 -0.00056925043
0.70226181 -0.28783628 0.0072546825
0.69326824 -0.2840009 0.0041502323
0.7067548 -0.29003316 0.0088820197
0.69737804 -0.29588184 0.0059606209
0.67693472 -0.29278842 0.0093912724
0.71177566 -0.23983422 -0.010581529
0.72766656 -0.24620597 -0.014679031
0.71962476 -0.25205082 -0.012869464
0.70482725 -0.24894783 -0.0093251057
0.69803393 -0.24717046 -0.010562999
0.71054578 -0.27065912 -0.0028299075
0.70341635 -0.2673924 -0.0073620621
0.69331038 -0.28055567 -0.0049249306
0.6819663 -0.2720845 -0.0024615265
0.70927382 -0.29090467 -0.0076287184
0.70144343 -0.2926788 -0.0085063875
0.70526236 -0.24192004 -0.020307697
0.69788957 -0.24228333 -0.017090648
0.69250441 -0.24298303 -0.017939262
0.72626477 -0.24634697 -0.016669456
0.70915967 -0.24666402 -0.023548763
0.69638455 -0.24564433 -0.016723592
0.72280705 -0.26069427 -0.01937535
0.70910937 -0.26045325 -0.0188765
0.7074331 -0.25427026 -0.018362254
0.69964761 -0.26094764 -0.020243961
0.6928848 -0.26095569 -0.018005088
0.67925006 -0.25600734 -0.018020414
0.71482915 -0.26680821 -0.018783677
0.7133795 -0.27722588 -0.015664432
0.70430833 -0.28019685 -0.017171223
0.69823778 -0.27638277 -0.020453656
0.69954228 -0.28224805 -0.010958062
0.7402342 -0.23411807 -0.032259248
0.73239249 -0.24220805 -0.031174291
0.72626239 -0.24279195 -0.02967112
0.71913499 -0.24130271 -0.026725255
0.71054661 -0.24237804 -0.026449524
0.70495933 -0.24174893 -0.029967984
0.74520469 -0.25355715 -0.028336678
0.72215813 -0.24772064 -0.030424457
0.71395975 -0.2501024 -0.033058625
0.72446591 -0.26122239 -0.023762336
0.70344013 -0.25945923 -0.028294828
0.69338566 -0.25679919 -0.023649067
0.73172367 -0.26781186 -0.024431646
0.7128548 -0.26598242 -0.024178687
0.68670344 -0.27529287 -0.027819315
0.71866101 -0.28692243 -0.020882517
0.70801729 -0.28848082 -0.023308933
0.75359851 -0.23508485 -0.039324358
0.74086076 -0.23226589 -0.044205755
0.73289585 -0.2382585 -0.044166207
0.7257421 -0.23420699 -0.041241262
0.71213263 -0.23568112 -0.042125225
0.70567065 -0.23375398 -0.044590339
0.69378698 -0.23376656 -0.043230731
0.73178351 -0.23948826 -0.044141285
0.71638173 -0.24143603 -0.040479124
0.73011816 -0.25389886 -0.038145054
0.72191882 -0.25696093 -0.037916254
0.71225363 -0.25458726 -0.040671166
0.69827867 -0.25265554 -0.039069138
0.69498682 -0.25358707 -0.040138047
0.74111086 -0.26382962 -0.037685446
0.73232651 -0.25737789 -0.039285969
0.72536117 -0.25697085 -0.035377093
0.71816653 -0.26260716 -0.03516645
0.70961726 -0.26453847 -0.040839352
0.70623398 -0.25644639 -0.034636095
0.7401979 -0.26829699 -0.033580035
0.70316535 -0.27220994 -0.035982378
0.69867516 -0.27249104 -0.037020493
0.74717647 -0.28491253 -0.034472603
0.72742373 -0.2796374 -0.034526844
0.71276647 -0.27997315 -0.034888886
0.7004236 -0.27650052 -0.034180637
0.70815462 -0.29206014 -0.032817651
0.7412256 -0.2361165 -0.047879487
0.73623353 -0.23311354 -0.05512663
0.7244693 -0.23621874 -0.049881123
0.72020048 -0.23578727 -0.054168731
0.70614219 -0.236295 -0.047774952
0.74658632 -0.24017248 -0.050090499
0.73648673 -0.2468062 -0.052042693
0.69046849 -0.24831878 -0.053016268
0.74691325 -0.25639796 -0.044872187
0.74197781 -0.25354701 -0.052000232
0.72788405 -0.253319 -0.051602144
0.71262842 -0.25341892 -0.04490649
0.750498 -0.2598474 -0.050939247
0.74358505 -0.26456454 -0.049811065
0.74166167 -0.26654851 -0.049410198
0.72553897 -0.26554453 -0.045077089
0.74780989 -0.27429339 -0.04882605
0.73348069 -0.27176839 -0.049517184
0.7274099 -0.27194655 -0.04781016
0.71071434 -0.27080953 -0.041383673
0.69145113 -0.26822641 -0.04989209
0.75663596 -0.28089958 -0.04782863
0.75269067 -0.27698952 -0.041814953
0.73063445 -0.28542277 -0.042394064
0.72531855 -0.27802971 -0.047879782
0.71228284 -0.27679351 -0.040766448
0.73845071 -0.29137358 -0.046616964
0.71598446 -0.29094237 -0.038526647
0.69472605 -0.28716388 -0.046135459
0.74854589 -0.2300214 -0.060354851
0.7427358 -0.2324279 -0.065014727
0.73162031 -0.23650326 -0.058905981
0.75268888 -0.2476743 -0.056426335
0.71936208 -0.24959643 -0.055344194
0.75540823 -0.25222513 -0.058798306
0.74852049 -0.25297004 -0.061835539
0.73618078 -0.25236461 -0.054337572
0.71369231 -0.25419849 -0.059992097
0.74288714 -0.26937506 -0.05985729
0.70809281 -0.26803705 -0.051511109
0.69515097 -0.26769817 -0.059282999
0.76125026 -0.27278498 -0.055846889
0.74958718 -0.27239937 -0.052957732
0.72483689 -0.26982316 -0.052423809
0.71860009 -0.27386367 -0.056605443
0.70704406 -0.26838014 -0.050739825
0.7385782 -0.27930436 -0.055054426
0.72184181 -0.28651348 -0.053814262
0.76718169 -0.29365966 -0.052850384
0.74865162 -0.29199669 -0.051137611
0.71242684 -0.28874734 -0.047785006
0.75808859 -0.22783324 -0.075523309
0.73288274 -0.22845495 -0.069398761
0.75158429 -0.23593986 -0.065841675
0.73487288 -0.23359169 -0.066586897
0.76470107 -0.24759626 -0.07042928
0.75162899 -0.24971615 -0.064714484
0.74698377 -0.25076741 -0.072540894
0.74203813 -0.24793571 -0.069625191
0.7336821 -0.24895099 -0.066669337
0.71860349 -0.24669118 -0.064076908
0.70020974 -0.2446949 -0.065019503
0.72767913 -0.2552554 -0.066644996
0.7698099 -0.26858047 -0.069878839
0.74828321 -0.26232013 -0.06432011
0.72402388 -0.26717159 -0.060859706
0.71302021 -0.26386419 -0.067039832
0.70095789 -0.26445287 -0.062416043
0.7575351 -0.27043322 -0.06163767
0.73402238 -0.27330762 -0.062077761
0.72773892 -0.27588689 -0.067716569
0.77580684 -0.28942293 -0.066989765
0.76151043 -0.28753081 -0.064851031
0.74518055 -0.28677428 -0.06132267
0.73737174 -0.28746057 -0.059022341
0.71807975 -0.28365499 -0.064096257
0.70355719 -0.28265521 -0.058115732
0.74419308 -0.28926897 -0.058804132
0.73923367 -0.22455062 -0.081211112
0.7365495 -0.2238536 -0.080479831
0.77452087 -0.22719263 -0.080240749
0.76042521 -0.22659306 -0.07754609
0.75213629 -0.22864681 -0.07753066
0.74411851 -0.22966954 -0.079640776
0.74963444 -0.23841026 -0.081647784
0.73928875 -0.24000385 -0.079043031
0.72841752 -0.24304022 -0.076169893
0.77924711 -0.24822007 -0.075542375
0.76045692 -0.26198396 -0.07341443
0.75490475 -0.25809169 -0.079230025
0.74684364 -0.26263598 -0.078716785
0.75620973 -0.2709935 -0.073897704
0.74580705 -0.26785368 -0.072010837
0.74009031 -0.26419532 -0.078123741
0.72234511 -0.26201525 -0.071739599
0.76027268 -0.278072 -0.076755062
0.74387759 -0.27696589 -0.072213896
0.74196535 -0.27557191 -0.071285456
0.71146399 -0.27894205 -0.073574118
0.76565599 -0.2819044 -0.069716379
0.74471587 -0.28626269 -0.073703542
0.73949313 -0.28425884 -0.069865808
0.73268008 -0.28553435 -0.070635021
0.7041682 -0.28350669 -0.071737766
0.78417212 -0.22336178 -0.092955016
0.77736294 -0.22477907 -0.095544636
0.76773816 -0.22432627 -0.090326108
0.75928795 -0.22194494 -0.09071584
0.75308025 -0.22520274 -0.090173058
0.7466712 -0.22688052 -0.091059208
0.76033556 -0.2427533 -0.088912793
0.75115508 -0.24190538 -0.088163018
0.74789548 -0.24350682 -0.084912814
0.73936504 -0.24197948 -0.088730961
0.75943404 -0.24622257 -0.089944109
0.75198174 -0.24653476 -0.088292077
0.73196238 -0.25140446 -0.082598761
0.76386791 -0.2582252 -0.089759842
0.76025224 -0.26135466 -0.085870884
0.77836949 -0.2643759 -0.083910778
0.76559693 -0.26701128 -0.087151498
0.72716677 -0.2661618 -0.088512987
0.76364326 -0.28154856 -0.084427357
0.74695325 -0.27999607 -0.08333078
0.78312916 -0.28368786 -0.084338844
0.77185136 -0.28811875 -0.084320202
0.76828963 -0.28289783 -0.079664409
0.74309373 -0.28273737 -0.082186155
0.79119551 -0.22569963 -0.10314807
0.77577412 -0.22267844 -0.10425572
0.76158041 -0.22747457 -0.097344011
0.7312144 -0.22807243 -0.10164569
0.76140654 -0.23645733 -0.10280932
0.75620836 -0.23421228 -0.096450336
0.7657631 -0.23845915 -0.099637479
0.76254159 -0.23847416 -0.09852834
0.74845296 -0.23882714 -0.095896572
0.76152629 -0.25386325 -0.094139956
0.73488832 -0.25405028 -0.098121569
0.79215783 -0.26040769 -0.095951855
0.76734203 -0.25691622 -0.10004527
0.75934291 -0.25910971 -0.09778218
0.75352508 -0.25806978 -0.093316585
0.74627507 -0.25935096 -0.094506845
0.77469975 -0.27882394 -0.093855612
0.76503569 -0.27944559 -0.095307648
0.75941968 -0.27684599 -0.094419278
0.74917156 -0.27853853 -0.089819372
0.79008961 -0.21555763 -0.11409854
0.80519819 -0.22662079 -0.11088399
0.78171325 -0.22330524 -0.10661934
0.76323038 -0.22080711 -0.10692724
0.74532467 -0.22894526 -0.10859209
0.77097309 -0.23433252 -0.11235026
0.76278216 -0.23001429 -0.11125287
0.79750496 -0.24003854 -0.10725217
0.78091347 -0.23962721 -0.10341562
0.76874989 -0.24227059 -0.10309719
0.72645235 -0.24272653 -0.10751854
0.80219746 -0.25667289 -0.10832259
0.76020646 -0.25350356 -0.10791638
0.75712061 -0.26850909 -0.10203374
0.74509597 -0.273096 -0.10633343
0.78333801 -0.2834394 -0.10505642
0.74278063 -0.27618986 -0.10169053
0.79493201 -0.21418443 -0.12012072
0.78327602 -0.21511352 -0.11857139
0.76970845 -0.21536016 -0.12339352
0.78176689 -0.22382748 -0.11955815
0.76122636 -0.23025112 -0.11830492
0.80428421 -0.23540556 -0.12206555
0.79023397 -0.2343927 -0.11557153
0.77968025 -0.23389488 -0.11717165
0.77319956 -0.23393762 -0.1182856
0.75961035 -0.23464903 -0.11548805
0.74706584 -0.2374002 -0.11335017
0.75840831 -0.24455465 -0.11908983
0.7497474 -0.24893938 -0.12008886
0.81223696 -0.25293809 -0.12069333
0.7930662 -0.25451869 -0.11567836
0.78787881 -0.25314888 -0.116428
0.77699327 -0.25308535 -0.11275952
0.76593685 -0.25663093 -0.11436575
0.75237918 -0.25712967 -0.11074248
0.78437126 -0.25904682 -0.11365909
0.76374227 -0.26428065 -0.11694367
0.78247082 -0.27373001 -0.10967088
0.77281326 -0.27333033 -0.11315896
0.75553519 -0.2694473 -0.11735462
0.79077059 -0.28009287 -0.11103228
0.77130872 -0.27815741 -0.11010996
0.75779706 -0.2771579 -0.10807113
0.82485926 -0.21235299 -0.12939024
0.78900069 -0.21126226 -0.13510638
0.78558558 -0.21579112 -0.1291063
0.78110087 -0.21398085 -0.13185632
0.79223895 -0.22895668 -0.13021988
0.78625888 -0.22843066 -0.12750375
0.7794047 -0.2301909 -0.12617217
0.76767403 -0.2284364 -0.1245418
0.79147059 -0.2358098 -0.12686116
0.78738159 -0.23436667 -0.12940334
0.75202841 -0.23319763 -0.12898946
0.7307058 -0.23890254 -0.12336068
0.78664458 -0.24925448 -0.1254738
0.76694125 -0.24902621 -0.12202479
0.75484073 -0.24470952 -0.12156213
0.79745972 -0.25613275 -0.1245662
0.78273755 -0.25878608 -0.12375817
0.78689641 -0.26851568 -0.12535392
0.76020783 -0.26722926 -0.11952932
0.80023015 -0.27607989 -0.12438831
0.77934611 -0.26943311 -0.11897275
0.77692187 -0.27045822 -0.12633018
0.78844589 -0.27911383 -0.12115348
0.79091597 -0.21069439 -0.1447075
0.77485126 -0.21100229 -0.14319086
0.79806608 -0.21812862 -0.13607165
0.81602401 -0.2285462 -0.13578594
0.80267823 -0.225308 -0.14124107
0.79701144 -0.2289834 -0.13929406
0.78898901 -0.22555035 -0.14032927
0.78139096 -0.24117795 -0.13886972
0.76597905 -0.23709676 -0.13471898
0.82227647 -0.24920326 -0.13306406
0.79629576 -0.24542361 -0.13818805
0.78373402 -0.24938005 -0.13903426
0.7606681 -0.24519894 -0.13459304
0.80967325 -0.25284317 -0.13434173
0.79825532 -0.25963506 -0.13040419
0.78695279 -0.2610344 -0.13683143
0.77036375 -0.2600522 -0.13185358
0.78930938 -0.26572669 -0.13124947
0.76301593 -0.2638976 -0.1307165
0.79312515 -0.27132151 -0.1321117
0.80835396 -0.21203145 -0.14983305
0.79183531 -0.21530104 -0.15128809
0.82598728 -0.22483978 -0.14806266
0.81918758 -0.22290008 -0.15371431
0.8131175 -0.22165932 -0.15226229
0.79972035 -0.22124943 -0.15328282
0.79241812 -0.22230372 -0.14588585
0.81498826 -0.23193097 -0.14599414
0.80110323 -0.22582924 -0.14753272
0.80594701 -0.24159274 -0.1509023
0.78301245 -0.23766536 -0.14567399
0.76562673 -0.23960395 -0.14677514
0.80314559 -0.25108236 -0.14016668
0.79311085 -0.24639349 -0.14986256
0.78996676 -0.24480344 -0.14119194
0.79927266 -0.26202023 -0.14352621
0.77244312 -0.25905439 -0.14611982
0.81885642 -0.26420105 -0.14314921
0.81224453 -0.26497161 -0.14302644
0.79540652 -0.26436582 -0.13891794
0.78314084 -0.26953495 -0.1465348
0.78251487 -0.27578744 -0.14478302
0.81897664 -0.20749736 -0.15923168
0.81861717 -0.21032171 -0.16250807
0.80728453 -0.21581766 -0.15810515
0.80260843 -0.2087319 -0.15651643
0.80783319 -0.22122991 -0.16223842
0.79903966 -0.21807529 -0.16079578
0.79698837 -0.22285824 -0.15818734
0.78672642 -0.22495887 -0.15446849
0.78288388 -0.22293685 -0.15510869
0.82559544 -0.22798955 -0.15696962
0.82435143 -0.22997469 -0.1602007
0.81317258 -0.23583075 -0.15575194
0.82259309 -0.23972355 -0.15807118
0.80405182 -0.24079484 -0.15936594
0.79669672 -0.24020413 -0.15589765
0.78801244 -0.23694953 -0.15377964
0.81253284 -0.24710014 -0.15342048
0.80943382 -0.24707896 -0.15581794
0.79287899 -0.2501978 -0.15571827
0.81907374 -0.26030439 -0.15794927
0.80954617 -0.26015702 -0.1531785
0.79362279 -0.25677502 -0.15185054
0.7868529 -0.25850123 -0.15041822
0.7991122 -0.26679462 -0.14773756
0.83007693 -0.20764762 -0.1719787
0.81628609 -0.20475353 -0.16724198
0.82627356 -0.21561523 -0.17276816
0.80469918 -0.21776605 -0.16763791
0.8353067 -0.22737755 -0.16975117
0.82883883 -0.21906921 -0.16642858
0.82218862 -0.22443491 -0.16520201
0.80342656 -0.23560478 -0.17060335
0.79228914 -0.23669019 -0.16299912
0.7911945 -0.23445292 -0.16384645
0.77225697 -0.23250937 -0.16529632
0.81559825 -0.23776188 -0.16361657
0.81919909 -0.25460735 -0.16807969
0.79729217 -0.25485253 -0.16143942
0.78301722 -0.25455081 -0.16031963
0.80372846 -0.25936115 -0.16208401
0.78821158 -0.26524082 -0.16251484
0.77987903 -0.25561434 -0.15836033
0.78918487 -0.27152807 -0.15980211
0.82115644 -0.20244639 -0.18416758
0.82464492 -0.21855879 -0.18201567
0.81313074 -0.21362442 -0.18145984
0.8056612 -0.21384686 -0.1757057
0.8257423 -0.22283642 -0.1795242
0.83130717 -0.23913568 -0.17992808
0.82271624 -0.23495886 -0.17563136
0.81828034 -0.23150517 -0.171849
0.81154114 -0.23551366 -0.17621532
0.80113852 -0.23168993 -0.17580345
0.83264452 -0.24162582 -0.17989577
0.82168925 -0.24422297 -0.17034531
0.8144998 -0.2446052 -0.17506957
0.80245584 -0.24118938 -0.17316878
0.79794967 -0.24590367 -0.1716983
0.82568842 -0.2541557 -0.17742512
0.8172425 -0.25345835 -0.17212586
0.80685681 -0.25280315 -0.17478585
0.81824452 -0.25824624 -0.17637895
0.80807179 -0.2610684 -0.17093945
0.80376935 -0.26613706 -0.16944462
0.81308973 -0.27336738 -0.17271581
0.79876816 -0.27131632 -0.17070682
0.77548659 -0.26739979 -0.17295548
0.83195382 -0.19988669 -0.19358034
0.79156882 -0.20207876 -0.19185102
0.84814125 -0.2114075 -0.1918571
0.83616161 -0.21193677 -0.18495232
0.82845569 -0.20984347 -0.19113794
0.80576682 -0.20716977 -0.18792255
0.83772564 -0.2193099 -0.19154103
0.84238666 -0.22333138 -0.18578249
0.83490068 -0.23010015 -0.1890451
0.82314658 -0.22878321 -0.18532363
0.81807083 -0.22924379 -0.18895623
0.80915213 -0.22840695 -0.19064297
0.82140774 -0.23802519 -0.18706968
0.82945669 -0.2474328 -0.18578027
0.82281095 -0.24898013 -0.18674451
0.80052859 -0.24622039 -0.18518321
0.82916236 -0.25090092 -0.18035643
0.81902707 -0.25847125 -0.18048993
0.81574416 -0.25046682 -0.18335807
0.81108618 -0.25774086 -0.17898932
0.83806843 -0.26002812 -0.17781243
0.80864829 -0.26464847 -0.18448138
0.80503833 -0.26597613 -0.18255977
0.78582269 -0.26201272 -0.18447712
0.83010769 -0.27219525 -0.17972314
0.82143146 -0.27022427 -0.18136054
0.81428838 -0.26890576 -0.17911221
0.81605232 -0.20357481 -0.19878143
0.83319759 -0.20770085 -0.19719675
0.82156229 -0.2094828 -0.19528176
0.81135172 -0.2072688 -0.20181029
0.80222535 -0.20482641 -0.20006816
0.83396089 -0.21460682 -0.19516876
0.8031134 -0.2217245 -0.19787298
0.8417421 -0.2254855 -0.19542505
0.83397257 -0.22836143 -0.1946305
0.81688648 -0.22640616 -0.20001477
0.85455513 -0.23643157 -0.19899671
0.84069425 -0.23515347 -0.19318186
0.83802003 -0.23863277 -0.19338392
0.80924493 -0.24187233 -0.19574948
0.83668685 -0.2485728 -0.19204509
0.81707323 -0.25321397 -0.19461517
0.82262975 -0.26490712 -0.19281559
0.81547761 -0.26232743 -0.19358099
0.84073836 -0.27065098 -0.18949892
0.83637291 -0.20287968 -0.20919265
0.82816583 -0.2026605 -0.20937201
0.79656678 -0.19784611 -0.2076022
0.84268123 -0.22302984 -0.20706949
0.82849598 -0.222854 -0.20404311
0.81339896 -0.21812955 -0.20873189
0.84455186 -0.22626927 -0.20175934
0.83635068 -0.22539064 -0.20731185
0.81758368 -0.22426534 -0.20446485
0.83508289 -0.23345459 -0.20161191
0.81960672 -0.23825072 -0.20668888
0.86905408 -0.24552697 -0.2050029
0.84908885 -0.24348807 -0.20490991
0.83956164 -0.24630266 -0.20271777
0.83581054 -0.24667853 -0.20244138
0.82204378 -0.24800569 -0.2001866
0.83365339 -0.25393414 -0.20098536
0.82591683 -0.25867873 -0.20460217
0.84075564 -0.26357642 -0.19995496
0.80438644 -0.26755095 -0.19775532
0.83662337 -0.19638488 -0.22049923
0.84761244 -0.20223956 -0.2163747
0.846187 -0.19922873 -0.22128563
0.83295435 -0.20534804 -0.21973793
0.8180331 -0.2027026 -0.21641007
0.84012735 -0.21136983 -0.21299146
0.8525694 -0.21935134 -0.21925363
0.82361639 -0.22180684 -0.21472046
0.82996833 -0.23462909 -0.21762827
0.86089462 -0.24294658 -0.21254352
0.84096253 -0.24113107 -0.21166162
0.82133096 -0.23934291 -0.21079311
0.85607779 -0.25718275 -0.21450862
0.84569484 -0.25837186 -0.21491842
0.8363561 -0.25503004 -0.21562336
0.82772189 -0.25982371 -0.20884961
0.82605624 -0.25625139 -0.21475141
0.81808448 -0.26031396 -0.20659764
0.81892157 -0.26432228 -0.2122726
0.79880702 -0.19592008 -0.22411147
0.84405023 -0.21698925 -0.22620228
0.83034629 -0.21720749 -0.22942616
0.8293342 -0.22024822 -0.22929622
0.83608174 -0.23656781 -0.22779822
0.82203668 -0.23490624 -0.22746991
0.83598149 -0.24068165 -0.22758366
0.82408237 -0.24201524 -0.2235754
0.86644727 -0.24798927 -0.21788052
0.85727769 -0.25792214 -0.2225216
0.83737308 -0.25599283 -0.22156386
0.82394093 -0.257664 -0.22273624
0.83487976 -0.23945552 -0.23298815
0.82833356 -0.2551786 -0.22581655
0.83233404 -0.25569504 -0.2372146
