# .PCD v0.7 - Point Cloud Data file format
VERSION 0.7
FIELDS x y z
SIZE 4 4 4
TYPE F F F
COUNT 1 1 1
WIDTH 499
HEIGHT 1
VIEWPOINT 0 0 0 1 0 0 0
POINTS 499
DATA ascii
0.1036803 0.16582492 -3.3427591
0.087275818 0.27201495 -3.3677931
0.075493746 0.27278736 -3.3708107
0.11395436 0.25960493 -3.3672287
0.078934565 0.25527185 -3.3667972
0.11783522 0.24252352 -3.3641074
0.079518989 0.21523759 -3.3628199
0.081880756 0.21028236 -3.3576601
0.083342955 0.19775471 -3.3593683
0.08716692 0.18027177 -3.355917
0.11422676 0.16801262 -3.354213
0.074857116 0.16000488 -3.3553417
0.10203406 0.14825261 -3.3548405
0.094814852 0.14530587 -3.3490143
0.098638818 0.12782294 -3.3455627
0.097821333 0.42165333 -3.3989537
0.10084463 0.40110475 -3.3948877
0.071551666 0.37609541 -3.3916721
0.12840375 0.35551512 -3.390286
0.12094568 0.36230618 -3.3956811
0.081998855 0.36288199 -3.3910756
0.13145538 0.33649313 -3.3852654
0.085794687 0.32597631 -3.3889484
0.13450699 0.31747127 -3.3802445
0.11978559 0.32467869 -3.3816006
0.089704566 0.3087672 -3.3858035
0.13001558 0.30066034 -3.3834834
0.087660879 0.28947011 -3.3781908
0.13303888 0.28011176 -3.3794174
0.091456011 0.27211902 -3.3747652
0.10143422 0.2571398 -3.3763688
0.083458968 0.24703529 -3.3751168
0.13908547 0.23901454 -3.3712854
0.12204728 0.24204287 -3.3695407
0.087587684 0.22998744 -3.3724453
0.088211104 0.21752501 -3.3709378
0.091716409 0.21293953 -3.3697743
0.094907358 0.19792533 -3.3690062
0.090215981 0.20026922 -3.3643465
0.098883696 0.18065983 -3.3659451
0.094155341 0.18293035 -3.3611779
0.079919212 0.18297318 -3.3613582
0.074253924 0.17732307 -3.3657982
0.14129008 0.17493436 -3.3691711
0.10109864 0.1636937 -3.3598847
0.10683639 0.14612916 -3.359822
0.089230664 0.14490369 -3.3640475
0.073931858 0.14513075 -3.3639777
0.093199953 0.12743309 -3.3608551
0.085813664 0.12447259 -3.3553648
0.095668793 0.10698012 -3.3537409
0.10113855 0.092491865 -3.3544695
0.10510784 0.075021207 -3.3512769
0.085684463 0.082634538 -3.3554337
0.11187579 0.42395198 -3.4078789
0.093471095 0.4218863 -3.4110258
0.10465749 0.4166005 -3.4060721
0.11489908 0.4034034 -3.4038131
0.10768311 0.3982161 -3.4011781
0.081088543 0.39622831 -3.4059339
0.11792238 0.38285479 -3.3997469
0.097453281 0.37182894 -3.4027042
0.084138386 0.37769678 -3.4010003
0.087188229 0.35916522 -3.3960667
0.11954528 0.34570649 -3.4001615
0.12268323 0.32614875 -3.3952322
0.12582119 0.306591 -3.3903031
0.1231046 0.29708058 -3.3910294
0.098207355 0.29165784 -3.3896446
0.12895915 0.2870332 -3.3853738
0.10050825 0.2836217 -3.3931601
0.086870983 0.28155306 -3.384232
0.12618151 0.27790102 -3.3859673
0.10777284 0.27668294 -3.3912342
0.10200249 0.27430674 -3.3862195
0.12421572 0.26185155 -3.3890865
0.10367286 0.26389775 -3.3881891
0.1057976 0.25695565 -3.3827939
0.088723674 0.25463745 -3.3856614
0.064177699 0.24311846 -3.3851888
0.10959274 0.23960459 -3.3793685
0.092663035 0.23729861 -3.3824928
0.086321637 0.23492482 -3.3778121
0.080547877 0.23758227 -3.384613
0.1195025 0.22505555 -3.3817997
0.10770895 0.22353578 -3.380847
0.11338785 0.2222535 -3.3759432
0.096602395 0.21995968 -3.3793242
0.073353484 0.21478626 -3.3768184
0.11114977 0.2060203 -3.3768334
0.10054176 0.20262086 -3.3761554
0.077322781 0.1973156 -3.3736258
0.13787521 0.19231775 -3.3731544
0.12732227 0.19063732 -3.3755097
0.10842015 0.18468031 -3.3789988
0.10448112 0.18528193 -3.3729868
0.083279565 0.19255155 -3.3754809
0.090949386 0.18463334 -3.3724809
0.081292078 0.17984492 -3.3704329
0.11803141 0.17098922 -3.3688068
0.10842048 0.16794312 -3.3698182
0.094416559 0.16698366 -3.3684366
0.087439157 0.17537627 -3.3727896
0.087038264 0.16215092 -3.3705947
0.070437945 0.16291654 -3.368053
0.11606809 0.14971444 -3.3720961
0.088541038 0.12901789 -3.3711109
0.080230907 0.12389919 -3.370178
0.10757351 0.11233193 -3.369561
0.092034951 0.11123216 -3.3670356
0.084230594 0.10629475 -3.366961
0.11154279 0.094861299 -3.3663681
0.11551209 0.077390701 -3.3631756
0.072847918 0.078382373 -3.3638718
0.09062542 0.41636133 -3.4201956
0.10464317 0.41215745 -3.4214041
0.093675256 0.3978298 -3.4152622
0.10772008 0.39297801 -3.4163415
0.096725106 0.37929824 -3.4103286
0.088223428 0.3627286 -3.4069588
0.072898239 0.35846266 -3.4102743
0.11541151 0.34383652 -3.4097898
0.092133321 0.34551951 -3.4038138
0.083623178 0.34614456 -3.4089403
0.087063998 0.32862908 -3.404927
0.094179019 0.32306957 -3.4031024
0.079047263 0.32109979 -3.4003277
0.12151121 0.30677345 -3.3999228
0.097343639 0.30334565 -3.3981314
0.12456104 0.28824195 -3.3949893
0.11414551 0.28569043 -3.4020882
0.10875383 0.29384553 -3.4010985
0.093945652 0.29359794 -3.3969004
0.091170743 0.29166678 -3.4038074
0.11151111 0.27634948 -3.4020059
0.11254895 0.27649441 -3.3976731
0.095110103 0.27432793 -3.4006388
0.11682711 0.26255494 -3.3956823
0.11177365 0.26021436 -3.3999114
0.076550394 0.26393002 -3.3984506
0.11461373 0.25700963 -3.3969014
0.093124285 0.25461215 -3.3928044
0.11521448 0.24269885 -3.3958983
0.10298882 0.23965019 -3.3943017
0.091578051 0.23924246 -3.3957353
0.096948251 0.23712921 -3.389353
0.079788432 0.23462629 -3.3919096
0.13727662 0.22858733 -3.3961029
0.11865531 0.22518331 -3.3918848
0.10692818 0.22231126 -3.3911331
0.095045231 0.22159275 -3.3916914
0.10077222 0.21964622 -3.3859015
0.14044124 0.20886344 -3.3911316
0.12209612 0.20766783 -3.3878715
0.11086754 0.20497245 -3.3879647
0.098512404 0.20394307 -3.3876474
0.10459618 0.20216331 -3.3824503
0.074565381 0.2001611 -3.3874118
0.11480689 0.18763354 -3.3847961
0.10197957 0.18629345 -3.3836033
0.070522644 0.1891607 -3.3839996
0.12897778 0.17263675 -3.3798449
0.1208085 0.16984829 -3.3843577
0.10544674 0.1686438 -3.3795593
0.074713603 0.17185587 -3.3812881
0.14478341 0.15781009 -3.3837776
0.081553206 0.16458952 -3.3792615
0.07581605 0.15881479 -3.3840387
0.12669469 0.15191877 -3.383637
0.10891391 0.15099409 -3.3755152
0.085047126 0.14680374 -3.3751862
0.07969901 0.14106205 -3.3805339
0.076231219 0.14150357 -3.3733954
0.065091543 0.14650717 -3.3742297
0.060810655 0.14254874 -3.3748369
0.10722964 0.12891504 -3.3786232
0.1036042 0.12980258 -3.3727536
0.083095506 0.13724619 -3.375865
0.060179513 0.13069135 -3.3720684
0.10982715 0.12652725 -3.3769205
0.087286457 0.11994135 -3.3731534
0.10315021 0.11290514 -3.3782439
0.064402312 0.11325505 -3.3693361
0.087464944 0.10555673 -3.3735244
0.079054371 0.10838678 -3.3779187
0.082575426 0.090462863 -3.3738115
0.068625115 0.095818698 -3.3666041
0.093508139 0.086567849 -3.368875
0.08609648 0.072538793 -3.3697045
0.059814811 0.074065119 -3.3724394
0.095230885 0.070051312 -3.3665152
0.1236538 0.40643108 -3.4238026
0.10931183 0.38089961 -3.4196568
0.098322451 0.38431013 -3.426944
0.084685184 0.38224134 -3.418016
0.076741531 0.38117561 -3.4169669
0.082542792 0.37106216 -3.4188828
0.10148706 0.36458614 -3.4219728
0.091128714 0.36530766 -3.4239914
0.099100634 0.35370851 -3.4224248
0.10465167 0.34486222 -3.4170017
0.094569534 0.34779209 -3.4199784
0.088661268 0.34139562 -3.4147046
0.10781629 0.32513833 -3.4120305
0.098010361 0.33027652 -3.4159648
0.088455051 0.32674813 -3.4181509
0.074242204 0.32749066 -3.4159558
0.10145118 0.31276104 -3.4119515
0.1109809 0.30541432 -3.4070594
0.09227901 0.3092652 -3.4146996
0.10840848 0.29568911 -3.4071105
0.10489201 0.29524547 -3.4079382
0.082133412 0.3021304 -3.4150777
0.081176549 0.29219139 -3.4078674
0.10833283 0.27772999 -3.4039249
0.1309474 0.26803523 -3.4060454
0.084643722 0.27454174 -3.4038236
0.12806895 0.25899562 -3.4055479
0.088516824 0.26234487 -3.4050503
0.13411202 0.24831125 -3.4010739
0.12941086 0.25121719 -3.4086449
0.088110894 0.25689209 -3.3997798
0.12616085 0.24434638 -3.4069366
0.091708533 0.24245203 -3.4000363
0.067933694 0.24377239 -3.4044309
0.10865428 0.22464558 -3.4040272
0.09490025 0.22255915 -3.3950226
0.082186729 0.21961981 -3.4026957
0.072124645 0.22646755 -3.4017193
0.13304248 0.20931533 -3.3989096
0.12119332 0.20732403 -3.3997734
0.11353439 0.20456019 -3.3965023
0.085680641 0.20183408 -3.3986204
0.11904676 0.1868847 -3.3905396
0.11300975 0.18795362 -3.3947258
0.066676326 0.19045308 -3.3965394
0.12907204 0.17264631 -3.3934362
0.064970151 0.18008259 -3.3943462
0.074863642 0.16713676 -3.3888433
0.069831669 0.17078465 -3.3913479
0.061793685 0.16828173 -3.3899229
0.13301142 0.15530747 -3.3902676
0.088888459 0.15724826 -3.3908732
0.1199441 0.15265429 -3.3866377
0.11003916 0.14964268 -3.387845
0.096162386 0.14847666 -3.3863945
0.090885885 0.14978904 -3.3933465
0.077988714 0.14814818 -3.3837881
0.09307941 0.13994345 -3.3881617
0.066529617 0.13776374 -3.3907373
0.050264109 0.14402479 -3.3885961
0.11793762 0.13113624 -3.3902526
0.099656299 0.13069087 -3.3823192
0.094010949 0.13080043 -3.3882914
0.089826286 0.13346753 -3.3897586
0.070239291 0.13340902 -3.3844585
0.097270362 0.12263861 -3.3854501
0.075533316 0.12631077 -3.3820255
0.067062646 0.12031111 -3.3796377
0.098255523 0.10779506 -3.3852437
0.092981637 0.1137991 -3.384567
0.074462086 0.11597273 -3.3817263
0.10146132 0.10533375 -3.3827386
0.093777031 0.092148781 -3.385107
0.078684889 0.098536432 -3.378994
0.10565227 0.088028938 -3.3800271
0.07272099 0.088241577 -3.3829422
0.10602146 0.072289675 -3.3782341
0.097298086 0.074224859 -3.3810003
0.089792773 0.41172785 -3.4377391
0.095157832 0.40403402 -3.4319153
0.11195971 0.38637879 -3.4358723
0.092895389 0.39238814 -3.4326344
0.087687895 0.38282314 -3.4280052
0.11512432 0.36665481 -3.4309011
0.098275289 0.36169139 -3.4290817
0.11255585 0.35569462 -3.4310715
0.10134979 0.34300992 -3.4241085
0.08463107 0.34423104 -3.4216025
0.074263908 0.34054363 -3.42922
0.11565846 0.33635485 -3.4259667
0.10895672 0.33192405 -3.4270031
0.1044243 0.32432845 -3.4191349
0.093617797 0.32869616 -3.4219537
0.11876109 0.31701505 -3.420862
0.11239755 0.31440851 -3.4229898
0.10290562 0.3114695 -3.4262404
0.088739552 0.31150115 -3.4230344
0.097557157 0.31135726 -3.4187851
0.07993415 0.30508989 -3.4221115
0.10149652 0.29401839 -3.4156165
0.0782848 0.28940773 -3.4133863
0.068211064 0.29076302 -3.4189968
0.1192792 0.27937743 -3.4149632
0.095673896 0.27620181 -3.4149463
0.12633637 0.26989865 -3.4136186
0.099454552 0.26683509 -3.4186444
0.099141069 0.25855222 -3.4109023
0.059238311 0.26207983 -3.4141192
0.10255417 0.24800116 -3.4136302
0.10546257 0.24453843 -3.4090409
0.10260823 0.24090254 -3.406858
0.10565379 0.22916713 -3.4086163
0.12132737 0.22301763 -3.4112027
0.078959368 0.22318992 -3.4128637
0.065488443 0.22410256 -3.4040089
0.1482484 0.21546876 -3.4081018
0.10875342 0.21033308 -3.4036024
0.063520975 0.21012157 -3.401731
0.12572472 0.2067056 -3.406775
0.081510678 0.20675489 -3.4085121
0.12366115 0.19594494 -3.4072564
0.080360234 0.19247293 -3.405333
0.12967339 0.18908894 -3.4020808
0.12403993 0.18961376 -3.4058485
0.084635749 0.18776628 -3.4034569
0.083515584 0.1728045 -3.4001415
0.065535814 0.17593777 -3.4014459
0.14250325 0.16176063 -3.4048681
0.13349734 0.17160603 -3.3986292
0.087760814 0.16877761 -3.3984017
0.06011717 0.1648252 -3.4033306
0.13732132 0.1541231 -3.3951778
0.13097428 0.15431443 -3.3977602
0.10035484 0.15515587 -3.4037435
0.076076254 0.15356305 -3.399581
0.055226762 0.15969047 -3.4013665
0.1204434 0.15201217 -3.3997436
0.10378306 0.15142992 -3.4029047
0.086670935 0.15313607 -3.3949499
0.13444144 0.13666478 -3.3937161
0.10628366 0.14248034 -3.4010143
0.10351019 0.13548732 -3.3985522
0.10883984 0.13240257 -3.3956885
0.06641908 0.12653339 -3.3931365
0.10666554 0.11581889 -3.3933606
0.06232395 0.12356222 -3.3930883
0.11144523 0.10803095 -3.3950353
0.069570035 0.10738745 -3.3880394
0.063850261 0.10876477 -3.3921077
0.11272237 0.10235021 -3.3909001
0.065872543 0.10549811 -3.3889492
0.11563618 0.090726107 -3.3923237
0.085725009 0.089895993 -3.3925796
0.067032628 0.088927925 -3.3868718
0.085688509 0.087236732 -3.385236
0.067204446 0.083878666 -3.387605
0.11681204 0.074527919 -3.3899531
0.1087951 0.40610275 -3.4408433
0.12559697 0.38844752 -3.4448004
0.1287616 0.3687236 -3.4398291
0.10945323 0.37503436 -3.4361763
0.10207508 0.36695513 -3.4350297
0.11096381 0.36330575 -3.4384856
0.088873014 0.36390686 -3.4378591
0.084078327 0.35278276 -3.4389064
0.095257699 0.34643537 -3.4331431
0.089504018 0.34400249 -3.4341099
0.09908165 0.32895243 -3.4296918
0.090155691 0.32333711 -3.4336865
0.075832412 0.31022173 -3.4342806
0.093255311 0.30450311 -3.4286726
0.096354932 0.28566912 -3.4236586
0.069010414 0.28270933 -3.4287329
0.11224671 0.26846263 -3.4281251
0.072135478 0.26372075 -3.4236777
0.067738824 0.27114695 -3.4260988
0.1192166 0.2466248 -3.4180455
0.11534633 0.24962863 -3.423111
0.077982359 0.25205475 -3.425
0.070894182 0.2514784 -3.4209073
0.12998818 0.23977166 -3.4254591
0.11641955 0.23776886 -3.4167397
0.075787157 0.24271673 -3.4179199
0.11844596 0.23079458 -3.418097
0.091282785 0.22738439 -3.4231255
0.13311693 0.22026888 -3.4203115
0.069129646 0.21761644 -3.4138553
0.050664298 0.22226298 -3.4186218
0.12154558 0.21196067 -3.4130828
0.094407856 0.20839578 -3.4180703
0.090888783 0.21416134 -3.419318
0.13624571 0.20076609 -3.4151635
0.096625611 0.20267561 -3.4161859
0.095788524 0.19194999 -3.4135711
0.13937448 0.1812633 -3.4100161
0.099844962 0.1826106 -3.4111288
0.14053698 0.1759201 -3.4125354
0.097199485 0.17482436 -3.4089351
0.11693746 0.16464999 -3.415154
0.10306432 0.16254547 -3.4060717
0.071286589 0.15047565 -3.4114485
0.063067868 0.14982152 -3.4084218
0.1286456 0.13335738 -3.4018817
0.076890193 0.13771921 -3.4091475
0.11168265 0.13106203 -3.4061475
0.0794231 0.12818792 -3.4027739
0.07446897 0.13063878 -3.4062128
0.048899073 0.12076673 -3.4044027
0.080112696 0.10992196 -3.3993268
0.068400294 0.10121483 -3.3981388
0.10497864 0.093834639 -3.3964026
0.10001781 0.088603348 -3.4037619
0.080833696 0.090965033 -3.3957405
0.075947195 0.082596689 -3.4023023
0.057832576 0.085251063 -3.3975122
0.10077572 0.33528271 -3.4424784
0.10390449 0.31578001 -3.4373307
0.10604747 0.30613071 -3.438153
0.06588535 0.30169794 -3.4337881
0.11426708 0.29717177 -3.4412355
0.10914709 0.28729671 -3.4331391
0.081907585 0.28435025 -3.4382911
0.081422731 0.27316675 -3.4348927
0.085032649 0.26536164 -3.4332359
0.084578082 0.25349832 -3.4297011
0.088157713 0.24637303 -3.4281807
0.10141733 0.23584962 -3.4333031
0.12968694 0.22949767 -3.4263182
0.087733433 0.23382977 -3.4245093
0.10457268 0.21618119 -3.4281118
0.063900486 0.21867949 -3.4295526
0.055870194 0.21558207 -3.4251676
0.14981434 0.20276892 -3.4238832
0.066819273 0.20477158 -3.4231622
0.10907906 0.19378036 -3.4227469
0.05941879 0.1975179 -3.4210286
0.1245673 0.17886403 -3.4265225
0.11371811 0.18471503 -3.4202113
0.069970228 0.18562567 -3.4180653
0.11088338 0.17684418 -3.4177289
0.12772265 0.15919554 -3.4213309
0.087636903 0.16008213 -3.4234104
0.090884328 0.13984203 -3.4183095
0.11265919 0.11344457 -3.4118052
0.10858208 0.112351 -3.4169519
0.094131753 0.11960196 -3.413208
0.06805972 0.11865774 -3.4094212
0.11983668 0.11227167 -3.4086814
0.095578067 0.11069646 -3.4073143
0.11618024 0.095520705 -3.4076979
0.10843584 0.095039278 -3.4134786
0.097379178 0.099361867 -3.4081068
0.072003454 0.10062721 -3.4058619
0.094634771 0.093002141 -3.4046097
0.10386558 0.35012078 -3.4533679
0.071956679 0.33217219 -3.4504671
0.077309512 0.32306617 -3.4465287
0.091951288 0.29485506 -3.4488778
0.066636205 0.28105271 -3.4434862
0.054215446 0.28135529 -3.4435506
0.095106632 0.27518663 -3.4436862
0.098261982 0.25551817 -3.4384947
0.063610815 0.23534527 -3.4406905
0.072358191 0.23186037 -3.4412613
0.075540558 0.2120235 -3.4360254
0.081142046 0.20056218 -3.4336133
0.12759125 0.18681949 -3.4292936
0.12645233 0.17370036 -3.4270766
0.099129215 0.16978878 -3.4322431
0.13265048 0.13583729 -3.4301274
0.12033974 0.13305449 -3.4272075
0.10812588 0.12172478 -3.4223697
0.058841359 0.12775883 -3.4230216
0.11335231 0.1121951 -3.4247251
0.10697909 0.10874966 -3.4191036
0.11738285 0.094454914 -3.4214833
0.050338313 0.1013028 -3.4232175
0.11089222 0.090859115 -3.4155719
0.069761604 0.081821203 -3.4169071
0.053943437 0.08295089 -3.4190125
0.062811092 0.29137105 -3.4569693
0.13309936 0.2133185 -3.4467454
0.13622442 0.19432989 -3.4416902
0.1414644 0.18892401 -3.4383764
0.11213323 0.17144316 -3.4418807
0.113987 0.1544421 -3.4374197
0.11887259 0.14408776 -3.4366329
0.11715366 0.13495085 -3.4322529
0.12212002 0.1238476 -3.4315319
0.049508244 0.12282988 -3.4324944
0.11905454 0.11691332 -3.4275835
0.05271231 0.10336116 -3.4273112
0.097170666 0.090256006 -3.4266665
0.07661216 0.29340813 -3.465838
0.1491216 0.19597074 -3.4512486
0.13286671 0.14621052 -3.4457948
0.12967324 0.13878733 -3.4416881
0.11988656 0.1323413 -3.4400494
0.12231861 0.11399367 -3.4458685
0.052033607 0.11385301 -3.4429357
0.11028336 0.091924369 -3.4363844
0.056040172 0.095535189 -3.4393194
0.12021877 0.11289862 -3.4512422
0.12036428 0.0938254 -3.4490767
0.12163454 0.11333856 -3.4590194
0.12680072 0.11199391 -3.4653735
0.12317793 0.093466252 -3.4680152
0.12341219 0.094039619 -3.4782639
