# .PCD v0.7 - Point Cloud Data file format
VERSION 0.7
FIELDS x y z
SIZE 4 4 4
TYPE F F F
COUNT 1 1 1
WIDTH 120
HEIGHT 1
VIEWPOINT 0 0 0 1 0 0 0
POINTS 120
DATA ascii
-0.087286927 -0.00035369396 -1.3267519
-0.070865266 -0.0037619919 -1.3368975
-0.075678654 -0.0026075989 -1.3341205
-0.080287069 -0.0032737255 -1.3334266
-0.086924903 -0.0045735538 -1.3336698
-0.095865823 -0.0039385557 -1.3355337
-0.054247435 0.0051627755 -1.3448484
-0.060643323 0.0046863705 -1.3433868
-0.06702137 0.00461182 -1.3422234
-0.073912472 0.0051180571 -1.3424809
-0.081472084 0.0037766397 -1.3425087
-0.088564985 0.0046006739 -1.342983
-0.095054738 0.0025547743 -1.3433233
-0.10019643 0.0051969588 -1.3456075
-0.10763897 0.0033416897 -1.3414671
-0.11519417 0.0026437789 -1.3446429
-0.061679713 -0.0023510754 -1.3423069
-0.067986369 -0.0046216398 -1.3423848
-0.073498875 -0.0052072108 -1.3409842
-0.081200317 -0.0039214939 -1.3404038
-0.048735097 0.0050889254 -1.3525511
-0.054289326 0.0043434948 -1.3519881
-0.060821898 0.0025074333 -1.3517063
-0.067334458 0.0018399954 -1.3510032
-0.073149286 -0.00017663836 -1.3501242
-0.07906203 0.0026214868 -1.3507955
-0.087561905 0.0043079704 -1.3493167
-0.094163932 0.0031950027 -1.3502769
-0.10085644 0.0041887164 -1.3499799
-0.1075916 0.0031071305 -1.3519785
-0.11606383 0.0026417971 -1.3541757
-0.051545169 0.0095075816 -1.361626
-0.048242219 0.0017582625 -1.3628683
-0.053281538 4.7981739e-05 -1.3607426
-0.059720993 -0.0018084496 -1.3615252
-0.10237418 0.0072955191 -1.3570384
-0.11007848 0.0054723471 -1.3567852
-0.035511974 0.010471329 -1.3755763
-0.039100505 0.011272907 -1.3724835
-0.043221965 0.0031266063 -1.3695073
-0.047028515 0.0002232343 -1.3724697
-0.052817143 -0.001496926 -1.3711058
-0.029213585 0.0089671165 -1.3863966
-0.034423701 0.0099178553 -1.383087
-0.03855034 0.0094796568 -1.3806858
-0.050367318 0.003777951 -1.3802171
-0.028036656 0.016561836 -1.3915007
-0.032984994 0.015992492 -1.3929307
-0.037543584 0.016089514 -1.3914074
-0.027426945 0.0061807483 -1.3924294
-0.032348871 0.0072535276 -1.3913465
-0.040501505 0.0053220391 -1.3923674
-0.043828629 0.0036369562 -1.3923472
-0.021492049 0.012821883 -1.4054439
-0.026770875 0.01436238 -1.4026567
-0.031391777 0.01564385 -1.4012523
-0.013930352 0.0066689104 -1.4035183
-0.021346923 0.0057787746 -1.4039966
-0.026025074 0.0055375546 -1.4011629
-0.031038499 0.0078761131 -1.3993344
-0.029496243 0.019389614 -1.413047
-0.020652786 0.011511952 -1.4123576
-0.025731336 0.013208732 -1.4107449
-0.025016736 0.00478369 -1.409466
-0.031638727 0.0048360378 -1.4072024
-0.014591478 0.019619882 -1.4261528
-0.019667916 0.020742133 -1.4224195
-0.023747196 0.019427866 -1.4193594
-0.014742004 0.008926332 -1.4227053
-0.019114355 0.011932254 -1.4213101
-0.024244307 0.012995601 -1.4184443
-0.013207495 0.020281062 -1.4328512
-0.017431902 0.020219639 -1.4303875
-0.013809282 0.011105597 -1.4321662
-0.017678544 0.011211365 -1.4288404
-0.010024345 0.027843013 -1.4419718
-0.015855908 0.027866453 -1.4420993
-0.0070805494 0.017866477 -1.4434743
-0.011453589 0.018966779 -1.4407005
-0.016956512 0.016297579 -1.4379554
-0.0079186391 0.0096405447 -1.4403675
-0.016407918 0.01020962 -1.4380568
0.00040857121 0.030182391 -1.4547462
-0.0060077272 0.026499063 -1.4517773
-0.010092292 0.027335972 -1.4497786
0.00080416538 0.012050167 -1.4543643
-0.0060303006 0.017595559 -1.4511197
-0.010197103 0.016806245 -1.4481725
-0.0011173114 0.022331744 -1.4634296
-0.0052901786 0.024725243 -1.4608184
-0.0087149236 0.025918603 -1.4621114
-0.0052539334 0.015804082 -1.4599746
-0.0068957619 0.031886995 -1.4711887
-0.00074630603 0.027323931 -1.4748611
-0.0057081226 0.024388969 -1.4704838
-0.0086841788 0.0242479 -1.4704674
-0.00044753402 0.017541647 -1.469501
-0.0072714575 0.030010268 -1.4796184
-0.010406313 0.032775924 -1.4811152
-0.01642039 0.03349705 -1.4844114
-0.0063921008 0.0225631 -1.4789337
-0.0093056615 0.022220597 -1.4813852
-0.013582762 0.037110776 -1.4885385
-0.011676818 0.030301109 -1.4899182
-0.015383972 0.031774715 -1.4917989
-0.0098096151 0.021758214 -1.4897009
-0.019050676 0.037513882 -1.4990035
-0.024155645 0.03958796 -1.5020044
-0.012778668 0.02745828 -1.4970566
-0.017066354 0.029807001 -1.5004313
-0.023218067 0.03150028 -1.5027313
-0.025857667 0.035303771 -1.5063391
-0.031448647 0.037565634 -1.5093012
-0.03605067 0.038682029 -1.5128113
-0.033968531 0.035282105 -1.515054
-0.038404312 0.036118716 -1.5165125
-0.044138387 0.03634654 -1.5208384
-0.05056645 0.037977487 -1.5226727
-0.052716002 0.042874724 -1.5255374
-0.065181687 0.040073693 -1.5337975
