# .PCD v0.7 - Point Cloud Data file format
VERSION 0.7
FIELDS x y z
SIZE 4 4 4
TYPE F F F
COUNT 1 1 1
WIDTH 383
HEIGHT 1
VIEWPOINT 0 0 0 1 0 0 0
POINTS 383
DATA ascii
1.3600885 0.32031393 -1.5513107
1.4134978 0.436867 -1.5872097
1.3645736 0.41877866 -1.5756148
1.3509837 0.41260862 -1.5752573
1.3808964 0.39990675 -1.5767194
1.3589468 0.40200263 -1.5810528
1.3666918 0.38056487 -1.570159
1.3630934 0.32469437 -1.5701361
1.3701969 0.31995428 -1.5626186
1.406654 0.43195319 -1.5905087
1.4087262 0.4214887 -1.5941576
1.3696688 0.42259616 -1.590929
1.35332 0.38522661 -1.5864906
1.3901346 0.37648955 -1.5816625
1.3750024 0.38258296 -1.582165
1.3522438 0.36563876 -1.5848458
1.3611735 0.34298187 -1.573827
1.385921 0.41627276 -1.5952367
1.4039547 0.40611041 -1.6011057
1.3829372 0.4048602 -1.5959485
1.3619043 0.40631396 -1.5995811
1.347693 0.36845058 -1.5919285
1.4013963 0.35844767 -1.5896832
1.3705351 0.36310127 -1.5865452
1.3649837 0.34675747 -1.5923592
1.3463974 0.34845528 -1.5902473
1.371637 0.34427387 -1.5879947
1.3653039 0.3299675 -1.5896593
1.387868 0.32454073 -1.5839761
1.3722545 0.32494834 -1.5820054
1.4097011 0.43167868 -1.6101947
1.3988022 0.42604074 -1.6090516
1.3904949 0.420385 -1.612273
1.3963343 0.40019619 -1.6032357
1.3905886 0.38176984 -1.6012816
1.3784428 0.38556001 -1.6000612
1.3562773 0.38953799 -1.6050191
1.3814057 0.36429578 -1.5987971
1.3742908 0.36723989 -1.6045425
1.3583298 0.3510915 -1.5997972
1.4128481 0.34010166 -1.5978391
1.3984355 0.32872432 -1.5918629
1.3828208 0.32829934 -1.5913639
1.3664771 0.32839528 -1.5943582
1.4086841 0.44566339 -1.6183705
1.4380583 0.42748111 -1.6231316
1.3940659 0.41077554 -1.6159484
1.3831422 0.41016245 -1.6179415
1.405354 0.40381557 -1.6130342
1.400943 0.40433973 -1.6204015
1.4299037 0.38987029 -1.6109712
1.4228765 0.38342246 -1.6131419
1.3835983 0.38772231 -1.6167259
1.4096161 0.37481129 -1.6165011
1.3835422 0.37192541 -1.6155623
1.401854 0.36377209 -1.6094662
1.3711491 0.3702125 -1.6068395
1.3652549 0.35288873 -1.6122851
1.4044313 0.35170847 -1.6076612
1.3847841 0.35022968 -1.6124746
1.3762455 0.34841737 -1.6051605
1.3691032 0.3334552 -1.6077869
1.3748579 0.32976478 -1.6007941
1.4479548 0.44020784 -1.628618
1.4344823 0.43013644 -1.6284177
1.4351655 0.39432627 -1.6275537
1.4262725 0.38690627 -1.6279953
1.3962542 0.39232868 -1.6236954
1.4032582 0.36359566 -1.6206353
1.4133097 0.34547096 -1.6177887
1.4101118 0.33858401 -1.6155472
1.3980668 0.33373249 -1.6116978
1.3810312 0.33469081 -1.613459
1.379189 0.33375812 -1.6183339
1.3866645 0.33169818 -1.6132969
1.4427154 0.42408434 -1.6350796
1.4411123 0.43193305 -1.6422644
1.4452709 0.41439235 -1.6370834
1.4424649 0.40753868 -1.6358186
1.4437995 0.387205 -1.6325189
1.3922642 0.39335066 -1.6288627
1.4303222 0.37871617 -1.6346064
1.4105915 0.37035641 -1.6270092
1.3903117 0.37486261 -1.6291856
1.4216939 0.35642904 -1.6316429
1.4123975 0.35117555 -1.6260653
1.3946424 0.35431379 -1.6237496
1.3763692 0.33493656 -1.6207794
1.4038811 0.45433107 -1.6490693
1.4397049 0.43455917 -1.6448761
1.4122541 0.43724889 -1.6514887
1.4473951 0.42829174 -1.6525103
1.435302 0.41460997 -1.6478795
1.453796 0.4076938 -1.643573
1.4157988 0.39720011 -1.6463689
1.4367809 0.39080465 -1.6417713
1.4563241 0.36841565 -1.6402823
1.4385192 0.37095621 -1.6390309
1.4206271 0.37551183 -1.6399772
1.4411664 0.36246169 -1.6433855
1.4033465 0.35534891 -1.6354039
1.4153736 0.34303999 -1.6321295
1.4152755 0.33830163 -1.6357135
1.4065551 0.33573288 -1.632301
1.399313 0.33715266 -1.6388206
1.350752 0.45835108 -1.6580384
1.425089 0.44852716 -1.6591718
1.409708 0.43620133 -1.6554635
1.3991796 0.43917787 -1.6559157
1.3796968 0.42419839 -1.6609576
1.4421555 0.41216832 -1.658972
1.4063115 0.41978288 -1.656979
1.3872689 0.41920245 -1.6580573
1.4297954 0.4077704 -1.6553184
1.4122275 0.39751101 -1.6505656
1.4466555 0.3918463 -1.650918
1.4673541 0.38218078 -1.6548136
1.4098071 0.37958941 -1.6519047
1.4310967 0.37407061 -1.6477242
1.4321896 0.35764068 -1.6484957
1.4213219 0.36147946 -1.6516449
1.4087673 0.3579585 -1.6511965
1.4498018 0.35204792 -1.6464286
1.4323339 0.33878016 -1.647251
1.4133692 0.33872432 -1.6467471
1.3969939 0.44199768 -1.6674191
1.379361 0.44033515 -1.6682571
1.3603834 0.44359818 -1.6664795
1.419929 0.43264866 -1.6655353
1.4004169 0.41648197 -1.6649038
1.4003689 0.40231687 -1.6624691
1.3815973 0.40229297 -1.6635385
1.3750297 0.40915537 -1.6677541
1.4387712 0.39554346 -1.6628162
1.3919505 0.39761072 -1.6601385
1.4252833 0.38807929 -1.6658762
1.4582527 0.37427408 -1.6596669
1.4236811 0.3799637 -1.65911
1.4464682 0.36695153 -1.6600939
1.4321879 0.35587502 -1.6615766
1.4038154 0.36197874 -1.6574403
1.4263315 0.34017533 -1.6541569
1.4296978 0.45267063 -1.6763377
1.3819275 0.44666886 -1.6830812
1.3557829 0.42877063 -1.6731788
1.3910999 0.42467389 -1.6728647
1.3737344 0.42355913 -1.673695
1.4306823 0.41657439 -1.674134
1.3948653 0.40013814 -1.6707176
1.3682108 0.40738869 -1.6748109
1.3934916 0.38495868 -1.669999
1.4333094 0.37911469 -1.6690233
1.4204762 0.37258604 -1.6728762
1.4032273 0.37974542 -1.6688149
1.4125823 0.36216241 -1.6694778
1.4033251 0.36673301 -1.6671658
1.4379553 0.35894763 -1.6631088
1.4178708 0.36264062 -1.6647252
1.4415879 0.35122287 -1.6672002
1.3963808 0.3451654 -1.6651254
1.4365606 0.33983803 -1.6621922
1.4327698 0.34294847 -1.6601356
1.418486 0.45670488 -1.691139
1.4245378 0.43679214 -1.6827011
1.365966 0.44449192 -1.683687
1.3603833 0.42784756 -1.689082
1.4039212 0.42084783 -1.6848173
1.3511822 0.41394305 -1.679878
1.425483 0.40057433 -1.6805463
1.4098834 0.4029521 -1.683767
1.3845781 0.4066385 -1.6822144
1.3850746 0.39371842 -1.6764548
1.3793116 0.39002624 -1.6837559
1.4055192 0.3833853 -1.6791672
1.4264369 0.36379784 -1.6783572
1.4146945 0.361579 -1.6776376
1.40589 0.36701426 -1.6769879
1.3702538 0.36847389 -1.6745008
1.4156691 0.35709274 -1.6798762
1.4491615 0.34374112 -1.6723565
1.4145318 0.34840244 -1.6757172
1.4069431 0.34556058 -1.6753836
1.449069 0.3419196 -1.6718858
1.3689003 0.44876939 -1.7020699
1.4133649 0.44094622 -1.6974547
1.3931404 0.42962736 -1.6920937
1.3985848 0.40479666 -1.6908821
1.3465816 0.3991155 -1.6865772
1.3789065 0.38972902 -1.6876956
1.4208452 0.38477778 -1.689837
1.4029561 0.37174121 -1.6870005
1.3803731 0.37856528 -1.6833012
1.3999243 0.36691368 -1.6850266
1.3645822 0.35156435 -1.6799819
1.429834 0.3493422 -1.6872897
1.4211974 0.34767437 -1.684819
1.4096529 0.34257275 -1.6846929
1.3998981 0.3494035 -1.6825237
1.4074472 0.46067894 -1.7057197
1.4010754 0.45190454 -1.7058773
1.3781054 0.43439874 -1.707556
1.4080861 0.42497331 -1.7023343
1.3633176 0.432125 -1.7074652
1.4103411 0.40827653 -1.7035499
1.3872465 0.41230351 -1.6975393
1.3710649 0.41109446 -1.6976613
1.4090581 0.38915676 -1.7017916
1.3930693 0.38793296 -1.6945289
1.3813523 0.39497972 -1.7029849
1.365438 0.3943184 -1.7030991
1.3562924 0.38382834 -1.6952904
1.415084 0.36857423 -1.6933707
1.3905416 0.37237889 -1.6928368
1.3875177 0.37158915 -1.7003428
1.3732349 0.37281945 -1.6931767
1.415156 0.36694825 -1.6975873
1.3905571 0.36278778 -1.6921842
1.4141598 0.35345286 -1.6957192
1.3942293 0.3518492 -1.6941196
1.384599 0.35491288 -1.6983269
1.3709698 0.34825897 -1.6969938
1.3965832 0.46459395 -1.7200857
1.3704869 0.45459312 -1.7189355
1.4023644 0.44503811 -1.7119881
1.3955395 0.42895329 -1.7159712
1.3731406 0.41631055 -1.7145735
1.4027497 0.40892202 -1.7083989
1.4218682 0.39035052 -1.7126654
1.396825 0.3920716 -1.7125261
1.3852609 0.37686628 -1.7020997
1.3754581 0.37765592 -1.7084305
1.4038981 0.37327826 -1.7081554
1.3516583 0.36889362 -1.7020382
1.4285842 0.35462317 -1.7073092
1.4089054 0.34891528 -1.7024589
1.3675634 0.35590994 -1.6986579
1.3915381 0.4490692 -1.7263075
1.3633397 0.43909395 -1.7227761
1.4128178 0.42929977 -1.7208064
1.4107988 0.41360095 -1.7233329
1.4061323 0.41255397 -1.7247094
1.3980019 0.39367008 -1.7164012
1.383393 0.3999331 -1.7222139
1.3912733 0.37572771 -1.71834
1.3762161 0.37716508 -1.7118527
1.4156177 0.37231755 -1.7175372
1.3974805 0.35808662 -1.7126952
1.3700542 0.36029387 -1.7156049
1.3981142 0.35461301 -1.7090241
1.3614303 0.3532775 -1.7109205
1.4010893 0.4686451 -1.7368692
1.3711469 0.46101344 -1.7363381
1.4174235 0.43510976 -1.7380638
1.4160105 0.43667799 -1.7362902
1.3992664 0.43305999 -1.7338297
1.374283 0.42212868 -1.7320307
1.4076968 0.41354096 -1.7271221
1.4046005 0.39571869 -1.7281636
1.4005806 0.39621016 -1.7305232
1.3848687 0.39842021 -1.7250473
1.4022188 0.38175762 -1.72667
1.3928807 0.37791121 -1.7227168
1.3791969 0.38151067 -1.7305286
1.4273341 0.35990417 -1.7273285
1.3697776 0.35997528 -1.7211891
1.4093671 0.35428452 -1.7224085
1.3485575 0.34399036 -1.7194127
1.3903686 0.47247285 -1.7509028
1.3911911 0.45758033 -1.7423708
1.3960444 0.45312038 -1.7430909
1.3653475 0.44396782 -1.7416962
1.4112567 0.41892546 -1.7431157
1.3935213 0.41967535 -1.7382421
1.4122708 0.41765323 -1.7441585
1.3937573 0.41684216 -1.7395989
1.3854336 0.40488663 -1.741443
1.4182755 0.39744365 -1.7361232
1.3946562 0.38236713 -1.7316105
1.3984021 0.37783647 -1.7329946
1.3950292 0.37986633 -1.7363372
1.395854 0.36378166 -1.7307065
1.3887137 0.36490113 -1.7371007
1.4033469 0.36154324 -1.7316846
1.3900241 0.46632212 -1.7593744
1.3853606 0.45706242 -1.7570786
1.4179128 0.44213212 -1.7580677
1.4029928 0.43716669 -1.7516884
1.402174 0.44093049 -1.7514368
1.3909992 0.43759567 -1.7493125
1.3763072 0.42704189 -1.751104
1.422838 0.40133813 -1.7529268
1.3880491 0.40169504 -1.7445457
1.4131155 0.38156527 -1.742487
1.3808589 0.38670957 -1.7480464
1.4083388 0.36532205 -1.7416689
1.3898076 0.36382025 -1.7408581
1.4098285 0.35965383 -1.7423582
1.4108267 0.46218559 -1.7646315
1.3841778 0.4491387 -1.7647759
1.3955054 0.44164681 -1.766096
1.4117146 0.42424989 -1.7628986
1.3984215 0.42229638 -1.7575725
1.3874742 0.40983999 -1.7606721
1.4179091 0.38516542 -1.7562479
1.3827399 0.38440654 -1.751137
1.3907713 0.36989516 -1.7564876
1.4130443 0.36860397 -1.7557251
1.4079555 0.36568674 -1.7488505
1.3765064 0.36894679 -1.7546856
1.3747735 0.46094629 -1.7708507
1.4183706 0.44745648 -1.7778507
1.4051549 0.44527608 -1.7701128
1.4229509 0.44131356 -1.7728872
1.3904603 0.42612204 -1.7723179
1.3783314 0.43195525 -1.7701774
1.4232531 0.40645844 -1.7725143
1.4117237 0.40600675 -1.7675102
1.4075814 0.40696865 -1.7661656
1.4080919 0.40448737 -1.7665179
1.3987709 0.39235529 -1.7703843
1.424834 0.3704662 -1.7673672
1.4125644 0.36983025 -1.7660161
1.4102904 0.3650232 -1.7623079
1.3932332 0.36766112 -1.7601484
1.3792136 0.4649381 -1.7873882
1.3848257 0.44567329 -1.7799145
1.4173993 0.42496982 -1.7787012
1.4142379 0.42898414 -1.7810737
1.372485 0.41477177 -1.7755787
1.4007356 0.41036004 -1.7815195
1.4180467 0.39010367 -1.7745214
1.4066027 0.39024797 -1.7738259
1.4022024 0.38903368 -1.7720112
1.4126723 0.3736544 -1.7757272
1.3944879 0.37388408 -1.7765452
1.4207132 0.45474151 -1.7926873
1.4267066 0.44545218 -1.7908846
1.4081361 0.44962168 -1.7887886
1.3798177 0.43026274 -1.7860905
1.4237148 0.41182774 -1.792464
1.4279491 0.40982506 -1.7884872
1.4008285 0.39734942 -1.7897713
1.3992352 0.37314445 -1.7791436
1.386886 0.35742331 -1.7813649
1.4045175 0.4497492 -1.7996627
1.3842906 0.43428415 -1.8027503
1.3899214 0.4146485 -1.7953229
1.4392679 0.39269698 -1.7980511
1.4111767 0.39436024 -1.7908622
1.4415976 0.37569851 -1.7935011
1.4286772 0.3701784 -1.7872046
1.4638348 0.44980392 -1.816294
1.4716167 0.43296725 -1.8107808
1.4487413 0.41239613 -1.8098241
1.4733644 0.39698756 -1.8086802
1.4354465 0.39377958 -1.8024107
1.4157506 0.39847252 -1.8078985
1.4504912 0.37450194 -1.8070455
1.4334381 0.37648076 -1.8042691
1.4217818 0.3781172 -1.8003477
1.4123448 0.37961632 -1.7998087
1.4581956 0.43320197 -1.8221998
1.4657588 0.41550195 -1.816442
1.4382373 0.40218008 -1.8185631
1.4600207 0.39547336 -1.8195196
1.4667795 0.37838992 -1.8128563
1.4792517 0.41775763 -1.8282994
1.4695501 0.4164449 -1.8319939
1.4599007 0.39803666 -1.8221034
1.4203246 0.40258473 -1.8249348
1.4587011 0.38102123 -1.8201041
1.4543366 0.37873942 -1.8254725
1.436492 0.38093266 -1.8234017
1.4263906 0.38226071 -1.8175136
1.4659528 0.37524751 -1.8178282
1.472839 0.39925691 -1.8332974
1.4309993 0.38640422 -1.8346794
1.4502715 0.38418883 -1.8290145
1.4810516 0.39941952 -1.8419369
1.4760718 0.38643688 -1.8471606
1.485311 0.38062674 -1.8438619
1.4931941 0.38439313 -1.8563312
1.4927765 0.38211852 -1.8520494
