# .PCD v0.7 - Point Cloud Data file format
VERSION 0.7
FIELDS x y z
SIZE 4 4 4
TYPE F F F
COUNT 1 1 1
WIDTH 1421
HEIGHT 1
VIEWPOINT 0 0 0 1 0 0 0
POINTS 1421
DATA ascii
1.020695 -0.308622 -0.33668706
1.0419065 -0.3145529 -0.33711508
1.0259707 -0.31854737 -0.34119195
1.0204246 -0.31876245 -0.33940494
0.99927735 -0.31495789 -0.34285861
1.0413822 -0.32579684 -0.33598319
1.0276371 -0.32905978 -0.33352262
1.0201528 -0.32341102 -0.33421746
1.0273813 -0.33405691 -0.33628798
1.0193168 -0.33647794 -0.33566591
1.005713 -0.33528712 -0.33485994
1.0342308 -0.34180561 -0.33953771
1.028994 -0.3426075 -0.33341178
1.0222425 -0.34461594 -0.33614019
1.0129572 -0.34249339 -0.33836529
1.0352451 -0.35563639 -0.33497268
1.0276223 -0.35389346 -0.33130026
1.0120983 -0.35539201 -0.33276498
1.030823 -0.36436075 -0.32854551
1.0244591 -0.36384851 -0.33166721
1.0209656 -0.36568236 -0.33625618
0.99881655 -0.36187905 -0.33451474
1.0311394 -0.36766952 -0.3342872
1.0354834 -0.3773661 -0.32825628
1.0219061 -0.37790763 -0.33249021
1.0113602 -0.38028947 -0.32680726
1.0257397 -0.30080658 -0.35145742
1.0144742 -0.29960445 -0.35137203
1.0384088 -0.30600667 -0.35301122
1.032849 -0.30908096 -0.34725523
1.0293514 -0.30862686 -0.35105217
1.0317346 -0.31491822 -0.34885779
1.0269002 -0.31626034 -0.34806177
1.0225672 -0.31488812 -0.34658661
1.010087 -0.31598729 -0.34819534
0.99870718 -0.31844977 -0.34943128
1.0371467 -0.32924652 -0.3468734
1.0267739 -0.32577777 -0.34801367
1.0197814 -0.32268772 -0.34789774
1.0379288 -0.3353242 -0.34438244
1.0303643 -0.33687991 -0.34576887
1.0161242 -0.33474025 -0.34933054
1.0063813 -0.34064075 -0.34765542
1.0365883 -0.34259525 -0.34432831
1.0276879 -0.34278685 -0.34650856
1.0178461 -0.34408292 -0.34589666
1.0156471 -0.34470853 -0.34158912
1.0455315 -0.3560048 -0.34194303
1.0262151 -0.35487095 -0.34674779
1.0140325 -0.35377279 -0.34102279
1.0383867 -0.36379546 -0.34001985
1.0234449 -0.35861683 -0.3377367
1.0165721 -0.36031064 -0.34053987
1.0141619 -0.36317313 -0.34585881
1.0432719 -0.37727186 -0.33623075
1.0313171 -0.37167796 -0.34329382
1.0218503 -0.37485534 -0.34001943
1.0110395 -0.37593612 -0.34404853
1.0066627 -0.37047157 -0.33584732
1.0464172 -0.3819775 -0.34403226
1.0433969 -0.38166815 -0.33679846
1.0308397 -0.38043278 -0.33559352
1.019985 -0.37917233 -0.33729222
0.99319732 -0.3783949 -0.33970636
1.0394486 -0.3038398 -0.36266884
1.0215861 -0.30381805 -0.3605862
1.0062135 -0.29737523 -0.36247069
1.0469892 -0.3112728 -0.35665184
1.0352041 -0.31232184 -0.3629494
1.0299399 -0.30984953 -0.36269686
1.0153257 -0.31240737 -0.35622182
1.0317606 -0.31467426 -0.3566722
1.0220045 -0.3188853 -0.35322094
1.0080049 -0.31534654 -0.35898492
1.0466286 -0.32847208 -0.35249597
1.02807 -0.32615268 -0.3603009
1.0046892 -0.33096185 -0.35125625
1.0410105 -0.3373929 -0.35280776
1.0294038 -0.33784077 -0.35112265
1.0217839 -0.34033185 -0.35427251
1.0335621 -0.3449659 -0.35744375
1.0296875 -0.34425709 -0.3495566
1.0213665 -0.3430222 -0.35398039
1.0325541 -0.35717088 -0.35254505
1.0251851 -0.35519651 -0.35397291
1.0191747 -0.35300535 -0.35000402
1.0141795 -0.35597768 -0.35258254
1.041221 -0.36339271 -0.34852129
1.0267096 -0.36354449 -0.35427731
1.0407342 -0.37585419 -0.34971488
1.0322654 -0.37379566 -0.3461374
1.0270779 -0.3727583 -0.34877706
1.0211254 -0.37545744 -0.35038015
1.0342869 -0.38005123 -0.34924361
1.0457208 -0.30133727 -0.36947596
1.034279 -0.30465928 -0.36825052
1.0201387 -0.29971847 -0.37004858
1.0411124 -0.310601 -0.36734974
1.0335612 -0.31336147 -0.36423823
1.0247517 -0.31274903 -0.37107998
1.0230598 -0.3147063 -0.36434332
1.016906 -0.30792534 -0.36493248
1.0090632 -0.31166205 -0.36459163
1.0006377 -0.31376377 -0.36762226
1.0539999 -0.32376492 -0.36909384
1.0355797 -0.31787896 -0.36792624
1.0257934 -0.31862289 -0.36912054
1.0461764 -0.33007911 -0.36319056
1.0395046 -0.33003908 -0.36235446
1.0275987 -0.33205771 -0.36753836
1.0149599 -0.32567936 -0.36635903
1.0036654 -0.32663661 -0.36765254
1.0317979 -0.33723116 -0.36575127
1.0202552 -0.33445781 -0.36214888
1.0083268 -0.33591837 -0.36598769
1.0372994 -0.35033575 -0.35880041
1.0340133 -0.34681404 -0.36066395
1.0100365 -0.34668082 -0.36578754
1.0385289 -0.35387564 -0.36265245
1.0336391 -0.35440171 -0.36479357
1.0162514 -0.35595733 -0.35778117
1.0297956 -0.36450836 -0.35735795
1.0183054 -0.36985934 -0.3597725
1.0164725 -0.36699697 -0.36390671
1.0107191 -0.37158278 -0.3612898
1.022687 -0.29501012 -0.38142997
1.03715 -0.30290806 -0.3809596
1.0262749 -0.30682331 -0.38058406
1.0080395 -0.30733675 -0.38098794
1.0357784 -0.31101114 -0.37998182
1.0203727 -0.3100563 -0.37915009
1.0158914 -0.31468007 -0.37912837
1.0328737 -0.32286519 -0.37967116
1.0126401 -0.32377496 -0.37477848
1.0441245 -0.33291057 -0.37638846
1.0407538 -0.32685906 -0.37598923
1.0297643 -0.33024031 -0.37249503
1.0144413 -0.32724565 -0.37921646
1.0466921 -0.34140211 -0.37604094
1.0274776 -0.33889818 -0.37030244
1.0226049 -0.33649397 -0.37454581
1.0145944 -0.33895132 -0.37649623
1.0390044 -0.3501288 -0.37035114
1.0341837 -0.34647825 -0.3699975
1.0242645 -0.3490833 -0.37315845
1.0202572 -0.34785107 -0.37425151
1.0384159 -0.35438704 -0.36995524
1.033805 -0.36082327 -0.36934489
1.028888 -0.35932106 -0.37064555
1.0223812 -0.3583543 -0.37543482
1.0408487 -0.36874056 -0.36958522
1.0352532 -0.36673319 -0.37191495
1.0277429 -0.37030536 -0.37146232
1.0530328 -0.2966679 -0.38594073
1.0358629 -0.2946772 -0.38827661
1.0279647 -0.29934716 -0.38975558
1.0217394 -0.29356176 -0.38979918
1.0477645 -0.3053329 -0.38422355
1.0370337 -0.29896003 -0.38558912
1.028805 -0.30347678 -0.38853648
1.0313703 -0.31560504 -0.39082131
1.0286461 -0.3129231 -0.3881188
1.0199852 -0.30947009 -0.3917253
1.0451208 -0.32397133 -0.38142553
1.0350516 -0.3229548 -0.38821474
1.0150242 -0.3243432 -0.38127431
1.0339689 -0.33489197 -0.38451883
1.0302234 -0.32830724 -0.38654441
1.023586 -0.32674628 -0.38150245
1.038464 -0.34018674 -0.38336328
1.0336568 -0.33691525 -0.38328749
1.0257944 -0.34533045 -0.38474596
1.0096757 -0.33863011 -0.38339856
1.0429144 -0.3484647 -0.37864071
1.0238134 -0.35452589 -0.37916207
1.0209081 -0.34742489 -0.37743023
1.0407629 -0.35814866 -0.38129026
1.0317719 -0.35971141 -0.37597975
1.0280638 -0.36354876 -0.38048258
1.0154437 -0.35769361 -0.38137305
1.033694 -0.36909854 -0.37813967
1.027509 -0.36790901 -0.37560144
1.0187153 -0.36509258 -0.37748337
1.040731 -0.2985442 -0.40291521
1.0331573 -0.29465505 -0.39993164
1.0336725 -0.3080377 -0.40022835
1.0485979 -0.31625324 -0.39740396
1.0270399 -0.31857428 -0.39919531
1.0434642 -0.3213107 -0.39414921
1.0249773 -0.32438356 -0.3914459
1.0266825 -0.33427829 -0.39659417
1.0446953 -0.34530944 -0.38828561
1.0332766 -0.34023058 -0.38972527
1.0247356 -0.34392595 -0.39108187
1.020347 -0.34100819 -0.39357555
1.0450374 -0.34938043 -0.38723707
1.0358651 -0.35328746 -0.39034581
1.0293324 -0.3512117 -0.3925246
1.0458889 -0.36041933 -0.38623276
1.0385791 -0.36457303 -0.38864744
1.0274982 -0.35982737 -0.39188862
1.0532352 -0.36884248 -0.38755181
1.038671 -0.36881983 -0.38747701
1.0349152 -0.37044635 -0.38765281
1.0262879 -0.28981644 -0.40986827
1.0520581 -0.29473367 -0.41102758
1.0440265 -0.29460356 -0.40939152
1.0333537 -0.29562569 -0.4056268
1.0286644 -0.2977061 -0.40487286
1.020951 -0.2932421 -0.4076378
1.0162464 -0.30197152 -0.40996358
1.0299623 -0.30885321 -0.40730613
1.0232072 -0.30321717 -0.40899009
1.0600914 -0.31656414 -0.41072577
1.0408767 -0.31643847 -0.40545192
1.02751 -0.31212041 -0.4045825
1.022058 -0.3207913 -0.40811467
1.0175096 -0.31221971 -0.4100202
1.0433027 -0.32901409 -0.40337461
1.0351974 -0.32221839 -0.4027954
1.0274694 -0.32350343 -0.40591836
1.0407969 -0.33363384 -0.4029704
1.0348772 -0.33234996 -0.40322214
1.0503862 -0.3404901 -0.40622008
1.0357128 -0.34112287 -0.39874977
1.0277609 -0.34826991 -0.40418929
1.0515622 -0.35166559 -0.40326664
1.0483979 -0.35198596 -0.3991521
1.0324488 -0.35394007 -0.39999101
1.0281718 -0.35166931 -0.39585471
1.0200441 -0.3488951 -0.40128574
1.0402435 -0.36617884 -0.39558223
1.0342293 -0.36079523 -0.39825258
1.019125 -0.36032584 -0.39519423
1.0409904 -0.29348761 -0.42203027
1.032891 -0.29018807 -0.41711056
1.0241258 -0.28567442 -0.42323652
1.0505698 -0.29437038 -0.4168067
1.0424562 -0.30210394 -0.41979596
1.0337081 -0.29906327 -0.42016721
1.0253652 -0.30234015 -0.42148548
1.0406259 -0.30872703 -0.41689968
1.0287414 -0.30389434 -0.42110494
1.0197823 -0.30523527 -0.41579291
1.0529357 -0.31535956 -0.41887501
1.0368787 -0.31440043 -0.4130868
1.0290799 -0.31811839 -0.41247508
1.0193164 -0.31721714 -0.41686121
1.0440861 -0.32415929 -0.41610053
1.0350302 -0.33126795 -0.41324508
1.0276679 -0.32749072 -0.41452917
1.0457265 -0.33345729 -0.41272146
1.0382313 -0.33786485 -0.41305915
1.0268558 -0.33751932 -0.41091758
1.0188317 -0.33865234 -0.41068548
1.016674 -0.33517319 -0.41025302
1.0383648 -0.34762335 -0.40928274
1.0344039 -0.34518611 -0.41139534
1.0455962 -0.35567233 -0.41126186
1.0429271 -0.35339087 -0.41296104
1.0333465 -0.35518685 -0.41150209
1.021067 -0.35496542 -0.4106366
1.0515264 -0.36012492 -0.40467438
1.0467614 -0.36457083 -0.41245908
1.0378062 -0.36346048 -0.40640879
1.0594307 -0.28969508 -0.42713782
1.0530667 -0.29016295 -0.4242112
1.0412656 -0.29204273 -0.42845508
1.0433954 -0.30295783 -0.42719328
1.0335339 -0.30385581 -0.42626366
1.0203388 -0.30396885 -0.42697757
1.0467174 -0.31022662 -0.42697829
1.0317677 -0.30481353 -0.42244267
1.0295918 -0.31339461 -0.42952245
1.0405247 -0.31989372 -0.42130572
1.0376297 -0.31814855 -0.4284437
1.0199811 -0.31672204 -0.42362383
1.0478729 -0.33021551 -0.42281857
1.040632 -0.32549074 -0.42322162
1.0342121 -0.32716259 -0.42142275
1.0267786 -0.32530561 -0.42026424
1.0556511 -0.33405438 -0.42205879
1.0482773 -0.33281204 -0.41901442
1.0384951 -0.34028932 -0.42045802
1.0421172 -0.34451821 -0.41806006
1.0355983 -0.34578389 -0.41598356
1.0274382 -0.34388471 -0.42155683
1.0222012 -0.34682551 -0.42111754
1.0417477 -0.35289976 -0.42300752
1.0353997 -0.35885221 -0.42134148
1.0434749 -0.28386101 -0.4410767
1.0331769 -0.28432226 -0.43462849
1.0417488 -0.295389 -0.43658909
1.0365113 -0.29246753 -0.43973243
1.0312461 -0.2873143 -0.43346155
1.0546033 -0.3054429 -0.43630171
1.0501075 -0.29698077 -0.43435121
1.0358402 -0.30036989 -0.43424463
1.0277032 -0.29950809 -0.43773258
1.0217279 -0.30051282 -0.43412516
1.0488009 -0.3060126 -0.43405724
1.0382612 -0.30801976 -0.43185565
1.0351415 -0.30824563 -0.43139759
1.0589653 -0.31956801 -0.43166459
1.0501947 -0.31729144 -0.43635488
1.0435418 -0.3178708 -0.43559626
1.0294434 -0.31997612 -0.4341473
1.0191976 -0.31767187 -0.43718094
1.0454013 -0.32903966 -0.43021733
1.0438322 -0.32949078 -0.43367541
1.0368179 -0.33311859 -0.43170071
1.0034862 -0.32650292 -0.42961875
1.0457497 -0.34051779 -0.42855629
1.0395299 -0.33690441 -0.43104377
1.0354662 -0.33579451 -0.43062758
1.0489954 -0.34809303 -0.43072918
1.0426804 -0.34907916 -0.42995647
1.0359901 -0.34378034 -0.43038327
1.0534865 -0.35616559 -0.43014583
1.032904 -0.35641932 -0.42481557
1.0591509 -0.28388485 -0.45145905
1.0443325 -0.28464556 -0.44682682
1.0346199 -0.28253114 -0.44656098
1.0289381 -0.28068507 -0.44944468
1.0232208 -0.28348061 -0.45224786
1.0545272 -0.29123899 -0.44768575
1.0517809 -0.2914069 -0.44980526
1.0400894 -0.29627302 -0.44332138
1.0231105 -0.29582042 -0.44372162
1.0578412 -0.30157197 -0.44887689
1.0414982 -0.30336291 -0.44734493
1.0368837 -0.30041856 -0.44559389
1.0417473 -0.31096712 -0.44286588
1.0222292 -0.31469393 -0.44083661
1.0490386 -0.31948689 -0.44422621
1.0446236 -0.32210866 -0.44379345
1.026945 -0.33123529 -0.44110191
1.0238379 -0.33169964 -0.4374426
1.0534267 -0.3366116 -0.43849507
1.0271151 -0.33949947 -0.43892431
1.0239655 -0.33937639 -0.43823701
1.038246 -0.35028085 -0.44104445
1.0337166 -0.3495976 -0.44232801
1.0283928 -0.35192508 -0.43580094
1.0440054 -0.2869283 -0.46076021
1.0381849 -0.28358433 -0.45900565
1.0278944 -0.28660327 -0.46095705
1.0376656 -0.29142445 -0.45315143
1.0258352 -0.2971828 -0.45603523
1.0212115 -0.29420161 -0.45250383
1.0534339 -0.30092975 -0.4569841
1.0500302 -0.30736673 -0.45623434
1.0439917 -0.2997064 -0.45104536
1.0344683 -0.30649874 -0.4502432
1.0603068 -0.31327763 -0.44967625
1.0325848 -0.31223688 -0.45523354
1.0271673 -0.31312418 -0.45090351
1.0198605 -0.31421188 -0.45772007
1.0618644 -0.32398346 -0.45580077
1.0527041 -0.32190904 -0.45104137
1.0419531 -0.32668716 -0.45004347
1.037111 -0.32367194 -0.45173261
1.0315894 -0.317972 -0.45148048
1.0484461 -0.33047199 -0.45037022
1.0409157 -0.32968649 -0.45036367
1.0331975 -0.33230078 -0.4492836
1.0180564 -0.33137488 -0.44738433
1.0577908 -0.34323299 -0.44543946
1.0452914 -0.34506252 -0.44969761
1.0394258 -0.33968365 -0.45009315
1.0293356 -0.34509492 -0.45260561
1.0225911 -0.34409454 -0.45016643
1.0478882 -0.35365519 -0.44532552
1.0419368 -0.34936839 -0.44991493
1.0373647 -0.34897378 -0.45301804
1.0257132 -0.35129613 -0.44693202
1.0549599 -0.35522759 -0.44659692
1.0309217 -0.27657989 -0.46677107
1.0244027 -0.27541447 -0.46884778
1.0403922 -0.28427321 -0.4667187
1.0375563 -0.28699934 -0.46846199
1.0693487 -0.29536572 -0.46852219
1.0491759 -0.29448497 -0.46149296
1.0452086 -0.29699114 -0.46784678
1.037182 -0.29742861 -0.46757683
1.0304968 -0.29454878 -0.46436435
1.0247605 -0.29955482 -0.46324989
1.0480134 -0.30765212 -0.46492684
1.0133451 -0.30359697 -0.46429262
1.055362 -0.31678689 -0.46014938
1.0445104 -0.31576753 -0.46550894
1.0355022 -0.31597209 -0.46027064
1.0196129 -0.31371194 -0.46477583
1.0466421 -0.32109952 -0.46516696
1.0342866 -0.32628602 -0.45717543
1.028703 -0.32671291 -0.46335796
1.0208441 -0.32303569 -0.46398634
1.0652224 -0.33815402 -0.46167868
1.0583738 -0.33216405 -0.45692044
1.0488517 -0.33776528 -0.46121296
1.0264684 -0.3331553 -0.45807362
1.0561011 -0.34116623 -0.46137047
1.0466118 -0.34459507 -0.45562026
1.0418783 -0.34226382 -0.45744464
1.0344287 -0.34266695 -0.46128985
1.0222811 -0.34582144 -0.45933154
1.0481966 -0.35202152 -0.453738
1.0491838 -0.28039458 -0.47595364
1.0408932 -0.27497163 -0.47878641
1.0412836 -0.28933936 -0.47475326
1.0382257 -0.28586265 -0.47352323
1.0256188 -0.29106799 -0.47078973
1.0564388 -0.29654938 -0.47580951
1.0483193 -0.29534066 -0.47838885
1.0400145 -0.2951102 -0.47729042
1.0351167 -0.29603925 -0.4729099
1.030094 -0.29609382 -0.47266904
1.0645213 -0.31111354 -0.47768605
1.0580821 -0.30287331 -0.47331461
1.0499306 -0.31129602 -0.47491729
1.0416784 -0.30365044 -0.47060829
1.0322725 -0.30447343 -0.47509882
1.027342 -0.31166929 -0.47632164
1.0247552 -0.30132273 -0.47025263
1.0648936 -0.31956762 -0.47477838
1.0536342 -0.31976199 -0.46775624
1.0440831 -0.31708539 -0.47093257
1.0339708 -0.31477022 -0.4710525
1.0278633 -0.3143625 -0.47659498
1.0473113 -0.32492861 -0.46975935
1.0447887 -0.32253379 -0.47282478
1.038958 -0.33117089 -0.46865743
1.0284259 -0.33264506 -0.47246203
1.0538573 -0.34378469 -0.46768647
1.0256354 -0.3427532 -0.46717039
1.0528352 -0.34920764 -0.4637509
1.0398778 -0.27760491 -0.48243123
1.036889 -0.28290495 -0.48852721
1.0767214 -0.29032707 -0.48463243
1.0508876 -0.28874028 -0.48695937
1.0414549 -0.28489569 -0.48278993
1.0368716 -0.29069781 -0.48879588
1.0275644 -0.28634557 -0.489122
1.0558187 -0.2952376 -0.48125422
1.0470699 -0.29796171 -0.48604092
1.041241 -0.29962984 -0.48508811
1.0372924 -0.29486415 -0.48395815
1.0498481 -0.30669492 -0.48307723
1.0434573 -0.3113184 -0.48237476
1.0347421 -0.31101871 -0.4824152
1.0288107 -0.30919176 -0.48187062
1.0618907 -0.31649116 -0.48358592
1.0556343 -0.31779945 -0.48071802
1.0493309 -0.32147795 -0.4826749
1.0444254 -0.31578684 -0.48270479
1.0267231 -0.32048273 -0.47942376
1.0236298 -0.31483668 -0.48031521
1.0360843 -0.32858229 -0.48101309
1.0284371 -0.32695478 -0.47795543
1.0733509 -0.34114572 -0.48199129
1.0591303 -0.33675042 -0.48034814
1.0493779 -0.3341729 -0.47829968
1.0407031 -0.3323653 -0.48029351
1.0345062 -0.33383322 -0.47519016
1.0312002 -0.3343533 -0.48012
1.0235302 -0.33862877 -0.48288983
1.0577819 -0.34476012 -0.48217624
1.0437644 -0.34504706 -0.47841105
1.0329837 -0.34180948 -0.47633177
1.0425069 -0.27227473 -0.49811623
1.0317353 -0.27187663 -0.4934389
1.0583987 -0.27773687 -0.49317026
1.0508541 -0.27897951 -0.49596903
1.0608888 -0.29124016 -0.49644673
1.0570976 -0.29329491 -0.49716297
1.0479565 -0.29146591 -0.49609199
1.0363388 -0.28945366 -0.49192125
1.0326823 -0.29970667 -0.49280971
1.0464503 -0.31028813 -0.49223524
1.0433438 -0.3100507 -0.48881346
1.0355108 -0.30845332 -0.48843172
1.0680952 -0.31921041 -0.4937636
1.0545652 -0.32029635 -0.48609331
1.0401466 -0.32107854 -0.49183562
1.0349642 -0.31778768 -0.49167207
1.0596937 -0.32686135 -0.48684996
1.054083 -0.33172774 -0.49311149
1.0290021 -0.32693666 -0.49160191
1.0534171 -0.332627 -0.48815021
1.0425037 -0.33787525 -0.48558912
1.0524557 -0.27161342 -0.50980926
1.0334212 -0.27817905 -0.5104171
1.0111284 -0.2701357 -0.50948179
1.0606508 -0.2811234 -0.50209796
1.0473044 -0.28564423 -0.50063318
1.0403945 -0.28152397 -0.5077104
1.0371662 -0.28278989 -0.50701118
1.0295099 -0.28162315 -0.50745422
1.0540626 -0.29294997 -0.5011546
1.0460299 -0.29516426 -0.50417471
1.0369694 -0.29047894 -0.50132573
1.0276864 -0.29261237 -0.50515187
1.0590155 -0.30011082 -0.5025506
1.0471758 -0.30083746 -0.49843672
1.0374714 -0.30369395 -0.5069074
1.0298363 -0.30060443 -0.5012303
1.0565288 -0.30694997 -0.50359309
1.0438322 -0.3103027 -0.49874362
1.0335312 -0.31124893 -0.5037145
1.0442493 -0.32307363 -0.50059831
1.0370436 -0.32075822 -0.50142258
1.0268822 -0.31992739 -0.49644196
1.0621594 -0.33233458 -0.49932578
1.0492569 -0.32735655 -0.49826482
1.0391793 -0.3302525 -0.49398583
1.0362002 -0.32665083 -0.50004941
1.062729 -0.3403126 -0.50060165
1.0501794 -0.33505562 -0.49432102
1.0466615 -0.27023247 -0.52108103
1.0390434 -0.26794785 -0.52137887
1.0572745 -0.2734136 -0.51535589
1.0431803 -0.27299577 -0.51746058
1.0301884 -0.27461231 -0.51866233
1.061628 -0.28842381 -0.51570749
1.0579611 -0.284168 -0.51892579
1.0469034 -0.28701681 -0.51295781
1.0429423 -0.28166637 -0.51037794
1.0366466 -0.28609371 -0.51869321
1.0568593 -0.29672951 -0.51210904
1.0352602 -0.29428998 -0.51393086
1.0413511 -0.30242017 -0.51610631
1.0302343 -0.30122608 -0.50999409
1.0549082 -0.31234992 -0.50981027
1.0499256 -0.30887809 -0.50790054
1.0405594 -0.31627584 -0.50968009
1.0301957 -0.31582132 -0.50798011
1.0227259 -0.31283116 -0.51176441
1.0519674 -0.32229084 -0.51095837
1.0432198 -0.32121235 -0.51050407
1.0318083 -0.32033899 -0.51213962
1.0569927 -0.33170867 -0.51107502
1.0422583 -0.3276664 -0.50704241
1.0283159 -0.32559299 -0.50526053
1.0610907 -0.26868168 -0.53082108
1.0578117 -0.27097264 -0.52523667
1.0514026 -0.26716432 -0.52667505
1.0247029 -0.26501834 -0.52373445
1.0555489 -0.27947265 -0.52275562
1.0484972 -0.27696207 -0.52788424
1.0422516 -0.27438509 -0.52623492
1.0390511 -0.27416384 -0.52390659
1.0314553 -0.27690074 -0.52578646
1.0197023 -0.27897459 -0.52490711
1.053574 -0.28927034 -0.52704036
1.0445621 -0.28222299 -0.52564985
1.0353725 -0.28326869 -0.5248968
1.0250074 -0.28886226 -0.52019823
1.0465634 -0.29534313 -0.52316689
1.0398418 -0.29770193 -0.52183717
1.037829 -0.2981461 -0.5178237
1.0294728 -0.29461139 -0.52302861
1.0252656 -0.29709324 -0.52353472
1.0567316 -0.30483344 -0.51898539
1.0526612 -0.30484176 -0.5251345
1.0437747 -0.30695161 -0.51769644
1.0308344 -0.30747408 -0.51886016
1.0561063 -0.31249526 -0.52067363
1.0433567 -0.31250855 -0.51720023
1.0380099 -0.31208757 -0.52064139
1.020233 -0.31113893 -0.52471483
1.052878 -0.32366547 -0.51645589
1.0475875 -0.32229391 -0.51680928
1.037451 -0.32457104 -0.51938033
1.0676757 -0.33586508 -0.51902694
1.0503528 -0.33373711 -0.51731485
1.0349685 -0.33240584 -0.51403755
1.0294067 -0.32888946 -0.51776564
1.01932 -0.33037984 -0.51432872
1.0437889 -0.2676937 -0.53514612
1.0357484 -0.26683146 -0.53493965
1.0620122 -0.27458555 -0.53962481
1.0492381 -0.2776562 -0.53847277
1.0385684 -0.27501115 -0.53091383
1.0272437 -0.27947062 -0.53695953
1.0540498 -0.28645629 -0.53516924
1.0490637 -0.28667784 -0.53163183
1.0437207 -0.28562379 -0.53149325
1.0361923 -0.28713715 -0.53407466
1.0552477 -0.29905164 -0.52910113
1.0504656 -0.2968137 -0.53026247
1.0433841 -0.29344183 -0.53532994
1.0329063 -0.2977151 -0.53565264
1.056152 -0.30632585 -0.52863806
1.0517906 -0.30511659 -0.53020602
1.0281377 -0.3036992 -0.53400594
1.0615407 -0.31073546 -0.5276252
1.0594152 -0.31844243 -0.53168499
1.0471355 -0.31839404 -0.53224015
1.0409724 -0.31147313 -0.52752447
1.036455 -0.31268913 -0.52941591
1.0226721 -0.3116785 -0.52788085
1.0490742 -0.3238433 -0.52925885
1.0427439 -0.32712299 -0.52800351
1.0349315 -0.32542264 -0.53175724
1.0593212 -0.32933176 -0.53201681
1.0467386 -0.3290295 -0.52832311
1.0529742 -0.26323718 -0.54217088
1.0366945 -0.25996304 -0.54762489
1.0540522 -0.2722578 -0.54539055
1.0492622 -0.27062967 -0.54573274
1.0422667 -0.26830998 -0.54741979
1.0394608 -0.26939708 -0.54161739
1.0248302 -0.26711211 -0.54875499
1.0572596 -0.2828835 -0.54288518
1.0498656 -0.27967948 -0.54462194
1.0419874 -0.27967125 -0.54423296
1.0314813 -0.2784003 -0.53926563
1.0469763 -0.29054043 -0.54101133
1.0314869 -0.28424904 -0.5409742
1.0581369 -0.30051175 -0.54075992
1.0507157 -0.30085316 -0.54514033
1.0415529 -0.29800418 -0.54383856
1.0260241 -0.29297715 -0.54143298
1.0389977 -0.30466625 -0.54139984
1.0540196 -0.31749794 -0.54333586
1.0502073 -0.3142966 -0.53827655
1.0299596 -0.31199744 -0.53863138
1.0567514 -0.32635897 -0.5367167
1.0509299 -0.32227165 -0.5347212
1.05733 -0.26037139 -0.55761999
1.0348332 -0.25969896 -0.5528177
1.0680463 -0.27086729 -0.55082631
1.0544012 -0.27343655 -0.55699503
1.0529802 -0.26960772 -0.5544982
1.0443475 -0.27161622 -0.55857396
1.031069 -0.27490336 -0.55635917
1.0564414 -0.27860719 -0.55522603
1.0497926 -0.27749053 -0.55448037
1.0429913 -0.27858013 -0.55158663
1.0354488 -0.27865097 -0.55129617
1.0573329 -0.29098293 -0.54777068
1.035453 -0.29331452 -0.5540669
1.0306562 -0.28558034 -0.54760557
1.0560793 -0.29981163 -0.55191809
1.0471582 -0.29685062 -0.55478179
1.041891 -0.29823297 -0.55030686
1.0370463 -0.298554 -0.54590338
1.0254409 -0.29992434 -0.5491516
1.0413852 -0.30667043 -0.54536879
1.0356447 -0.31169915 -0.549106
1.0500467 -0.31916159 -0.54686487
1.0452102 -0.31601518 -0.547804
1.0363262 -0.31746408 -0.54954225
1.031312 -0.31873435 -0.54799658
1.0632994 -0.32450724 -0.54759121
1.0587589 -0.32449135 -0.54504097
1.0552565 -0.26394448 -0.56361735
1.0495292 -0.26285127 -0.56424558
1.0443224 -0.25980943 -0.56552935
1.0368879 -0.26224223 -0.56267571
1.0575336 -0.27062511 -0.56487632
1.0492079 -0.27238521 -0.56316346
1.0433304 -0.27302545 -0.56694651
1.0369501 -0.26779965 -0.56554496
1.0299034 -0.27504718 -0.56451803
1.0645748 -0.28586769 -0.5627827
1.0581752 -0.27771974 -0.55975568
1.0508111 -0.27809265 -0.56601167
1.0434465 -0.28189668 -0.5604887
1.0358995 -0.28230411 -0.56052595
1.0553461 -0.2917572 -0.56501764
1.0489086 -0.29000023 -0.56145871
1.0437984 -0.29169306 -0.56077623
1.0382338 -0.28982157 -0.56110287
1.0574774 -0.29785475 -0.56052947
1.0417982 -0.30186772 -0.56321329
1.0357907 -0.29819784 -0.56338072
1.0570244 -0.31311756 -0.56216121
1.0520936 -0.30956087 -0.55905712
1.0446807 -0.3077288 -0.55953521
1.0299588 -0.30799082 -0.55624902
1.0555522 -0.31858286 -0.55561972
1.0513275 -0.3153125 -0.5609383
1.0397398 -0.31940493 -0.56062526
1.0577492 -0.25633198 -0.57707024
1.0338136 -0.2586422 -0.57737505
1.0540224 -0.26103497 -0.57742792
1.0509558 -0.2638163 -0.57433999
1.0569949 -0.27243504 -0.57365614
1.052862 -0.27197352 -0.57127297
1.0435177 -0.27804044 -0.5756157
1.0376226 -0.27490616 -0.57355785
1.0538471 -0.28044459 -0.5756067
1.0478021 -0.28093505 -0.57670009
1.0446866 -0.28410077 -0.57362437
1.0363828 -0.28225565 -0.57537675
1.0507451 -0.28907728 -0.57580578
1.045784 -0.29206699 -0.56766707
1.0313821 -0.29296935 -0.56945485
1.0626603 -0.30041185 -0.5710246
1.0573734 -0.30063352 -0.5693894
1.0415583 -0.29795831 -0.5694766
1.056134 -0.31334779 -0.5685994
1.051313 -0.31310523 -0.56601721
1.0440811 -0.30827585 -0.56761259
1.0372797 -0.30893764 -0.56815004
1.0324652 -0.30895454 -0.56391609
1.0632169 -0.32038051 -0.56395143
1.0456839 -0.31707349 -0.56563991
1.0501453 -0.2553488 -0.58711749
1.0423654 -0.2561751 -0.58687127
1.0365828 -0.26060683 -0.58891028
1.0626608 -0.26877558 -0.58259016
1.0563461 -0.26676273 -0.58156937
1.0501292 -0.2681483 -0.58662075
1.0438622 -0.26427263 -0.58324516
1.0372919 -0.26273352 -0.58078325
1.0649549 -0.27605247 -0.58133113
1.0556376 -0.27396664 -0.5870353
1.0493766 -0.27303576 -0.5816462
1.0382235 -0.27182552 -0.58025563
1.0577636 -0.28401116 -0.58017784
1.0517106 -0.28600043 -0.58115208
1.0424743 -0.28481805 -0.57925355
1.0642896 -0.29202771 -0.58085799
1.0545367 -0.29389429 -0.57875639
1.0485686 -0.29190457 -0.57816005
1.0433037 -0.29507196 -0.58016968
1.0311327 -0.29669505 -0.57693309
1.0683373 -0.29944679 -0.57949221
1.0542511 -0.30490717 -0.57480919
1.0493807 -0.30051303 -0.57778823
1.038337 -0.30159515 -0.57805103
1.029371 -0.30533108 -0.57871103
1.0610678 -0.31357118 -0.57909811
1.0580919 -0.3129586 -0.57864344
1.0504441 -0.30778873 -0.57911175
1.0419816 -0.30746958 -0.57649797
1.06357 -0.25938177 -0.59708452
1.0570438 -0.25527915 -0.59401113
1.0518332 -0.2572341 -0.59320009
1.0425628 -0.25759339 -0.59174126
1.0698617 -0.26385447 -0.59832472
1.0544008 -0.26594305 -0.59408057
1.0513089 -0.26547122 -0.59146988
1.0584105 -0.27653968 -0.58998924
1.049536 -0.27733493 -0.59074366
1.0437009 -0.27506876 -0.59362537
1.0610249 -0.28978813 -0.59356493
1.057946 -0.28415617 -0.59154034
1.0523217 -0.2822285 -0.5921858
1.0443693 -0.28542873 -0.59009272
1.0639309 -0.2941606 -0.59050518
1.0566758 -0.29707316 -0.58990395
1.04229 -0.29170123 -0.59014148
1.0389296 -0.2959891 -0.59073538
1.0658417 -0.30539334 -0.59265357
1.0533936 -0.30304611 -0.59101039
1.0449963 -0.30393013 -0.58491814
1.0383346 -0.3026135 -0.58796877
1.062639 -0.31553996 -0.58310586
1.0565184 -0.30956742 -0.58705032
1.0560946 -0.24930325 -0.60530508
1.047804 -0.25350517 -0.60493457
1.0688785 -0.2637971 -0.60751569
1.0615778 -0.25583667 -0.60751748
1.0511208 -0.25813356 -0.60396677
1.0449195 -0.25680625 -0.60226315
1.0362036 -0.26021636 -0.60431331
1.0634387 -0.27051538 -0.60517102
1.0582088 -0.26596022 -0.59877354
1.0496477 -0.27154276 -0.60419041
1.0425667 -0.26723024 -0.60661715
1.035032 -0.26416767 -0.60553068
1.065604 -0.27462474 -0.6053552
1.056311 -0.27820021 -0.60236007
1.0497245 -0.2779963 -0.60165823
1.0419853 -0.27587417 -0.60132557
1.0681657 -0.28775638 -0.59943247
1.0549748 -0.28987315 -0.60124409
1.0518914 -0.28734395 -0.5992555
1.0463111 -0.28246176 -0.59881932
1.0549357 -0.29580879 -0.59529459
1.0492041 -0.29494768 -0.60232943
1.0448407 -0.29375467 -0.59846282
1.0352477 -0.29900435 -0.59573358
1.0564224 -0.30472156 -0.59925848
1.0470154 -0.30468512 -0.59810871
1.0393229 -0.30565387 -0.59353709
1.0765511 -0.31061536 -0.59949547
1.0706547 -0.25485751 -0.61303747
1.0555167 -0.25137639 -0.61579084
1.043712 -0.25304672 -0.61498988
1.062812 -0.26124716 -0.61566079
1.0606284 -0.25815165 -0.61507857
1.0511194 -0.2595365 -0.61029422
1.0655893 -0.26964718 -0.60748148
1.0560075 -0.27071613 -0.60972983
1.0528759 -0.26928633 -0.61034358
1.0422946 -0.27175295 -0.61186874
1.0355508 -0.26633933 -0.61678588
1.0788475 -0.27620861 -0.61458766
1.0621258 -0.27924985 -0.60966712
1.0373293 -0.28095537 -0.60829973
1.0597477 -0.28772071 -0.61224306
1.0505725 -0.28746998 -0.61292791
1.0422404 -0.2856974 -0.60571223
1.0399145 -0.28624251 -0.60911846
1.0669565 -0.2965613 -0.60702193
1.0593311 -0.29550499 -0.6049459
1.0490201 -0.29856437 -0.60530907
1.0421638 -0.29771245 -0.60627669
1.037604 -0.29498762 -0.60563469
1.0670241 -0.30589771 -0.6105063
1.0593442 -0.30586302 -0.60537183
1.0484036 -0.30391783 -0.60699147
1.0453784 -0.3068653 -0.60734278
1.0777397 -0.25033325 -0.62899053
1.0701541 -0.24950624 -0.62139809
1.0635896 -0.25068864 -0.6217019
1.0573896 -0.25219619 -0.62387872
1.0459906 -0.24908705 -0.62084502
1.0708548 -0.25900009 -0.62613744
1.0645211 -0.26513344 -0.62459236
1.0539442 -0.26391023 -0.62304443
1.0347091 -0.25978246 -0.62289822
1.0334889 -0.25641641 -0.61955971
1.0580571 -0.27141944 -0.61683142
1.0519658 -0.27099645 -0.62091732
1.04495 -0.27287698 -0.61996287
1.0572246 -0.27800721 -0.62169456
1.0505931 -0.27925304 -0.61878359
1.041823 -0.28044593 -0.62267143
1.0393788 -0.27503324 -0.61888295
1.0740968 -0.29200166 -0.62309974
1.0562737 -0.28907293 -0.61743706
1.0513108 -0.28957987 -0.61950707
1.0451804 -0.2900084 -0.61761767
1.0578604 -0.29885891 -0.61918646
1.0502948 -0.29876518 -0.62049335
1.043393 -0.30176491 -0.61664456
1.0804586 -0.30630946 -0.61822027
1.068663 -0.24411418 -0.63880104
1.0526934 -0.24367014 -0.63501328
1.0322883 -0.24815202 -0.63430458
1.0676343 -0.25679842 -0.63621169
1.0569638 -0.25507104 -0.63132727
1.0519797 -0.25152078 -0.63217616
1.0573554 -0.2636044 -0.62970102
1.0511751 -0.26366818 -0.63035643
1.0452937 -0.26135996 -0.63351786
1.0644783 -0.27499813 -0.63267934
1.056893 -0.26880562 -0.63071984
1.0508317 -0.2729885 -0.63151264
1.0588881 -0.28076062 -0.62778664
1.0503508 -0.28234699 -0.63192379
1.0453043 -0.28317603 -0.63269538
1.0668391 -0.2880474 -0.63113338
1.0584384 -0.28684086 -0.62781781
1.0522046 -0.2947543 -0.62831235
1.0735414 -0.29816163 -0.63183248
1.0545769 -0.30085343 -0.62756908
1.05059 -0.29819727 -0.62559736
1.0674227 -0.24639033 -0.64223462
1.0582473 -0.24559283 -0.64336264
1.0516833 -0.24705005 -0.64492643
1.0400949 -0.24846898 -0.64730281
1.0706024 -0.25233483 -0.6421262
1.0631675 -0.25958556 -0.64648002
1.0565302 -0.25264958 -0.6430003
1.0507442 -0.25523642 -0.64333022
1.0730258 -0.26600373 -0.63743663
1.0642099 -0.26401362 -0.6431818
1.0521184 -0.26344818 -0.64323896
1.0467405 -0.26745307 -0.64234948
1.0622352 -0.27278233 -0.64243293
1.0607251 -0.27460122 -0.64082772
1.0499918 -0.27277839 -0.63821459
1.0416346 -0.27636632 -0.63502192
1.0701222 -0.2861692 -0.63891685
1.0588881 -0.28618443 -0.64101851
1.0518727 -0.28231201 -0.63660353
1.0576 -0.2919668 -0.63841987
1.0499256 -0.2921578 -0.63950908
1.0470982 -0.29438543 -0.6349259
1.0519991 -0.29933211 -0.63210922
1.0448555 -0.29679057 -0.63338768
1.065274 -0.24014544 -0.65486228
1.0873821 -0.24403217 -0.6504283
1.0687898 -0.24562737 -0.65747303
1.0620581 -0.24939159 -0.65656656
1.0552281 -0.24478611 -0.65554738
1.0509511 -0.2458279 -0.65065324
1.0709679 -0.25618362 -0.65313447
1.0545807 -0.25222805 -0.65684396
1.0467867 -0.25575456 -0.65410268
1.060027 -0.26349899 -0.65286213
1.0459797 -0.26687965 -0.64669269
1.0645534 -0.27488744 -0.65138483
1.0573075 -0.27700633 -0.64612973
1.0502584 -0.27482912 -0.64834476
1.0435283 -0.27716476 -0.64687657
1.0402983 -0.27799085 -0.65057176
1.0699562 -0.28168508 -0.64684808
1.0627432 -0.287025 -0.64348263
1.0571069 -0.28297168 -0.64827436
1.044008 -0.28170985 -0.64718735
1.0408143 -0.28129596 -0.64790404
1.0755332 -0.29332644 -0.6506024
1.0701883 -0.29608166 -0.64258188
1.0629351 -0.29500645 -0.64488477
1.0553187 -0.29123792 -0.64749515
1.0523 -0.29424411 -0.64590895
1.0427053 -0.29143721 -0.64850938
1.0520754 -0.23548079 -0.66803801
1.0748072 -0.2494061 -0.66338104
1.056896 -0.24580881 -0.65829206
1.0544913 -0.24920753 -0.66255444
1.0369804 -0.24482179 -0.66219479
1.0686785 -0.2549184 -0.66384816
1.06264 -0.25720853 -0.66199237
1.0592964 -0.25724572 -0.65937835
1.0501325 -0.25970602 -0.66008472
1.0637926 -0.26805568 -0.65939796
1.0570251 -0.26551032 -0.65896368
1.0508001 -0.26388761 -0.66269267
1.0441936 -0.26442498 -0.66051549
1.0645094 -0.27702492 -0.6581946
1.0585322 -0.27679527 -0.6604085
1.0522802 -0.27497235 -0.65931171
1.0447832 -0.27349621 -0.66147333
1.0667976 -0.28410786 -0.65457809
1.0605897 -0.28529286 -0.65263492
1.0504786 -0.28543517 -0.6602993
1.0601463 -0.29110295 -0.66054678
1.0692059 -0.24078816 -0.67545301
1.0639504 -0.24040249 -0.67279255
1.057287 -0.24131602 -0.67425346
1.0534235 -0.23953933 -0.6731109
1.0474035 -0.23598826 -0.67189294
1.075325 -0.24832357 -0.67306566
1.0647066 -0.24899295 -0.67210257
1.0598017 -0.24969047 -0.67072105
1.0519845 -0.25054824 -0.67320848
1.0464849 -0.24996647 -0.6739586
1.0681441 -0.25753355 -0.67301124
1.0578219 -0.25989419 -0.67197621
1.0534528 -0.25895953 -0.67256826
1.0690993 -0.26618278 -0.66865456
1.0626035 -0.27150017 -0.66832113
1.0771556 -0.27699167 -0.6653198
1.0631785 -0.27801687 -0.67086881
1.0570951 -0.27618167 -0.6662364
1.0440711 -0.27991778 -0.66631579
1.0598012 -0.28582919 -0.66655546
1.0511183 -0.28736028 -0.66520268
1.039434 -0.2872864 -0.66286188
1.0509887 -0.2331114 -0.6865387
1.0627431 -0.23949482 -0.68542981
1.0557555 -0.24089691 -0.68555152
1.0719224 -0.250985 -0.67811733
1.0686511 -0.24870288 -0.68448102
1.0563151 -0.25039154 -0.68456572
1.0438939 -0.25051895 -0.68157464
1.0629671 -0.26010001 -0.67758292
1.0566928 -0.26032636 -0.68235099
1.0522554 -0.25984949 -0.67761505
1.0397094 -0.2595371 -0.67667347
1.0696408 -0.26505762 -0.67901844
1.0627508 -0.27236646 -0.67461002
1.057779 -0.26859432 -0.67713857
1.0454063 -0.27005935 -0.67529845
1.0408471 -0.26719311 -0.67515892
1.0633913 -0.28295946 -0.6739282
1.0602136 -0.28263921 -0.67771924
1.0456333 -0.2781446 -0.67625415
1.0629121 -0.28888673 -0.67524523
1.0774221 -0.23587497 -0.69656616
1.0577817 -0.23308203 -0.6920377
1.0798061 -0.24473095 -0.69106263
1.0752685 -0.24301726 -0.68772632
1.0604724 -0.24537981 -0.68956268
1.0512192 -0.24374378 -0.69117445
1.0468935 -0.24349406 -0.68817663
1.0417398 -0.24144953 -0.69045246
1.0581681 -0.25609532 -0.69229954
1.0520291 -0.2521019 -0.68877548
1.044922 -0.24906188 -0.68924773
1.0699687 -0.25986242 -0.68865609
1.0669343 -0.264525 -0.68883288
1.0524913 -0.25855017 -0.68855977
1.047677 -0.25993678 -0.69012475
1.0403845 -0.26504961 -0.69125623
1.0765287 -0.2693488 -0.68628085
1.0693195 -0.2668601 -0.68759233
1.0635858 -0.27336228 -0.68772763
1.0589505 -0.27087814 -0.68725312
1.0518951 -0.26732314 -0.68943691
1.0436623 -0.27148822 -0.68995702
1.0644666 -0.28217345 -0.68421865
1.0591205 -0.2760165 -0.68551767
1.0532571 -0.28386146 -0.68535066
1.0471903 -0.27859324 -0.68439072
1.0568941 -0.22932604 -0.70752233
1.0782496 -0.23867166 -0.70640224
1.0690511 -0.23530725 -0.70081949
1.066331 -0.23479483 -0.70382184
1.0581777 -0.23521115 -0.7020672
1.0529763 -0.23511764 -0.70157701
1.0443045 -0.23614694 -0.70153141
1.0418416 -0.23283121 -0.70147538
1.0854466 -0.24059916 -0.70610225
1.0757415 -0.24385709 -0.69997483
1.0713238 -0.24335384 -0.69703823
1.0590948 -0.24511036 -0.70225352
1.0642971 -0.25213853 -0.7012102
1.0496044 -0.25372392 -0.70109558
1.045826 -0.25324625 -0.69907504
1.0836738 -0.26446563 -0.70189416
1.0743489 -0.2611987 -0.69611472
1.0670543 -0.26446915 -0.70228827
1.0578465 -0.2584261 -0.69834673
1.0545189 -0.2630451 -0.69526446
1.0441762 -0.26748973 -0.70217538
1.058355 -0.2684541 -0.7022143
1.0535978 -0.27211031 -0.70025545
1.0780587 -0.28245473 -0.69393921
1.0718502 -0.28461084 -0.69516206
1.0650125 -0.28006348 -0.69590724
1.0609964 -0.28166211 -0.69443309
1.028716 -0.27823114 -0.69157451
1.0770923 -0.23139134 -0.71432352
1.0629685 -0.22737715 -0.71650136
1.0387104 -0.22861114 -0.71587485
1.0847865 -0.23826246 -0.71229506
1.0654023 -0.23785701 -0.711842
1.0600818 -0.23540671 -0.70730525
1.052981 -0.23480242 -0.70971459
1.0627664 -0.24302791 -0.70643663
1.0591792 -0.2425646 -0.71014673
1.0493835 -0.24990633 -0.71106368
1.0443758 -0.24481174 -0.70806855
1.0800403 -0.25723585 -0.71276963
1.0728148 -0.25608498 -0.7088908
1.0649266 -0.25520465 -0.70800197
1.0585052 -0.25584856 -0.71100557
1.0708566 -0.26322392 -0.70824057
1.0660261 -0.26806131 -0.70379359
1.0576885 -0.26563218 -0.70429379
1.0505174 -0.26226965 -0.70665824
1.0416962 -0.26428017 -0.70306253
1.0675728 -0.27545986 -0.70728493
1.061407 -0.2690933 -0.70399791
1.0525315 -0.27637768 -0.70403194
1.0698053 -0.27821386 -0.70145154
1.0617845 -0.27917618 -0.70352399
1.0649297 -0.23093289 -0.72043455
1.0590698 -0.2285531 -0.72175759
1.05037 -0.22584964 -0.72201097
1.0812305 -0.23432603 -0.72507817
1.0697849 -0.23425351 -0.71701676
1.0646404 -0.24854949 -0.7169143
1.0583428 -0.24499986 -0.71891594
1.0528877 -0.24559729 -0.71612877
1.0839058 -0.25206763 -0.7195152
1.0773315 -0.25658274 -0.71587235
1.0660892 -0.252527 -0.7184363
1.0570612 -0.25370604 -0.71402204
1.053023 -0.25739306 -0.71614861
1.0658754 -0.2642363 -0.72076619
1.059279 -0.26636446 -0.71921682
1.0519766 -0.26462856 -0.71620053
1.0457906 -0.26469502 -0.72055054
1.0810635 -0.27807435 -0.71276462
1.0720946 -0.27607799 -0.71639764
1.0649723 -0.27455306 -0.71550065
1.0594872 -0.27550051 -0.71572888
1.0789952 -0.27972767 -0.71077538
1.0790524 -0.22833042 -0.73151886
1.0720178 -0.22910455 -0.73280454
1.0683458 -0.23038 -0.73205185
1.0594503 -0.22852659 -0.72971261
1.0515332 -0.22529539 -0.7295326
1.0463011 -0.2281549 -0.729029
1.0653738 -0.24239731 -0.73271072
1.0593122 -0.23592359 -0.7270835
1.0552003 -0.23489931 -0.73323816
1.0464727 -0.24016798 -0.73139673
1.0848693 -0.25289449 -0.73075509
1.0752935 -0.25151366 -0.72753966
1.0661284 -0.24904838 -0.72939461
1.0583488 -0.24718522 -0.72777593
1.0536715 -0.24973354 -0.72847879
1.0781895 -0.25415647 -0.72428179
1.0686932 -0.25381309 -0.72854924
1.0520679 -0.25567704 -0.72950774
1.0461953 -0.2597822 -0.7308042
1.0792997 -0.26820782 -0.72753334
1.0718627 -0.26860771 -0.72908688
1.0652475 -0.26671591 -0.72912973
1.0549639 -0.26348096 -0.72649843
1.0482084 -0.26358825 -0.7295655
1.0716474 -0.2733168 -0.72182512
1.0662278 -0.22539532 -0.74288464
1.0589315 -0.22012317 -0.74454993
1.0482638 -0.22140637 -0.7441774
1.0842115 -0.22998042 -0.74375409
1.0773914 -0.228972 -0.73758537
1.0540023 -0.22769678 -0.7423529
1.0449291 -0.22811714 -0.74310768
1.0771062 -0.24177596 -0.74172705
1.0704135 -0.24052045 -0.73882741
1.0652721 -0.24276406 -0.74336553
1.0571768 -0.240574 -0.73521596
1.055912 -0.23666465 -0.74428731
1.0476068 -0.2395587 -0.73859733
1.0852801 -0.24931067 -0.73977554
1.0775667 -0.24853116 -0.74206096
1.0705975 -0.24952188 -0.74150634
1.0649735 -0.24618863 -0.73668665
1.0612149 -0.24969378 -0.74166596
1.0527693 -0.24790984 -0.7425015
1.0643065 -0.26002932 -0.73752952
1.0589645 -0.25876987 -0.7358622
1.0549669 -0.26080218 -0.73350674
1.0794628 -0.26953119 -0.73742247
1.071717 -0.26872337 -0.7345677
1.0677665 -0.26547691 -0.73370588
1.0616155 -0.26795411 -0.73609221
1.0768278 -0.27408972 -0.73051852
1.0862086 -0.22257546 -0.75160414
1.0767038 -0.22610372 -0.75145382
1.0674272 -0.22185874 -0.74937671
1.0712997 -0.22716506 -0.74830085
1.0568707 -0.231847 -0.75324655
1.052438 -0.23221594 -0.74912518
1.0839921 -0.24326202 -0.75057185
1.0758556 -0.24309811 -0.75372481
1.0653824 -0.23977113 -0.74931258
1.0605187 -0.24119869 -0.75056547
1.0538625 -0.23930895 -0.74479246
1.07854 -0.24688995 -0.74923521
1.0721164 -0.24710228 -0.74599499
1.0640888 -0.25378162 -0.74517798
1.0567853 -0.25231779 -0.75169402
1.0546359 -0.25451186 -0.74474472
1.0856618 -0.26339737 -0.744138
1.0730053 -0.2628186 -0.74826759
1.0660326 -0.2592952 -0.74549615
1.0605754 -0.26048067 -0.74519944
1.0557162 -0.26363865 -0.74275976
1.0534377 -0.21621639 -0.76207238
1.0871927 -0.22563481 -0.76242995
1.0733871 -0.2231994 -0.76159984
1.0681335 -0.22422731 -0.76288378
1.0567325 -0.22017737 -0.76532519
1.0530615 -0.22404765 -0.75697762
1.0834188 -0.23700285 -0.75820291
1.0668535 -0.23314695 -0.75817192
1.0597603 -0.23331279 -0.75996298
1.0441563 -0.23011851 -0.75925934
1.0794005 -0.24069551 -0.76173556
1.07163 -0.24052423 -0.75815725
1.0673838 -0.24519044 -0.75628573
1.059747 -0.24225064 -0.7573061
1.0535868 -0.24043071 -0.75856584
1.0644854 -0.25106928 -0.75514334
1.0579418 -0.25345996 -0.75814384
1.0520598 -0.25019962 -0.7616024
1.0842916 -0.26518986 -0.75540799
1.0782512 -0.25947651 -0.7542128
1.0728682 -0.26379949 -0.75471634
1.0676298 -0.26117793 -0.75420088
1.0608679 -0.25828752 -0.75661033
1.0535874 -0.25796333 -0.75505966
1.0638407 -0.22016191 -0.77137566
1.0597683 -0.21415193 -0.77245557
1.0476587 -0.21914682 -0.77152658
1.0805187 -0.22189975 -0.76973528
1.0741285 -0.22893679 -0.77000737
1.060609 -0.22598165 -0.77136004
1.0806463 -0.23879103 -0.7715683
1.0704035 -0.23403357 -0.77120918
1.0650177 -0.23481485 -0.76799762
1.0815209 -0.24254434 -0.76791114
1.0705018 -0.24117474 -0.76512456
1.0641699 -0.24085905 -0.77106512
1.059801 -0.24598852 -0.76687235
1.0543917 -0.24169704 -0.77076769
1.0788485 -0.25301781 -0.76615888
1.0729982 -0.25323188 -0.76951057
1.0660579 -0.25339013 -0.76358807
1.0900785 -0.26493317 -0.76924086
1.0786943 -0.25994298 -0.76361567
1.0732725 -0.25897449 -0.76703709
1.0654253 -0.25930753 -0.76326531
1.0908005 -0.21797866 -0.78279698
1.0741894 -0.21784236 -0.78106654
1.0661541 -0.22052634 -0.78181374
1.0574555 -0.21294585 -0.78107578
1.0830733 -0.2233882 -0.78439134
1.0747259 -0.22773957 -0.78016198
1.0665741 -0.22872005 -0.78003985
1.0556922 -0.22413167 -0.78140748
1.0809566 -0.23740083 -0.78038532
1.0748794 -0.23850167 -0.77564102
1.068046 -0.23594651 -0.77901912
1.0602539 -0.23423913 -0.78144932
1.0543336 -0.23301661 -0.77446657
1.0492727 -0.24013674 -0.78178447
1.0705625 -0.24361572 -0.77942377
1.0661672 -0.24200726 -0.77400798
1.0602553 -0.24757764 -0.77477932
1.0779185 -0.25495905 -0.77210391
1.0732967 -0.25632551 -0.77366877
1.0641794 -0.25256875 -0.77392846
1.0563059 -0.25715005 -0.77665913
1.0891205 -0.26084852 -0.77339345
1.0697961 -0.25902468 -0.771604
1.0843337 -0.21769579 -0.78801674
1.0713981 -0.21978828 -0.78977931
1.0698698 -0.21643996 -0.79068094
1.0617741 -0.21928838 -0.78744167
1.0794407 -0.22887591 -0.79160291
1.0669022 -0.22960073 -0.78953838
1.0623568 -0.22638425 -0.78772795
1.0550724 -0.22570089 -0.79015726
1.0849694 -0.23634136 -0.78799939
1.0786309 -0.23875333 -0.78921819
1.0739088 -0.23885031 -0.78336042
1.0694875 -0.23742631 -0.78789157
1.0619978 -0.2416074 -0.78431749
1.0851611 -0.24824467 -0.78263474
1.0810914 -0.24810621 -0.78661305
1.0745125 -0.24923509 -0.78279823
1.0519347 -0.24585588 -0.78360796
1.0930833 -0.26055273 -0.78806627
1.0740995 -0.25425556 -0.78524417
1.067366 -0.2561757 -0.78422201
1.0616051 -0.25610918 -0.78249657
1.0559225 -0.20635596 -0.80589485
1.0931548 -0.21694359 -0.79978174
1.0805987 -0.22165883 -0.7989375
1.0723679 -0.22008671 -0.79749483
1.0680478 -0.21937078 -0.80016482
1.0628762 -0.21537416 -0.79560888
1.0530671 -0.21975546 -0.79877555
1.0742823 -0.22849536 -0.79968542
1.0688428 -0.22754437 -0.80251771
1.0574461 -0.2303088 -0.79721862
1.0791121 -0.23706901 -0.79643309
1.0697095 -0.24151851 -0.79804575
1.0589237 -0.24059813 -0.79719847
1.0526893 -0.23845592 -0.79923868
1.0800734 -0.25098929 -0.79602653
1.072578 -0.2494832 -0.79640424
1.0653872 -0.24821952 -0.79667014
1.0604351 -0.24425814 -0.79211438
1.0713856 -0.25269067 -0.79282248
1.0881487 -0.21349183 -0.80629826
1.0741912 -0.21486381 -0.81229424
1.067824 -0.21291596 -0.81450444
1.0496557 -0.21575709 -0.81332636
1.0884109 -0.21968275 -0.813829
1.0802844 -0.21986419 -0.8093164
1.0764656 -0.22489935 -0.81174988
1.0681139 -0.22411633 -0.8062138
1.0627974 -0.22334591 -0.81024677
1.087483 -0.23385313 -0.80526292
1.0804199 -0.23229983 -0.81159383
1.0728998 -0.23145741 -0.80653167
1.0663913 -0.23250487 -0.80812228
1.0740477 -0.24252748 -0.8082335
1.0690492 -0.24016163 -0.8076036
1.0628381 -0.24016017 -0.80776912
1.0772532 -0.24592417 -0.8078863
1.068182 -0.24698026 -0.80530632
1.0819423 -0.20756407 -0.82219607
1.0656915 -0.20858109 -0.82046485
1.0570737 -0.20563725 -0.81592387
1.0755028 -0.21295568 -0.82033402
1.0686756 -0.21438277 -0.81755376
1.0816008 -0.22426136 -0.82085586
1.0719694 -0.22113562 -0.8197735
1.0674024 -0.22643895 -0.82030016
1.0744417 -0.2331683 -0.81567001
1.0718921 -0.24071428 -0.81526029
1.0658777 -0.24026841 -0.81526589
1.0925932 -0.20623314 -0.83097702
1.0780367 -0.20422319 -0.82862079
1.073581 -0.20715526 -0.83160931
1.0805979 -0.21606079 -0.82764703
1.0667906 -0.21502236 -0.82602376
1.0562161 -0.21839941 -0.83120126
1.0994556 -0.22394976 -0.83215392
1.0812187 -0.22062609 -0.82945329
1.0737493 -0.22676805 -0.8285253
1.0673771 -0.22381766 -0.82855546
1.1004035 -0.2311582 -0.82643425
1.0838381 -0.23459955 -0.82250929
1.0729953 -0.23220944 -0.82726598
1.0702237 -0.23136953 -0.82936311
1.0615779 -0.23374221 -0.82462239
1.0868735 -0.24560931 -0.82583547
1.079201 -0.24458352 -0.82290244
1.0752463 -0.24314576 -0.82371092
1.0563134 -0.20013627 -0.8443675
1.1099331 -0.21018675 -0.83890849
1.0931611 -0.2085723 -0.83875155
1.0848999 -0.20325278 -0.84072453
1.0830538 -0.20941454 -0.83858716
1.0750713 -0.20809126 -0.83923084
1.0697322 -0.20388451 -0.84130782
1.0623677 -0.2055876 -0.83650476
1.0902405 -0.21538201 -0.8405183
1.0815853 -0.21941328 -0.8394739
1.0746701 -0.21209982 -0.83852863
1.0654759 -0.21495467 -0.84261119
1.062495 -0.21621644 -0.83771461
1.0884399 -0.22482777 -0.83767253
1.0664158 -0.22386459 -0.83753419
1.0944226 -0.24017109 -0.83948284
1.0814238 -0.23134679 -0.83621073
1.0637449 -0.23752165 -0.83361101
1.0950861 -0.2464335 -0.83534461
1.0896547 -0.24237517 -0.83171344
1.0731306 -0.2427178 -0.83516002
1.0783044 -0.20074919 -0.85424799
1.0761386 -0.19879892 -0.85371327
1.069754 -0.19835261 -0.85275471
1.0899454 -0.20520312 -0.85002238
1.082189 -0.20986696 -0.84550178
1.0719001 -0.21183898 -0.85079306
1.0685154 -0.20516053 -0.85178286
1.0802859 -0.22062378 -0.84884816
1.0748668 -0.21724847 -0.84522629
1.0672283 -0.219358 -0.84447116
1.0640049 -0.21915528 -0.84708393
1.1037235 -0.22507507 -0.84830898
1.0870916 -0.2284987 -0.8461405
1.0801507 -0.22779638 -0.84343958
1.0716637 -0.22387353 -0.84491187
1.0590065 -0.23057534 -0.84692562
1.0944453 -0.2380681 -0.84955692
1.0826606 -0.23637015 -0.84312737
1.0758765 -0.23570901 -0.84350646
1.0705574 -0.23920718 -0.84067237
1.0995938 -0.2008799 -0.86114275
1.08699 -0.1982193 -0.86019909
1.0842297 -0.20158358 -0.85673141
1.0749 -0.19986859 -0.85824978
1.0884356 -0.2098715 -0.85742086
1.0842216 -0.21205577 -0.85689461
1.0751041 -0.21055427 -0.86105698
1.06648 -0.20989829 -0.86274385
1.0640872 -0.20645785 -0.86069828
1.09427 -0.21764317 -0.85648459
1.0830781 -0.21733643 -0.85597712
1.0724342 -0.21900482 -0.86036897
1.0978055 -0.22505413 -0.85302943
1.0900881 -0.23039147 -0.85802698
1.0807735 -0.22501999 -0.85651588
1.0730009 -0.22798708 -0.85413879
1.0679162 -0.22679567 -0.8595053
1.0623215 -0.22878757 -0.85191298
1.0974447 -0.24013954 -0.85707217
1.0892726 -0.23447526 -0.85885048
1.0783669 -0.23310205 -0.8559373
1.0718384 -0.23846309 -0.84982127
1.0682397 -0.23730442 -0.85327178
1.0861524 -0.2020742 -0.87098503
1.0764143 -0.20106593 -0.86694521
1.0687506 -0.20360406 -0.86906135
1.0946046 -0.2114042 -0.87187618
1.0815001 -0.21339166 -0.86930341
1.0742092 -0.21023586 -0.86564922
1.0619875 -0.21046133 -0.86553687
1.1080943 -0.22268337 -0.86328822
1.0829149 -0.22030458 -0.86585057
1.0715446 -0.2201995 -0.86816227
1.0609547 -0.22019398 -0.86993504
1.0863965 -0.23023677 -0.86104321
1.080912 -0.23137486 -0.86256051
1.0753607 -0.23096067 -0.86367863
1.080258 -0.23460175 -0.86648118
1.1034087 -0.19667596 -0.87942427
1.0821874 -0.19409423 -0.88155669
1.0855036 -0.20523785 -0.88222665
1.083515 -0.20551574 -0.8775748
1.0748707 -0.20288959 -0.87821311
1.0710211 -0.20687559 -0.87743753
1.0626955 -0.19806877 -0.87854773
1.0937192 -0.21201852 -0.87495655
1.0908376 -0.21341585 -0.87349415
1.0816636 -0.21163991 -0.87581027
1.0774757 -0.20880628 -0.87854105
1.0810597 -0.22235197 -0.87730867
1.0743288 -0.22313289 -0.87372732
1.0586277 -0.22437213 -0.87480551
1.1004934 -0.23321602 -0.8744362
1.0911261 -0.22669211 -0.87378162
1.074864 -0.22899684 -0.87087697
1.0891193 -0.19392323 -0.88925362
1.0833659 -0.19956902 -0.89228684
1.0718266 -0.19467193 -0.88979894
1.0713021 -0.19542834 -0.88862622
1.0948302 -0.20771946 -0.88962394
1.0891991 -0.20702371 -0.88680547
1.081828 -0.20276096 -0.88642389
1.0977695 -0.21327788 -0.88532996
1.087895 -0.21197921 -0.88446885
1.0761282 -0.21281391 -0.88854325
1.0701498 -0.21677333 -0.8812651
1.0809692 -0.2202557 -0.88584208
1.0734687 -0.22496298 -0.88678014
1.0679826 -0.2213091 -0.88418406
1.0858638 -0.22968999 -0.88193315
1.0763637 -0.22818175 -0.88007724
1.1033098 -0.19182992 -0.9002499
1.0748802 -0.19115637 -0.89997864
1.0906585 -0.1958603 -0.8982442
