# .PCD v0.7 - Point Cloud Data file format
VERSION 0.7
FIELDS x y z
SIZE 4 4 4
TYPE F F F
COUNT 1 1 1
WIDTH 1464
HEIGHT 1
VIEWPOINT 0 0 0 1 0 0 0
POINTS 1464
DATA ascii
0.81350124 0.57349205 -2.7267995
0.77460259 0.57169425 -2.7286084
0.77102828 0.5671165 -2.7323451
0.84680504 0.5653882 -2.7336872
0.83243996 0.56521362 -2.7335689
0.81807482 0.56503904 -2.7334502
0.7419439 0.56330991 -2.7274561
0.8418985 0.55276656 -2.7259791
0.84030908 0.55738598 -2.7271595
0.82809985 0.5529412 -2.7247813
0.82585895 0.55486202 -2.7245133
0.81430113 0.55311584 -2.7235832
0.8131783 0.55625814 -2.72387
0.76889008 0.55722392 -2.7301893
0.85440278 0.5393033 -2.7257359
0.83356929 0.54745132 -2.724978
0.85295558 0.53331816 -2.7223864
0.84701061 0.53009063 -2.7239499
0.82804847 0.53397775 -2.7217035
0.82727206 0.53817534 -2.7224464
0.81424981 0.53415239 -2.7205057
0.80042642 0.53817725 -2.728889
0.83408099 0.52969348 -2.7216837
0.81446195 0.51997244 -2.7278042
0.82799715 0.51501423 -2.718626
0.79611588 0.72781825 -2.7662926
0.78174877 0.72794199 -2.7660537
0.76738161 0.72806585 -2.7658148
0.7530145 0.72818959 -2.7655759
0.80972689 0.70682836 -2.7562573
0.79599214 0.70802236 -2.763479
0.76725787 0.70826995 -2.7630014
0.75289077 0.70839369 -2.7627625
0.79586834 0.68822646 -2.7606654
0.78150123 0.6883502 -2.7604265
0.86492187 0.6713804 -2.7576094
0.85135984 0.67089963 -2.7558486
0.78137743 0.66855419 -2.7576132
0.83872229 0.6482631 -2.7557549
0.7956208 0.64863443 -2.7550383
0.75162601 0.6390357 -2.7486174
0.83859849 0.6284672 -2.7529414
0.795497 0.62883854 -2.7522249
0.75875032 0.62177193 -2.7477217
0.74610698 0.62457246 -2.7503903
0.88375258 0.60231328 -2.7439275
0.85284191 0.60854757 -2.7503667
0.80974042 0.60891891 -2.7496502
0.76596421 0.60427094 -2.7468038
0.82612985 0.59519559 -2.7409461
0.81256795 0.59471476 -2.7391856
0.88426429 0.58455539 -2.7406328
0.85271817 0.58875155 -2.7475531
0.80961663 0.58912289 -2.7468367
0.7898916 0.58771855 -2.7393277
0.8537274 0.57747161 -2.7416222
0.84016538 0.57699084 -2.7398615
0.82660335 0.57651001 -2.7381008
0.81304139 0.57602924 -2.73634
0.77130181 0.57614291 -2.7437882
0.83822715 0.5690794 -2.7445009
0.82385999 0.56920314 -2.744262
0.88132489 0.55974764 -2.7422979
0.82707697 0.55782437 -2.7352555
0.76381248 0.56234396 -2.7365243
0.75623322 0.56030321 -2.7331011
0.82373619 0.54940724 -2.7414484
0.80013311 0.54986691 -2.7377386
0.75850713 0.54753709 -2.7377687
0.8682363 0.54058123 -2.7376921
0.82755047 0.53913891 -2.7324102
0.81398839 0.53865808 -2.7306495
0.8114596 0.53105617 -2.7375495
0.82802391 0.52045333 -2.7295649
0.82721496 0.51488793 -2.7356672
0.81418955 0.51448792 -2.7333841
0.80116409 0.51408786 -2.7311008
0.80662233 0.50028551 -2.7345381
0.7927146 0.50046158 -2.7333305
0.77450442 0.50068939 -2.7339244
0.81470495 0.49659839 -2.7300651
0.80657047 0.48117208 -2.731436
0.76096928 0.70997828 -2.77022
0.82923818 0.69253182 -2.7681332
0.81556737 0.69196343 -2.7664757
0.80189663 0.69139516 -2.764818
0.78965187 0.69398892 -2.7629497
0.78822595 0.69082677 -2.7631605
0.77531433 0.69288087 -2.7655976
0.80242908 0.67260361 -2.7617261
0.78917092 0.6732825 -2.7600603
0.77533937 0.67213416 -2.7623353
0.80296153 0.65381193 -2.7586341
0.79071838 0.65368927 -2.7600965
0.77922088 0.6535455 -2.7569387
0.80349398 0.63502038 -2.7555423
0.79091209 0.63516366 -2.7572005
0.7791692 0.63443184 -2.7538366
0.80693293 0.61496639 -2.7531497
0.79302514 0.61514235 -2.7519424
0.77911735 0.61531848 -2.7507348
0.82463753 0.60433543 -2.7522619
0.81161201 0.60393548 -2.7499785
0.78864372 0.60295725 -2.7567506
0.75319386 0.6072104 -2.7495067
0.74058783 0.61010897 -2.7521634
0.84860462 0.59532475 -2.7536702
0.80572009 0.59664506 -2.7497029
0.79207015 0.59699595 -2.7527022
0.74969673 0.59446621 -2.749558
0.83817846 0.58684599 -2.7512262
0.82515299 0.58644593 -2.7489429
0.87344515 0.5814873 -2.7545538
0.85985053 0.57872391 -2.7514348
0.80510408 0.5769155 -2.7466969
0.74410033 0.58004713 -2.7512302
0.83869392 0.56895649 -2.7479072
0.75295466 0.56472206 -2.7481787
0.74048376 0.56772989 -2.7509439
0.81744748 0.55749148 -2.7444322
0.8062008 0.55874002 -2.7435093
0.85223484 0.551467 -2.7468717
0.82618397 0.55066693 -2.742305
0.78819662 0.55030471 -2.743958
0.74593848 0.5499962 -2.7408454
0.84716862 0.54276735 -2.7450552
0.8186031 0.53983134 -2.7416377
0.80672598 0.53851247 -2.740742
0.7932176 0.53971863 -2.7487926
0.77263713 0.54401147 -2.7441025
0.78248549 0.53533804 -2.7457926
0.75320184 0.53273046 -2.7390125
0.83273906 0.52091968 -2.7399123
0.81941748 0.52021158 -2.7387111
0.80670857 0.52126169 -2.7422543
0.84024042 0.515288 -2.7379506
0.82053024 0.50010943 -2.7357454
0.83137941 0.49897242 -2.7366221
0.82047838 0.48099601 -2.7326434
0.80769747 0.48546299 -2.7411339
0.76879323 0.4857226 -2.7357593
0.75165653 0.74845159 -2.7807066
0.79518276 0.72902 -2.7782421
0.75173372 0.72849202 -2.7778835
0.78077686 0.70888424 -2.7752998
0.76629388 0.70870835 -2.7751801
0.75181079 0.70853221 -2.7750609
0.78085405 0.68892455 -2.7724767
0.76637101 0.68874854 -2.7723575
0.79541415 0.66914093 -2.7697735
0.78093112 0.66896486 -2.769654
0.76770663 0.6570493 -2.7749994
0.76824319 0.63811058 -2.7718832
0.79556847 0.62922156 -2.7641277
0.76877993 0.61917198 -2.7687671
0.80401343 0.6076014 -2.7676432
0.79564565 0.60926175 -2.7613046
0.78309411 0.60080618 -2.7673213
0.76931649 0.6002335 -2.7656507
0.80483431 0.59844744 -2.7583382
0.78330135 0.58498049 -2.761389
0.81817496 0.57195789 -2.7632563
0.81028289 0.56951839 -2.7557786
0.80505204 0.57155478 -2.760956
0.84679073 0.56223959 -2.7579265
0.81907517 0.55760252 -2.7571454
0.89131129 0.55266714 -2.7537212
0.85380918 0.55008686 -2.753314
0.83932608 0.54991078 -2.7531943
0.82484305 0.54973471 -2.7530751
0.76931387 0.54849052 -2.7593856
0.84726793 0.54340881 -2.7550588
0.74998188 0.53650117 -2.7544088
0.85388625 0.53012717 -2.7504909
0.83940327 0.5299511 -2.7503717
0.82492024 0.52977502 -2.750252
0.8104372 0.52959895 -2.7501328
0.84774506 0.52457809 -2.7521915
0.77677435 0.52037126 -2.7476273
0.75731474 0.51902467 -2.7526464
0.82499737 0.50981534 -2.7474294
0.81051433 0.50963932 -2.7473097
0.84822232 0.50574738 -2.7493243
0.83396512 0.5027653 -2.7498658
0.82088763 0.50477827 -2.7457757
0.80712944 0.49946168 -2.747581
0.77106315 0.50540447 -2.7494624
0.81223029 0.48899996 -2.7482262
0.80009156 0.48774755 -2.7502952
0.76557815 0.75308168 -2.7973123
0.75180387 0.7525934 -2.7955241
0.7380296 0.75210518 -2.7937357
0.76605898 0.73410368 -2.7944224
0.75228482 0.73361534 -2.7926342
0.74471092 0.73429227 -2.788038
0.73851055 0.73312712 -2.7908461
0.72473639 0.73263878 -2.789058
0.78804141 0.71395934 -2.785924
0.75276572 0.7146374 -2.7897444
0.74458611 0.71433377 -2.7852015
0.7389915 0.71414906 -2.7879562
0.78041101 0.69549912 -2.782902
0.77343154 0.69412577 -2.7828465
0.76682711 0.69553697 -2.7849371
0.75894642 0.69425058 -2.7826056
0.75324667 0.69565928 -2.7868543
0.7444613 0.6943754 -2.7823648
0.7817241 0.68014944 -2.7814851
0.77330679 0.67416728 -2.7800097
0.76717001 0.67598766 -2.7781153
0.75882167 0.67429209 -2.7797689
0.78175682 0.65867996 -2.784651
0.78156978 0.65907729 -2.7776172
0.77134711 0.65888292 -2.7775884
0.74043429 0.657215 -2.7792866
0.84234327 0.64485699 -2.7812319
0.78766704 0.65408397 -2.7774141
0.77318197 0.65420878 -2.7771733
0.82922041 0.644454 -2.7789314
0.79579854 0.63925624 -2.7752242
0.78194845 0.63976705 -2.7769864
0.76987922 0.6394155 -2.7772174
0.84286261 0.62683374 -2.7778881
0.78754222 0.63412547 -2.7745774
0.77305716 0.63425028 -2.7743366
0.82973975 0.62643069 -2.7755878
0.81661689 0.6260277 -2.7732875
0.81011283 0.62089038 -2.7737787
0.79605192 0.62073731 -2.7728598
0.78263807 0.62023431 -2.7746544
0.7689445 0.62023568 -2.7770832
0.84338194 0.60881048 -2.7745445
0.80190253 0.61404216 -2.7719815
0.78741741 0.61416698 -2.7717407
0.77293235 0.61429179 -2.7714999
0.79687184 0.60137898 -2.7689919
0.78319961 0.6017459 -2.7759817
0.76942539 0.60125756 -2.7741933
0.85702419 0.59119022 -2.7735009
0.81765562 0.5899812 -2.7665999
0.80177778 0.59408379 -2.7691448
0.77955431 0.59277606 -2.7740035
0.74428922 0.59723639 -2.7664084
0.7982918 0.58195305 -2.7666957
0.73873276 0.58267492 -2.7681937
0.85856843 0.57339656 -2.7687142
0.83129781 0.57236081 -2.7655566
0.80165297 0.57412541 -2.7663083
0.78702521 0.57470173 -2.7731986
0.80981338 0.56216466 -2.7657385
0.79853415 0.56285101 -2.7635744
0.73317623 0.56811345 -2.769979
0.88430864 0.55594969 -2.7714143
0.85946858 0.55366778 -2.7644348
0.84498346 0.5537926 -2.764194
0.80152816 0.55416691 -2.7634716
0.74400204 0.55476785 -2.7648263
0.81225938 0.54513609 -2.7613139
0.79841667 0.54530019 -2.7691002
0.756576 0.551651 -2.7621293
0.87382883 0.53358448 -2.7618389
0.85934377 0.53370929 -2.7615981
0.84485865 0.5338341 -2.7613573
0.83037359 0.53395891 -2.7611165
0.80974454 0.54254782 -2.7628179
0.80140334 0.53420842 -2.7606349
0.79907095 0.54293454 -2.7612624
0.78505254 0.54311204 -2.7600453
0.77904415 0.54005313 -2.7613304
0.75086343 0.53718066 -2.7637105
0.86790663 0.52848864 -2.7648797
0.85412908 0.52791595 -2.7632091
0.812796 0.52619755 -2.7581978
0.79804862 0.526191 -2.7643638
0.78519696 0.52918708 -2.7627056
0.77333295 0.52508628 -2.7631652
0.88093185 0.52222216 -2.7643392
0.86668068 0.5223639 -2.7634506
0.85242939 0.5225057 -2.7625623
0.80967563 0.52293098 -2.7598972
0.7990188 0.523669 -2.7581356
0.77985537 0.51742625 -2.7622585
0.74467653 0.52169442 -2.7556531
0.87370408 0.5136261 -2.7590024
0.84473389 0.5138756 -2.7585208
0.8408879 0.50840449 -2.7584226
0.83024883 0.51400042 -2.75828
0.82711035 0.50783169 -2.756752
0.81576371 0.51412523 -2.7580392
0.81333262 0.50725889 -2.7550817
0.80495447 0.50790811 -2.7608156
0.79937845 0.50734413 -2.7633204
0.79131812 0.51114428 -2.7636874
0.73937124 0.50688779 -2.7568972
0.86661172 0.50274706 -2.76053
0.85236049 0.50288886 -2.7596419
0.84649813 0.50067079 -2.7544823
0.82385802 0.50317234 -2.7578652
0.80960679 0.50331408 -2.7569768
0.77785134 0.49772984 -2.7586598
0.8156389 0.49416676 -2.7552025
0.79985929 0.48836613 -2.7604308
0.79891437 0.48513785 -2.7518823
0.74325597 0.75449193 -2.8036315
0.74341148 0.71424162 -2.7979388
0.77277297 0.67434657 -2.7924871
0.74526048 0.68002009 -2.7965207
0.73137391 0.67944276 -2.7948372
0.78745383 0.65439904 -2.7897613
0.74580127 0.66093171 -2.79338
0.73191476 0.66035438 -2.7916963
0.74634224 0.64184344 -2.7902393
0.78753161 0.63427401 -2.7869151
0.76076972 0.62333238 -2.7887821
0.74688315 0.62275505 -2.7870984
0.7876094 0.61414886 -2.7840688
0.77300626 0.61397141 -2.7839484
0.76131052 0.60424399 -2.7856412
0.81004918 0.5935725 -2.7845373
0.80229014 0.59420133 -2.781343
0.78768718 0.59402388 -2.7812228
0.77308404 0.59384632 -2.7811019
0.81122899 0.58374459 -2.7766681
0.79745471 0.58325624 -2.7748797
0.76185143 0.58515561 -2.7825007
0.80236793 0.57407624 -2.7784967
0.86680675 0.56671977 -2.780931
0.81170988 0.56476653 -2.7737782
0.79793566 0.56427824 -2.7719901
0.77627903 0.56664449 -2.7810433
0.75521344 0.56630623 -2.780128
0.81704873 0.55412871 -2.7757709
0.80244571 0.55395126 -2.7756505
0.79787397 0.55684805 -2.7754819
0.79464245 0.55638075 -2.7724373
0.78131407 0.55973506 -2.7750332
0.86728776 0.54774177 -2.7780411
0.79943204 0.54525191 -2.7769113
0.77560294 0.54476821 -2.7768679
0.80252349 0.53382617 -2.7728043
0.79839724 0.5386889 -2.7721131
0.79931533 0.5284431 -2.768137
0.78614432 0.53181237 -2.7709272
0.86101329 0.51441115 -2.7704396
0.84641033 0.51423359 -2.7703195
0.80260128 0.51370108 -2.769958
0.77911234 0.51569092 -2.7695568
0.81315261 0.50783241 -2.7651088
0.79261601 0.51176333 -2.7715333
0.76147413 0.50512958 -2.766454
0.78543663 0.49622875 -2.7648575
0.77443987 0.50231212 -2.7635283
0.86109108 0.49428603 -2.7675934
0.84648806 0.4941085 -2.767473
0.83188504 0.49393106 -2.7673526
0.82740778 0.48934275 -2.7640069
0.79903173 0.49288803 -2.7619936
0.77510309 0.49134576 -2.7641811
0.76902449 0.48719814 -2.7647986
0.75609589 0.49011967 -2.7677152
0.77202022 0.48295924 -2.7602732
0.72959876 0.7571516 -2.8136733
0.73627543 0.74050122 -2.8108926
0.73056823 0.71889538 -2.807848
0.77381635 0.70564735 -2.8062496
0.75902748 0.70273805 -2.8033497
0.74500859 0.70309627 -2.805598
0.73602378 0.70025355 -2.8051722
0.74471962 0.69910842 -2.7996616
0.77374703 0.68587023 -2.8033051
0.75934166 0.68381846 -2.8040185
0.74521625 0.68364382 -2.8026695
0.75914711 0.68059742 -2.7982047
0.77367473 0.66454035 -2.8024387
0.76333457 0.66429549 -2.7985229
0.75954932 0.66436583 -2.8010898
0.74494231 0.66637909 -2.7985694
0.76498222 0.65975434 -2.7999377
0.75968796 0.66150904 -2.7950637
0.82170117 0.64845586 -2.796962
0.80847943 0.64804995 -2.7946444
0.77360815 0.64631605 -2.7974164
0.76328194 0.64487565 -2.7953715
0.75975698 0.64491332 -2.798161
0.76022887 0.64242071 -2.791923
0.74639028 0.64287519 -2.7979996
0.80900264 0.6298908 -2.7912755
0.78790635 0.62639606 -2.7953677
0.77736002 0.62527704 -2.7934465
0.77353877 0.62653905 -2.794472
0.76322937 0.62545592 -2.7922196
0.75996453 0.62546062 -2.7952328
0.80220455 0.60647607 -2.7933187
0.79143816 0.60567832 -2.7915218
0.78783697 0.606619 -2.7924232
0.77346927 0.60676193 -2.7915277
0.79381496 0.59913141 -2.7918429
0.77920985 0.59925723 -2.7916
0.76460475 0.59938306 -2.7913573
0.76124281 0.60511106 -2.7939761
0.74735963 0.60461891 -2.7921741
0.80213517 0.58669895 -2.7903743
0.77561069 0.58647513 -2.792866
0.79138559 0.58625841 -2.7883699
0.78567576 0.58312941 -2.7891073
0.7774111 0.58243316 -2.7864621
0.76310337 0.5826211 -2.7897801
0.87720472 0.55928445 -2.7893879
0.80206567 0.56692183 -2.7874303
0.79016566 0.56722194 -2.782727
0.78769797 0.56706476 -2.7865343
0.7769841 0.56589866 -2.790262
0.76221228 0.56685483 -2.7881508
0.81061423 0.55032969 -2.7854187
0.73684478 0.55486536 -2.7844326
0.80329472 0.54792786 -2.7828779
0.77714962 0.54759765 -2.7808397
0.74756271 0.54162931 -2.7788899
0.73125041 0.54020452 -2.7862298
0.79343748 0.53875995 -2.7832625
0.78277504 0.53635341 -2.7864218
0.86502945 0.52256012 -2.7803326
0.80513406 0.52962244 -2.7781291
0.79238921 0.52916765 -2.7784982
0.76989168 0.52980137 -2.7787027
0.75448757 0.52383161 -2.7778521
0.87510812 0.51342064 -2.783407
0.86122149 0.51284337 -2.7817233
0.80791676 0.51851028 -2.7806451
0.88806331 0.50673318 -2.7839704
0.86555272 0.50440085 -2.7769637
0.84769797 0.50786364 -2.7806702
0.80567491 0.51053405 -2.7749887
0.79130393 0.50951701 -2.7793906
0.77738887 0.51116562 -2.7779801
0.74873614 0.50926256 -2.7794433
0.86176234 0.49375492 -2.7785823
0.85160619 0.49800903 -2.7785134
0.83700109 0.49813485 -2.7782705
0.78178746 0.50050539 -2.780421
0.77448207 0.50227094 -2.7741544
0.84787571 0.49317768 -2.7768989
0.83398902 0.49260041 -2.7752149
0.79152006 0.49024302 -2.7763581
0.76865101 0.48750022 -2.7757678
0.74338984 0.49300578 -2.7706528
0.74952108 0.74052149 -2.8242013
0.73487449 0.72004926 -2.8212097
0.76440299 0.70011401 -2.8185825
0.7496779 0.6999352 -2.8184612
0.72244674 0.70334786 -2.8183465
0.77318716 0.68211579 -2.8074293
0.76448143 0.67982078 -2.8157125
0.74975634 0.67964184 -2.8155911
0.72299188 0.68410748 -2.8151808
0.77928489 0.65970653 -2.8129642
0.72353697 0.66486728 -2.8120148
0.80074745 0.65211117 -2.8129382
0.78742516 0.65170181 -2.8106029
0.77410281 0.65129268 -2.8082678
0.76455981 0.65952754 -2.8128426
0.74983478 0.65934855 -2.812721
0.80127466 0.63381386 -2.8095436
0.78795236 0.63340473 -2.8072083
0.77936333 0.63941336 -2.8100939
0.77463013 0.63299561 -2.8048732
0.80180192 0.61551684 -2.8061492
0.78847957 0.61510754 -2.8038137
0.77515739 0.61469847 -2.8014789
0.76471668 0.61894095 -2.8071022
0.80232918 0.59721953 -2.8027549
0.78900689 0.59681046 -2.8004193
0.77568454 0.59640127 -2.7980843
0.76479512 0.59864771 -2.8042324
0.78949392 0.58696741 -2.7946684
0.75371206 0.58906996 -2.8027458
0.80285639 0.57892239 -2.79936
0.79192889 0.5786128 -2.799315
0.77790529 0.57831895 -2.7980869
0.7648735 0.57835454 -2.8013623
0.78997862 0.56783926 -2.7917554
0.75425726 0.56982964 -2.7995801
0.79223168 0.55931765 -2.7961829
0.72112364 0.56239372 -2.7928162
0.70872414 0.56512487 -2.7954068
0.79578304 0.5495286 -2.792475
0.78234553 0.55246019 -2.7951622
0.77058971 0.55241233 -2.7950602
0.75696182 0.55172849 -2.7956574
0.70311564 0.55090201 -2.7965226
0.79052597 0.54531503 -2.7895393
0.71547794 0.54807615 -2.7939394
0.87424713 0.53253615 -2.7967441
0.78990149 0.53461313 -2.7936451
0.76645046 0.53451645 -2.7942405
0.80443805 0.52403104 -2.7891767
0.75116432 0.5283106 -2.7931349
0.87473184 0.51340801 -2.7938313
0.8271451 0.5122124 -2.7932141
0.80496538 0.50573385 -2.7857821
0.7711128 0.50681198 -2.7896492
0.88298768 0.49861336 -2.7908537
0.80936241 0.49771845 -2.7902465
0.79217041 0.48702767 -2.7800522
0.72102404 0.7622689 -2.8338897
0.70703036 0.76177287 -2.832073
0.72151262 0.74298865 -2.8309538
0.74230188 0.72639787 -2.8315003
0.72200114 0.72370827 -2.828018
0.7367177 0.71189523 -2.8265746
0.72483993 0.70913613 -2.8270218
0.73646367 0.70442688 -2.8234713
0.73664773 0.69195575 -2.8236063
0.75677526 0.68568718 -2.8259771
0.74204808 0.68581402 -2.8257322
0.73697197 0.68564367 -2.8239629
0.75520563 0.66980684 -2.819845
0.73657775 0.67201638 -2.8206375
0.75664842 0.66539514 -2.8230929
0.74192125 0.66552198 -2.8228483
0.73746061 0.66636318 -2.8210268
0.75099331 0.65193272 -2.818572
0.77124864 0.64497626 -2.8204539
0.75652152 0.64510322 -2.820209
0.74179435 0.64523005 -2.8199642
0.73794913 0.64708292 -2.8180909
0.75092328 0.63199329 -2.8156035
0.73973107 0.63614798 -2.8186789
0.7263068 0.63573569 -2.8163261
0.77112174 0.62468421 -2.8175697
0.75509953 0.63065308 -2.8134906
0.75243139 0.6282987 -2.8169715
0.73843765 0.62780255 -2.815155
0.74026239 0.61771077 -2.8152585
0.72683811 0.6172986 -2.8129053
0.78353661 0.61071551 -2.8127868
0.76929158 0.61089581 -2.8115501
0.7653389 0.61190975 -2.8135376
0.75316685 0.60831022 -2.8059118
0.73892629 0.60852218 -2.8122191
0.75421792 0.59968579 -2.8141913
0.80032235 0.58384657 -2.8122914
0.78348351 0.59113872 -2.8096094
0.77975446 0.5918262 -2.8114722
0.75340849 0.58973789 -2.8111
0.79767555 0.57138145 -2.8076692
0.77968442 0.57188678 -2.8085036
0.7682544 0.57041156 -2.8012774
0.75389713 0.57045758 -2.8081641
0.80019546 0.56355453 -2.8094075
0.75591838 0.55818957 -2.8002932
0.7429862 0.56099784 -2.8028238
0.79679394 0.55233514 -2.8015058
0.79410005 0.55180335 -2.8064382
0.78279674 0.55175328 -2.7998087
0.77961439 0.55194736 -2.8055353
0.7685895 0.55142224 -2.8025782
0.76923609 0.54478633 -2.8062828
0.76321715 0.54063058 -2.7988684
0.75581175 0.54437411 -2.8039298
0.75015706 0.5435791 -2.8014393
0.73726404 0.54648638 -2.803962
0.80851567 0.5317198 -2.8043725
0.79733908 0.53309488 -2.7983398
0.79403001 0.53186393 -2.8034694
0.78333312 0.53246045 -2.7983603
0.76886797 0.53239298 -2.8041091
0.75344932 0.53800392 -2.7967227
0.74439579 0.52896851 -2.8025854
0.90303177 0.52208245 -2.8053532
0.79994166 0.52297056 -2.8036394
0.78533924 0.52120638 -2.7978904
0.76976734 0.52634919 -2.8028622
0.75634313 0.52593684 -2.8005092
0.74777752 0.52314019 -2.7985449
0.80844557 0.51178038 -2.8014042
0.79396009 0.51192439 -2.8005011
0.78357923 0.51305187 -2.7951889
0.76073927 0.51954985 -2.7960751
0.74541283 0.51374161 -2.7947266
0.88817775 0.50191736 -2.8022242
0.814542 0.50255179 -2.8010001
0.77813828 0.50478202 -2.795985
0.75502813 0.504583 -2.7979097
0.7421056 0.50827646 -2.8003669
0.8083756 0.49184093 -2.7984357
0.79842937 0.4946143 -2.7920084
0.79389006 0.49198499 -2.7975323
0.78321838 0.49325415 -2.7937236
0.73966134 0.49917263 -2.7963183
0.77225679 0.48986652 -2.7971549
0.76604837 0.65540993 -2.8268058
0.75262415 0.65499771 -2.8244526
0.73919982 0.65458536 -2.8220999
0.76657969 0.63697261 -2.8233855
0.75315541 0.63656032 -2.8210323
0.767111 0.61853528 -2.8199651
0.75368667 0.61812299 -2.8176117
0.76764226 0.60009807 -2.8165443
0.76817352 0.58166087 -2.8131239
0.78212911 0.56363595 -2.8120565
0.76870477 0.5632236 -2.8097034
0.78237301 0.55216944 -2.8088615
0.78445631 0.54204422 -2.8089223
0.70632941 0.53786391 -2.8100019
0.78286159 0.53288913 -2.8059256
0.76703954 0.52708191 -2.8129425
0.73154169 0.53197467 -2.8051004
0.71885318 0.53493953 -2.8075712
0.89586437 0.51792794 -2.8070538
0.79661596 0.5271737 -2.8075688
0.78319168 0.52676141 -2.8052154
0.78037077 0.5239743 -2.8103786
0.86874145 0.51174915 -2.8043211
0.79714715 0.50873643 -2.8041482
0.78356659 0.51530725 -2.8049314
0.78372294 0.50832415 -2.801795
0.7914992 0.49801561 -2.8063588
0.78383875 0.49432832 -2.8000538
0.77491546 0.49296886 -2.8042154
0.76191241 0.49658239 -2.8067572
0.7408846 0.76706398 -2.8507845
0.74096376 0.74659979 -2.8478901
0.71279335 0.74802184 -2.8514252
0.71328586 0.72858709 -2.8484657
0.71361554 0.71810639 -2.8481679
0.74112189 0.70567119 -2.8421016
0.72788405 0.70965254 -2.8473372
0.71377832 0.70915234 -2.8455062
0.72815061 0.69785643 -2.8460853
0.71354502 0.69800186 -2.8451746
0.69893944 0.69814718 -2.8442643
0.74120104 0.68520689 -2.8392076
0.71446407 0.6888361 -2.8358045
0.74695432 0.67541718 -2.8415527
0.74261504 0.657502 -2.8410094
0.74128014 0.66474265 -2.8363132
0.73081207 0.65875804 -2.8408802
0.7280094 0.65764719 -2.8400989
0.76126212 0.6554985 -2.8395967
0.74534124 0.65345061 -2.8355966
0.73110598 0.65324819 -2.8341181
0.71817815 0.65604389 -2.8358562
0.77105755 0.64463919 -2.8336637
0.7562083 0.64445877 -2.8335414
0.74254441 0.63739735 -2.838016
0.74135917 0.64427829 -2.8334188
0.74684733 0.63594365 -2.8351467
0.73248601 0.63612533 -2.8339
0.75628746 0.62399453 -2.8306472
0.76115525 0.61602491 -2.8331902
0.74679393 0.61620677 -2.8319435
0.73243248 0.61638868 -2.8306968
0.75636649 0.60353023 -2.8277528
0.74594611 0.60343504 -2.8329108
0.73241824 0.60301954 -2.8305392
0.7754631 0.59610641 -2.831234
0.76110178 0.59628814 -2.829987
0.74518746 0.59329093 -2.8273416
0.72779775 0.59733343 -2.8311193
0.75644565 0.58306587 -2.8248587
0.74648154 0.58485556 -2.829464
0.73295367 0.58444017 -2.8270924
0.78977102 0.57618785 -2.8292778
0.74570847 0.5738765 -2.824266
0.78622299 0.56296265 -2.8222094
0.77535623 0.55663288 -2.8248277
0.77137381 0.56278217 -2.8220868
0.75669616 0.55971754 -2.8244591
0.74755228 0.54769671 -2.8225701
0.80115122 0.54267883 -2.8194377
0.78630215 0.54249835 -2.819315
0.77530003 0.53646195 -2.8193715
0.76118809 0.5354414 -2.8154075
0.74808758 0.52911717 -2.8191235
0.74435997 0.52782285 -2.8139756
0.80123037 0.52221447 -2.8165433
0.78638119 0.52203405 -2.816421
0.73506004 0.51854718 -2.8189769
0.72226918 0.52162385 -2.8213809
0.8911171 0.51162243 -2.8206203
0.77576274 0.51400113 -2.817173
0.76194429 0.51350015 -2.8151317
0.74801654 0.51542711 -2.8165262
0.80130953 0.50175023 -2.8136492
0.78646028 0.50156975 -2.8135269
0.79050553 0.49782586 -2.8124466
0.77593547 0.49581695 -2.8143089
0.74587566 0.49433133 -2.8152823
0.73383462 0.753111 -2.8580258
0.73370665 0.73264802 -2.8551176
0.73345077 0.69172204 -2.8493009
0.7333228 0.67125905 -2.8463924
0.73319483 0.65079606 -2.8434842
0.76276958 0.63007724 -2.8410695
0.74791819 0.63020515 -2.8408227
0.73306692 0.63033307 -2.8405757
0.76264161 0.60961413 -2.8381612
0.75707942 0.61714745 -2.8359334
0.74779022 0.60974205 -2.8379142
0.77161443 0.5968976 -2.8338509
0.76251364 0.58915102 -2.8352528
0.76000929 0.585271 -2.8318353
0.74766225 0.58927894 -2.835006
0.77154386 0.5767929 -2.8308575
0.79208827 0.56843209 -2.8328383
0.777237 0.56856 -2.8325915
0.74753433 0.56881595 -2.8320975
0.77147329 0.55668831 -2.8278644
0.76003522 0.55517495 -2.8273249
0.7919603 0.5479691 -2.8299301
0.78434312 0.53703165 -2.8267853
0.77140278 0.53658366 -2.8248713
0.76052773 0.53574026 -2.8243651
0.8809399 0.52673841 -2.8285029
0.79183233 0.52750611 -2.8270216
0.77698106 0.52763402 -2.8267748
0.77512598 0.51680559 -2.8232372
0.70964313 0.52465844 -2.8237422
0.88081199 0.50627542 -2.8255947
0.80655569 0.50691521 -2.8243601
0.79170436 0.50704312 -2.8241134
0.78433293 0.51011467 -2.8246849
0.77685314 0.50717103 -2.8238664
0.77084017 0.51333541 -2.8271122
0.74814558 0.51401317 -2.8289852
0.71654683 0.50711232 -2.8225191
0.82262164 0.50357252 -2.8300374
0.80977064 0.50313461 -2.8268838
0.78798449 0.50283122 -2.8222277
0.76495862 0.49841985 -2.8282821
0.71082461 0.49260068 -2.8236575
0.73217875 0.77341688 -2.874891
0.71720344 0.7732349 -2.8747675
0.73225856 0.75277865 -2.8719721
0.71728319 0.75259662 -2.8718486
0.7039448 0.75314862 -2.8722758
0.68972498 0.75264442 -2.8704295
0.73233831 0.73214066 -2.8690534
0.71736294 0.73195845 -2.8689296
0.7034145 0.73266661 -2.8690493
0.69022143 0.73305237 -2.8674464
0.73241812 0.71150249 -2.8661346
0.71846139 0.71255779 -2.8638813
0.73249781 0.69086432 -2.8632154
0.7175225 0.69068229 -2.8630922
0.72406894 0.68128586 -2.8622882
0.72058791 0.67469305 -2.8553181
0.72229064 0.66299224 -2.8599379
0.70865768 0.6625737 -2.857548
0.75014263 0.63677323 -2.8523335
0.73591918 0.63618195 -2.8506091
0.72339571 0.64287841 -2.8561466
0.74771243 0.62913179 -2.8545828
0.73273706 0.62894976 -2.8544593
0.75069654 0.61722207 -2.8491163
0.72336966 0.62554479 -2.8529904
0.74779218 0.60849357 -2.8516638
0.73281682 0.60831165 -2.8515403
0.75281185 0.60132408 -2.8518844
0.73833257 0.60150737 -2.8506274
0.73702717 0.59707963 -2.8441751
0.75275797 0.58142525 -2.848655
0.74787194 0.58785546 -2.8487451
0.76040953 0.57575625 -2.8487639
0.75225413 0.5702107 -2.8473489
0.73758113 0.57752848 -2.8409581
0.7671833 0.56134313 -2.8466825
0.75270408 0.56152642 -2.8454256
0.74795163 0.56721735 -2.8458261
0.76110995 0.55794227 -2.8451307
0.7523585 0.5585686 -2.8394656
0.73813516 0.5579772 -2.8377414
0.77798212 0.54694319 -2.8431544
0.76506817 0.54410267 -2.8432422
0.75291252 0.53901744 -2.8362486
0.73868912 0.53842604 -2.8345242
0.77675939 0.52453011 -2.8406389
0.82192641 0.52125549 -2.8336434
0.7815547 0.5213623 -2.8414807
0.76707554 0.52154553 -2.8402238
0.75366956 0.51675284 -2.8349798
0.73924303 0.51887488 -2.8313072
0.77714956 0.50530398 -2.8373625
0.76316631 0.50548482 -2.8371933
0.7129966 0.51127321 -2.8376613
0.76824373 0.50050634 -2.8315394
0.76702166 0.50164676 -2.8369944
0.75287688 0.50080919 -2.8302689
0.74243438 0.49904642 -2.8308201
0.72509211 0.75963879 -2.8820593
0.71011466 0.75976789 -2.8818104
0.72496307 0.73900187 -2.8791263
0.70998561 0.73913097 -2.8788774
0.69500816 0.73925996 -2.8786283
0.72483402 0.71836495 -2.8761933
0.70985657 0.71849406 -2.8759444
0.70485771 0.72427779 -2.8710506
0.69250458 0.72152364 -2.8729138
0.69005889 0.70415151 -2.8671143
0.73387378 0.69538105 -2.8670177
0.72470498 0.69772816 -2.8732603
0.71965396 0.69487697 -2.8651719
0.73417068 0.68343943 -2.8668504
0.71944302 0.68358594 -2.8659325
0.70471537 0.68373239 -2.8650143
0.73854822 0.68110257 -2.8635454
0.73437023 0.675789 -2.8640347
0.7193718 0.66331321 -2.8629143
0.7046442 0.66345978 -2.8619962
0.73486656 0.65619719 -2.8610513
0.73536313 0.63660526 -2.858068
0.7340284 0.64289403 -2.8608141
0.71930075 0.64304066 -2.8598959
0.74868488 0.62247491 -2.8587141
0.73916626 0.61505175 -2.8617771
0.73395717 0.6226213 -2.857796
0.76334137 0.60205579 -2.8566139
0.74861372 0.6022023 -2.855696
0.73903722 0.59441483 -2.858844
0.78171641 0.58105874 -2.8511693
0.76525378 0.58151257 -2.8517537
0.76886314 0.57351983 -2.8564088
0.76588702 0.57062936 -2.8497388
0.73890817 0.57377791 -2.855911
0.78535712 0.55578911 -2.8526051
0.77139521 0.55563319 -2.8508918
0.75266272 0.55587685 -2.8506036
0.80064929 0.54145133 -2.8510289
0.76312792 0.54123783 -2.8475595
0.77168083 0.53640771 -2.8476088
0.75206524 0.53914994 -2.8449972
0.81429595 0.52407837 -2.8505728
0.80134958 0.52363729 -2.8473959
0.78840333 0.52319616 -2.8442187
0.792512 0.5206722 -2.8463774
0.77778435 0.52081871 -2.8454595
0.76491904 0.52051365 -2.8442008
0.80205005 0.50582325 -2.8437629
0.76847601 0.5116092 -2.8476098
0.75080401 0.50884449 -2.8467703
0.79244089 0.50039953 -2.8433592
0.77960557 0.50076032 -2.8425822
0.76298547 0.50069255 -2.8415232
0.70727432 0.49676159 -2.8387995
0.68012416 0.77761209 -2.8946521
0.68062466 0.75786012 -2.8916445
0.66628873 0.75735182 -2.8897834
0.68112522 0.7381084 -2.8886366
0.71080607 0.71886432 -2.8831799
0.69646657 0.71826828 -2.8814416
0.71136457 0.69915342 -2.8799369
0.69702506 0.69855726 -2.8781979
0.68268549 0.69796121 -2.8764596
0.66834605 0.69736493 -2.8747211
0.68621075 0.68744159 -2.8821201
0.71192312 0.67944264 -2.8766935
0.69758356 0.67884648 -2.8749549
0.68324405 0.67825031 -2.8732166
0.69989103 0.66686618 -2.876864
0.6861515 0.66644424 -2.8744555
0.72682106 0.66032791 -2.8751888
0.71248162 0.65973186 -2.8734503
0.69814205 0.6591357 -2.871712
0.71417433 0.64841795 -2.8757715
0.7004348 0.64799607 -2.873363
0.68669534 0.64757407 -2.8709545
0.72737962 0.64061695 -2.8719459
0.71471816 0.62954772 -2.8722706
0.74227762 0.62150222 -2.870441
0.72900152 0.61109942 -2.8711782
0.71526194 0.61067748 -2.8687696
0.71580565 0.59180731 -2.8652689
0.7522679 0.57901132 -2.8659544
0.74382848 0.57378101 -2.8665848
0.73008895 0.57335895 -2.8641765
0.71634942 0.57293701 -2.861768
0.82584149 0.56014776 -2.861016
0.7529735 0.56106412 -2.8622947
0.73948652 0.56131142 -2.8621569
0.72671181 0.56050801 -2.8584342
0.74437225 0.55491078 -2.8630841
0.73063272 0.55448884 -2.8606758
0.7168932 0.55406678 -2.8582673
0.8265419 0.5423336 -2.857383
0.7667222 0.54356122 -2.861835
0.74050564 0.5436185 -2.8587656
0.72773087 0.54281497 -2.8550432
0.74491596 0.53604054 -2.8595831
0.7311765 0.53561848 -2.8571746
0.71743691 0.5351966 -2.8547664
0.74545968 0.51717031 -2.8560824
0.73172021 0.51674831 -2.8536742
0.76813352 0.50766659 -2.8545146
0.74562865 0.50323713 -2.850982
0.75974303 0.49872202 -2.85499
0.74600351 0.49830005 -2.8525817
0.70821524 0.77968979 -2.8992665
0.69378591 0.77881324 -2.8978276
0.67800814 0.77932262 -2.8990173
0.66290462 0.77913892 -2.8988926
0.7082957 0.75887483 -2.8963225
0.68110061 0.73070073 -2.8933938
0.71029758 0.71937293 -2.8893514
0.70845658 0.7172451 -2.890435
0.69596171 0.71886462 -2.8874903
0.69335306 0.71706152 -2.8903103
0.68102884 0.71025729 -2.8903501
0.71079814 0.69962084 -2.8863435
0.69646221 0.69911265 -2.8844824
0.69580883 0.68966603 -2.8882325
0.69343346 0.69624662 -2.8873665
0.68095708 0.68981385 -2.8873067
0.72563457 0.68037719 -2.8851969
0.71335387 0.68347037 -2.8839955
0.69888639 0.68330866 -2.8824313
0.73882449 0.67598248 -2.8847964
0.72372103 0.67579889 -2.8846719
0.70861745 0.67561531 -2.8845472
0.69573706 0.66922259 -2.8851888
0.72613508 0.66062534 -2.8821893
0.71357703 0.66356266 -2.8808637
0.73890501 0.65516764 -2.8818526
0.72380143 0.65498424 -2.8817279
0.71530038 0.64694464 -2.8781428
0.71051711 0.64863133 -2.8830709
0.69566536 0.64877903 -2.8821452
0.72525871 0.63752127 -2.878983
0.72984535 0.62669623 -2.8761542
0.72529715 0.62804008 -2.8809533
0.7152462 0.62688094 -2.8748865
0.7899859 0.61623931 -2.8828776
0.77694279 0.61579478 -2.8796768
0.74147207 0.6216296 -2.8780351
0.72713614 0.62112147 -2.876174
0.72979099 0.60663247 -2.8728981
0.72522527 0.60759652 -2.8779097
0.71519172 0.60681736 -2.8716304
0.79069155 0.59829187 -2.8792174
0.77764845 0.5978474 -2.8760166
0.77577245 0.59910774 -2.880106
0.74197263 0.60187769 -2.8750272
0.75485712 0.58685762 -2.8767176
0.74433583 0.58638406 -2.8709092
0.74000543 0.58700538 -2.8757918
0.72515363 0.5871532 -2.874866
0.77757287 0.58065748 -2.8745356
0.74247313 0.58212584 -2.8720198
0.75478542 0.566414 -2.8736742
0.73993361 0.56656182 -2.8727484
0.80514592 0.56284165 -2.875098
0.76503581 0.56291831 -2.8696015
0.74362749 0.56434715 -2.8683326
0.7286377 0.56186575 -2.8671508
0.75441074 0.55127692 -2.8672581
0.76605499 0.5452252 -2.8662105
0.75882638 0.54607189 -2.8656645
0.75471359 0.54597056 -2.8706305
0.74347419 0.54262197 -2.8660042
0.73986185 0.54611832 -2.8697045
0.7291382 0.54211378 -2.8641429
0.71930075 0.54530203 -2.8714144
0.76959479 0.53064561 -2.864439
0.76707405 0.52753216 -2.8628194
0.75854135 0.52469331 -2.8636329
0.75464189 0.52552712 -2.8675871
0.78086782 0.51064253 -2.8631508
0.79421961 0.50855541 -2.8609164
0.77314711 0.50413454 -2.8637109
0.75876445 0.50478548 -2.8605008
0.75457084 0.50736535 -2.8629568
0.7010892 0.76640338 -2.9062345
0.68598348 0.76653355 -2.9059834
0.67087775 0.76666361 -2.9057324
0.68585336 0.74571985 -2.9030252
0.67074764 0.74584991 -2.9027741
0.68751478 0.72339767 -2.9031339
0.6730575 0.72279668 -2.9013808
0.65791428 0.72280312 -2.9051936
0.71580446 0.70383245 -2.8976111
0.70069879 0.70396262 -2.8973601
0.73077995 0.68288869 -2.8949041
0.71567428 0.68301886 -2.8946531
0.67418373 0.68305129 -2.8948414
0.73064983 0.6620751 -2.8919458
0.68920398 0.66377974 -2.8933244
0.73051965 0.64126152 -2.8889878
0.71704781 0.64325052 -2.8911483
0.68976718 0.64390701 -2.8900547
0.71416748 0.63442314 -2.8884954
0.70594704 0.6336292 -2.8919296
0.6920988 0.6332038 -2.889502
0.73370183 0.6258375 -2.8920434
0.7192446 0.62523627 -2.8902905
0.70478737 0.6246354 -2.8885374
0.74258488 0.61848336 -2.890795
0.73038954 0.62044805 -2.8860297
0.72806364 0.61740828 -2.8888292
0.71519417 0.6165989 -2.8850789
0.70649517 0.61460966 -2.888401
0.69264692 0.61418426 -2.8859737
0.73426491 0.60596478 -2.8887734
0.71980768 0.60536373 -2.8870206
0.70535058 0.60476267 -2.8852677
0.81677771 0.59918058 -2.8856192
0.80373466 0.59873629 -2.8824182
0.75643736 0.60084844 -2.890332
0.74329579 0.60040081 -2.8871069
0.74195963 0.60039341 -2.889163
0.72967476 0.59960926 -2.8842423
0.70704323 0.59559017 -2.8848724
0.69319504 0.5951649 -2.8824449
0.734828 0.586092 -2.8855038
0.72037089 0.58549106 -2.8837507
0.83052653 0.58167779 -2.8851595
0.81748343 0.58123338 -2.8819587
0.74298626 0.58256924 -2.8857467
0.7301169 0.58175987 -2.8819966
0.7075913 0.57657069 -2.8813441
0.73539114 0.56621945 -2.8822339
0.81818908 0.56328607 -2.8782985
0.74510485 0.55787712 -2.8774061
0.71827412 0.56312633 -2.8748305
0.7081393 0.55755126 -2.8778155
0.75823951 0.54716551 -2.8809662
0.73595423 0.54634678 -2.8789639
0.81889462 0.54533875 -2.8746383
0.7600804 0.53693354 -2.8746991
0.74497473 0.53706366 -2.8744481
0.70868737 0.53853178 -2.8742869
0.77242261 0.52896589 -2.8788059
0.75910836 0.52921194 -2.8774145
0.74610293 0.52858353 -2.8739271
0.73319674 0.52828717 -2.871748
0.73651731 0.526474 -2.8756938
0.72308367 0.51993763 -2.8731856
0.70923543 0.51951218 -2.8707583
0.75997716 0.51125866 -2.8738625
0.74697173 0.51063001 -2.8703749
0.73747993 0.50134331 -2.8720849
0.72363174 0.50091803 -2.8696575
0.70978349 0.50049281 -2.8672297
0.67085397 0.78305769 -2.916167
0.65338516 0.78571916 -2.9238808
0.6991694 0.76527965 -2.9212885
0.68393511 0.7650944 -2.9211628
0.66870075 0.76490915 -2.9210372
0.65346634 0.76472408 -2.9209116
0.69925058 0.74428451 -2.918319
0.67186326 0.74322939 -2.9101024
0.65354747 0.74372888 -2.917942
0.67191535 0.73708171 -2.9170408
0.68545938 0.72346592 -2.9120851
0.67236787 0.72331554 -2.9070699
0.67184299 0.71646452 -2.9139714
0.71464717 0.7024793 -2.9125061
0.68575233 0.70301151 -2.9090843
0.6723215 0.6996243 -2.9074697
0.67716491 0.69332975 -2.904851
0.6624437 0.69351614 -2.9035728
0.69949394 0.68129921 -2.909411
0.68625557 0.68006504 -2.9069777
0.70655245 0.6727258 -2.9041235
0.69183123 0.67291224 -2.9028456
0.67711002 0.67309856 -2.9015675
0.71480948 0.66048908 -2.9065676
0.70278895 0.66459805 -2.9017255
0.70649767 0.65249455 -2.9008403
0.6866039 0.65446389 -2.9056969
0.67162585 0.65461278 -2.904763
0.76564515 0.6376605 -2.9034953
0.71774721 0.64519644 -2.9005697
0.70329356 0.64468396 -2.8986931
0.68883997 0.6441716 -2.8968167
0.70644283 0.6322633 -2.8975568
0.68653148 0.63384676 -2.902627
0.76776975 0.61960775 -2.8986619
0.71825182 0.62528235 -2.8975372
0.70379823 0.62476993 -2.8956606
0.68934458 0.62425768 -2.8937843
0.75476438 0.61897898 -2.8951745
0.740933 0.61821753 -2.8925788
0.73020601 0.61868411 -2.9007547
0.706388 0.61203182 -2.8942733
0.70143712 0.6130805 -2.9004912
0.68645906 0.61322951 -2.8995576
0.76957875 0.60129631 -2.8935568
0.75482899 0.60120285 -2.8929129
0.73321009 0.60588074 -2.8963811
0.7187565 0.60536826 -2.8945048
0.70597464 0.60327917 -2.895503
0.74552155 0.59787405 -2.8979108
0.73577571 0.5914278 -2.8935461
0.73473966 0.59644073 -2.8897276
0.79657257 0.58410913 -2.8963192
0.7337147 0.58596659 -2.8933487
0.72015774 0.58853418 -2.8918703
0.70913929 0.5847742 -2.8946574
0.70480746 0.58494174 -2.8895962
0.74560267 0.57687902 -2.8949418
0.73036832 0.57669377 -2.8948159
0.71513397 0.57650864 -2.89469
0.78262109 0.567173 -2.8935804
0.75688231 0.56555438 -2.8860805
0.73572087 0.57119656 -2.8902626
0.71976578 0.56554019 -2.8884399
0.70971501 0.56578737 -2.8914938
0.7062785 0.5715692 -2.8877065
0.74568379 0.55588388 -2.8919723
0.7304495 0.55569869 -2.8918467
0.78364778 0.54934883 -2.8901644
0.75038731 0.55077875 -2.8882573
0.73566604 0.55096513 -2.8869793
0.72381335 0.54878533 -2.890475
0.71074939 0.54782987 -2.8880522
0.76099926 0.53507394 -2.8891284
0.78467453 0.53152466 -2.8867481
0.75000733 0.52864218 -2.885551
0.73541987 0.5284791 -2.8839736
0.72463953 0.53062654 -2.887574
0.71178371 0.52987242 -2.8846102
0.77283162 0.51289105 -2.8795819
0.75027764 0.51031613 -2.8816905
0.73702198 0.51164949 -2.8833528
0.72551483 0.51253778 -2.8839951
0.7501868 0.50682276 -2.8830957
0.73573321 0.50631046 -2.8812191
0.6614511 0.77343428 -2.9306426
0.66131985 0.75244045 -2.9276588
0.64608335 0.7525717 -2.9274056
0.6916616 0.73118401 -2.9251816
0.6764251 0.73131537 -2.9249284
0.66118854 0.73144662 -2.924675
0.66384256 0.72801137 -2.9234395
0.69153035 0.71019018 -2.9221978
0.66441035 0.70797396 -2.9201427
0.70663559 0.68906522 -2.9194674
0.6913991 0.68919647 -2.9192142
0.66497809 0.68793672 -2.9168456
0.71647477 0.67434776 -2.9159222
0.68196422 0.67568064 -2.9165289
0.66800582 0.67525184 -2.9140823
0.72174084 0.66794014 -2.9167368
0.70650429 0.66807139 -2.9164836
0.68012285 0.66850543 -2.9153161
0.73047465 0.6572057 -2.9162586
0.68251657 0.65650976 -2.9129722
0.70637304 0.64707744 -2.9134998
0.77851462 0.63846993 -2.9072452
0.73150903 0.63924813 -2.9128165
0.68306905 0.63733888 -2.9094157
0.71648741 0.63354874 -2.9044945
0.69867241 0.63136733 -2.9070251
0.77954119 0.6206457 -2.9038291
0.73418921 0.62211651 -2.9085879
0.7212131 0.62380886 -2.9080541
0.70661199 0.61965978 -2.901819
0.71641505 0.61293149 -2.9014249
0.68362147 0.618168 -2.905859
0.7349056 0.6038965 -2.9048722
0.72120786 0.60364062 -2.9038546
0.71634269 0.59231436 -2.8983557
0.80971408 0.58455694 -2.899544
0.74886322 0.5861277 -2.9044056
0.73562193 0.58567661 -2.9011564
0.72238064 0.58522534 -2.897907
0.72164631 0.58456028 -2.8987136
0.71154779 0.5895682 -2.9056633
0.69868469 0.58025503 -2.9011924
0.74957961 0.56790763 -2.9006901
0.73633826 0.5674566 -2.8974404
0.73124826 0.5715481 -2.8962197
0.72669256 0.5701369 -2.9041338
0.71627027 0.57169712 -2.8952861
0.71211553 0.56953084 -2.9023662
0.70584792 0.5631023 -2.9015648
0.69923717 0.56108427 -2.8976359
0.750296 0.54968756 -2.8969743
0.73705465 0.54923654 -2.8937244
0.7311759 0.55093092 -2.8931503
0.72726035 0.55009961 -2.9008367
0.71619791 0.55107993 -2.8922167
0.73618978 0.54184598 -2.8990874
0.69978952 0.54191339 -2.8940794
0.74608147 0.53016478 -2.8910146
0.73777103 0.53101647 -2.8900089
0.73110342 0.53031373 -2.8900809
0.72782809 0.53006232 -2.8975396
0.75129497 0.52072084 -2.8963571
0.70034206 0.52274245 -2.890523
0.74449098 0.51008928 -2.8919778
0.73874927 0.51354575 -2.8887248
0.73103118 0.50969648 -2.8870115
0.72839588 0.51002502 -2.8942428
0.66143483 0.7885989 -2.9380598
0.64686143 0.78808212 -2.9361677
0.66194361 0.76851988 -2.9350021
0.64737028 0.76800311 -2.9331102
0.6624524 0.74844062 -2.9319446
0.66347003 0.70828259 -2.9258294
0.64889669 0.70776606 -2.9239378
0.65312129 0.69950563 -2.9266763
0.67855221 0.68872023 -2.9246638
0.66791135 0.67891592 -2.9246538
0.69363433 0.66915774 -2.9234984
0.75640595 0.65883648 -2.9238145
0.74344033 0.65802109 -2.9200363
0.69668305 0.65854681 -2.9248412
0.68270135 0.65832609 -2.9226317
0.6678561 0.65851402 -2.9213426
0.70984459 0.64968008 -2.915554
0.75744027 0.64087909 -2.920373
0.74447465 0.64006364 -2.916595
0.6971764 0.63929951 -2.9214516
0.68264616 0.63792431 -2.9193206
0.68007863 0.62848318 -2.9154913
0.69766986 0.62005198 -2.9180622
0.69516075 0.60892075 -2.914326
0.77247459 0.60577947 -2.9172673
0.69932365 0.60560656 -2.9158595
0.68635875 0.60608196 -2.9130859
0.67301595 0.6056273 -2.9098117
0.71222609 0.59674478 -2.9152761
0.69738078 0.59693259 -2.9139872
0.77350885 0.58782196 -2.9138258
0.76054323 0.58700651 -2.9100475
0.71305138 0.58740544 -2.9156971
0.69869363 0.58786762 -2.9119251
0.68708056 0.58772242 -2.9093418
0.67373782 0.58726782 -2.9060674
0.72701609 0.57615495 -2.9132538
0.71448779 0.57027209 -2.9121463
0.69732553 0.57653081 -2.9106762
0.68248034 0.57671869 -2.9093871
0.71075177 0.56927937 -2.9101028
0.70108753 0.56915432 -2.9086475
0.68788451 0.56851625 -2.905107
0.7269609 0.55575299 -2.9099429
0.7152096 0.55191267 -2.908402
0.72583395 0.54971695 -2.9089372
0.70196956 0.55092812 -2.9050415
0.7269057 0.53535128 -2.9066315
0.71593142 0.53355312 -2.9046576
0.72634268 0.52963787 -2.9058795
0.70285153 0.53270197 -2.9014359
0.72685033 0.51494944 -2.9033206
0.71693653 0.51511383 -2.90137
0.72685158 0.50955886 -2.9028223
0.7037335 0.5144757 -2.8978295
0.64369017 0.79240274 -2.9492621
0.64377201 0.77122438 -2.9462669
0.68995541 0.75060666 -2.9436519
0.6745882 0.75041991 -2.9435253
0.64385384 0.75004631 -2.9432716
0.66256827 0.74356687 -2.9410732
0.67467004 0.72924161 -2.9405301
0.66249532 0.72277331 -2.9379773
0.67475194 0.70806348 -2.9375348
0.70784074 0.67786992 -2.9330354
0.69477731 0.67704827 -2.929229
0.67745548 0.68103546 -2.9327278
0.65870059 0.67974734 -2.9343057
0.70564997 0.66608047 -2.931798
0.69028282 0.66589379 -2.9316714
0.72194618 0.66059852 -2.9333744
0.70888281 0.65977705 -2.9295681
0.67332762 0.66085505 -2.933187
0.72109902 0.64508915 -2.9289296
0.70573187 0.64490235 -2.9288025
0.709925 0.64168406 -2.9261003
0.67730951 0.63944793 -2.9265361
0.67388445 0.64153087 -2.9296021
0.71232229 0.62535065 -2.9233792
0.67723656 0.61865419 -2.9234405
0.67444134 0.62220645 -2.926017
0.71304411 0.60699123 -2.9196348
0.73662996 0.60291946 -2.9230657
0.72126281 0.60273272 -2.9229391
0.70737594 0.59755993 -2.9222279
0.69066906 0.60051227 -2.9230921
0.67716354 0.59786052 -2.9203446
0.66467983 0.59071481 -2.9242456
0.70597738 0.58136761 -2.9198167
0.72783053 0.57072675 -2.9154208
0.70730293 0.57676619 -2.919132
0.69219673 0.57691652 -2.9181905
0.68845367 0.5728997 -2.9228458
0.67709053 0.57706684 -2.917249
0.72142649 0.56037623 -2.9169486
0.70722997 0.55597252 -2.9160361
0.75224268 0.53957152 -2.914207
0.73687553 0.53938478 -2.9140801
0.72226316 0.53502858 -2.9138825
0.75232452 0.51839334 -2.9112117
0.73695731 0.51820648 -2.9110849
0.7221902 0.51423478 -2.9107866
0.69536471 0.51654601 -2.9151347
0.70592278 0.50712466 -2.9094393
0.63716537 0.79371428 -2.9584212
0.6224702 0.79319346 -2.9565134
0.65185022 0.78031164 -2.9559453
0.6370796 0.77695572 -2.9555137
0.63634837 0.75926727 -2.9526799
0.65288657 0.75374156 -2.9541628
0.63819152 0.75322062 -2.9522548
0.6515854 0.73795789 -2.9499257
0.63621598 0.73809034 -2.9496701
0.65339971 0.73349476 -2.9510796
0.68219173 0.7165162 -2.9474268
0.63921756 0.71272707 -2.9460888
0.68205935 0.69533926 -2.944417
0.66912097 0.69352204 -2.9468215
0.66668993 0.69547158 -2.9441614
0.65442586 0.69300109 -2.9449134
0.68591434 0.68061918 -2.9465806
0.69729626 0.67402989 -2.9416628
0.68432921 0.67379618 -2.945646
0.67109269 0.67545986 -2.9413898
0.66655749 0.67429465 -2.9411516
0.65118814 0.67442709 -2.9408963
0.68696439 0.66238892 -2.9430866
0.67380178 0.66156101 -2.9392512
0.65849835 0.66425455 -2.9447839
0.69716382 0.65285307 -2.938653
0.68550295 0.65363413 -2.9393535
0.67014706 0.65302837 -2.9406552
0.68801439 0.64415848 -2.9395926
0.67485178 0.64333075 -2.9357572
0.65844262 0.64367932 -2.9414446
0.71240085 0.6315437 -2.9358985
0.69703144 0.63167614 -2.9356432
0.68959039 0.62728083 -2.9372449
0.68673617 0.63351405 -2.9328194
0.67628622 0.62663788 -2.9336772
0.67335832 0.62291479 -2.9394054
0.65838689 0.6231041 -2.9381056
0.71226841 0.61036688 -2.9328887
0.70200747 0.61392033 -2.931277
0.6901145 0.60769773 -2.9326046
0.68586838 0.61305547 -2.9363968
0.67330253 0.60233939 -2.9360662
0.74287486 0.58892506 -2.9303899
0.72750545 0.58905745 -2.9301345
0.71213603 0.58918989 -2.929879
0.70257992 0.59371567 -2.9279528
0.69116461 0.58946741 -2.9291105
0.68788111 0.59310448 -2.9261703
0.67800188 0.58863962 -2.9252751
0.6732468 0.58176422 -2.9327269
0.74274242 0.56774831 -2.9273801
0.727373 0.56788069 -2.9271247
0.70315242 0.57351089 -2.924628
0.7015897 0.57308275 -2.9321382
0.68816245 0.56099963 -2.9306872
0.69302589 0.55462879 -2.9232984
0.72724062 0.54670376 -2.9241149
0.71187121 0.5468362 -2.9238594
0.68810672 0.54042435 -2.9273479
0.71899629 0.53371239 -2.9197614
0.69375324 0.53612763 -2.9195254
0.7424776 0.52539444 -2.9213605
0.72710818 0.52552682 -2.9211051
0.70302242 0.51965964 -2.9253087
0.69448066 0.51762652 -2.9157519
0.65307516 0.75018197 -2.9655905
0.65300155 0.72920799 -2.9624681
0.63776445 0.72935963 -2.9615183
0.66816491 0.70808268 -2.9602954
0.65292788 0.70823431 -2.9593453
0.6376909 0.70838583 -2.9583957
0.66809136 0.68710887 -2.9571726
0.65855402 0.68482983 -2.948123
0.65083277 0.68472117 -2.9558659
0.63712525 0.68174243 -2.9526038
0.63507134 0.68389058 -2.9524198
0.66600913 0.66570801 -2.9539144
0.65063173 0.6645261 -2.9521198
0.63563269 0.66440988 -2.9488056
0.67341399 0.6434899 -2.9427445
0.66456205 0.64580047 -2.9501643
0.65037799 0.64536488 -2.9476776
0.7035619 0.6290915 -2.9416904
0.65356296 0.62746668 -2.9459059
0.6883297 0.62272525 -2.9407051
0.67986864 0.60727489 -2.9454222
0.66788447 0.60993087 -2.9462502
0.68827391 0.60215008 -2.9373655
0.69461387 0.58822978 -2.9442945
0.68043 0.58779418 -2.9418082
0.65567917 0.59072679 -2.9388645
0.66976124 0.57602942 -2.9422138
0.69517535 0.56874919 -2.9406805
0.68099135 0.56831354 -2.9381943
0.67000067 0.57319099 -2.9392085
0.71810526 0.56062055 -2.9332869
0.70313388 0.56081009 -2.931987
0.69812363 0.56096292 -2.9403372
0.67049426 0.55738461 -2.9384115
0.71679783 0.55335689 -2.930963
0.69573665 0.5492686 -2.9370666
0.68432218 0.55565512 -2.9395525
0.67105871 0.55482101 -2.9356878
0.71804953 0.54004538 -2.9299479
0.70307815 0.54023492 -2.928648
0.67122728 0.5387398 -2.9346087
0.696298 0.52978796 -2.9334524
0.68538028 0.53728521 -2.9360318
0.68551046 0.52055657 -2.9341314
0.67196041 0.52009487 -2.9308064
0.71799392 0.51947021 -2.9266086
0.68643838 0.5189153 -2.9325111
0.65841025 0.51963317 -2.9274812
0.62834072 0.75860673 -2.9748321
0.61352175 0.7580812 -2.972908
0.65977436 0.73932606 -2.9704912
0.64431441 0.73871201 -2.9711707
0.63012898 0.73809361 -2.966897
0.66035169 0.71895093 -2.9671388
0.64552891 0.71833467 -2.9653416
0.63004088 0.71774513 -2.9660792
0.66092902 0.69857597 -2.9637866
0.64540911 0.69791961 -2.9647088
0.63128358 0.69734353 -2.960192
0.66365218 0.68341058 -2.9603333
0.6615063 0.67820084 -2.960434
0.64522928 0.67746198 -2.9643195
0.64668363 0.67758465 -2.9586368
0.66471028 0.66504073 -2.9568124
0.67690635 0.65844196 -2.9588785
0.66132468 0.6576978 -2.960108
0.64574665 0.65704465 -2.9612105
0.66576838 0.64667082 -2.9532917
0.67748368 0.63806701 -2.9555261
0.66511154 0.63470733 -2.9536753
0.66108304 0.63715231 -2.9600253
0.64626408 0.63662702 -2.9581015
0.66682643 0.62830085 -2.9497707
0.69288373 0.61830819 -2.9539707
0.67806101 0.61769187 -2.9521735
0.66576672 0.61519754 -2.9500976
0.66160047 0.61673498 -2.9569163
0.68114793 0.6107651 -2.9501147
0.67863834 0.5973168 -2.9488211
0.68331122 0.57649112 -2.945539
0.67921561 0.57694173 -2.9454684
0.68326414 0.57402515 -2.9430733
0.72426111 0.55841541 -2.9475076
0.70943844 0.5577991 -2.9457104
0.69758564 0.55648929 -2.9434173
0.69461566 0.55718291 -2.9439132
0.68404436 0.55784637 -2.9417367
0.71165138 0.53863084 -2.9402611
0.69864374 0.53811932 -2.9398966
0.68477744 0.5392015 -2.9379339
0.69519305 0.53680784 -2.9405608
0.72541571 0.51766527 -2.9408026
0.71190321 0.5179565 -2.9370236
0.69577032 0.51643282 -2.9372082
0.64908826 0.71159172 -2.975342
0.63398868 0.71178281 -2.9740312
0.62536383 0.68854898 -2.9733748
0.66004825 0.6779874 -2.9662435
0.62767935 0.68540311 -2.9703956
0.62592977 0.66890925 -2.9697313
