# .PCD v0.7 - Point Cloud Data file format
VERSION 0.7
FIELDS x y z
SIZE 4 4 4
TYPE F F F
COUNT 1 1 1
WIDTH 323
HEIGHT 1
VIEWPOINT 0 0 0 1 0 0 0
POINTS 323
DATA ascii
1.1413939 -0.29389712 0.12646767
1.138075 -0.25115255 0.11325923
1.1546694 -0.29026511 0.1161721
1.149732 -0.27567023 0.1066536
1.1477236 -0.28872865 0.10648261
1.1440847 -0.3133629 0.11603641
1.1389623 -0.31059727 0.1139576
1.143217 -0.3197369 0.11103245
1.1487863 -0.33468986 0.11910699
1.1376482 -0.26664248 0.10142794
1.1626766 -0.27260154 0.095369115
1.1242106 -0.27181414 0.1009295
1.1098644 -0.28641665 0.098218314
1.1336422 -0.29557416 0.10595158
1.1522379 -0.30696529 0.10366201
1.143651 -0.32910311 0.10401393
1.1451496 -0.25579464 0.085597903
1.1756208 -0.26953286 0.08408463
1.1556096 -0.27970442 0.088452816
1.1235429 -0.28427452 0.093907475
1.1465865 -0.2925055 0.094667092
1.1610814 -0.30218327 0.090211242
1.1480738 -0.3032726 0.092824489
1.1349329 -0.30442443 0.096780136
1.1255838 -0.29988906 0.094801843
1.1562742 -0.31664142 0.099649549
1.1450832 -0.32768902 0.1020556
1.1400441 -0.33671895 0.098941401
1.1937147 -0.24426927 0.072856493
1.1658288 -0.2459964 0.079250291
1.1589574 -0.25292563 0.073548958
1.119518 -0.25128585 0.07770849
1.154429 -0.25600889 0.076127365
1.1408583 -0.25813407 0.080404155
1.1430423 -0.27129477 0.07546261
1.1687714 -0.27610362 0.078245632
1.1509002 -0.27999029 0.085285828
1.159531 -0.28943679 0.083382607
1.163471 -0.31787553 0.08540456
1.1242232 -0.31622586 0.082637317
1.1483347 -0.32181096 0.086891256
1.1531013 -0.3336235 0.0875585
1.1342791 -0.33989501 0.087668955
1.146652 -0.24587762 0.063535362
1.1180772 -0.25037786 0.064130656
1.2131391 -0.26141953 0.065072045
1.1885653 -0.26646417 0.072800137
1.1181799 -0.26735416 0.065743908
1.1046129 -0.2700583 0.072830483
1.1724753 -0.28636813 0.072098121
1.1280137 -0.29022273 0.070544191
1.0908514 -0.28428504 0.073263183
1.1531991 -0.29626113 0.076050147
1.1563854 -0.30627206 0.071396098
1.1478835 -0.31827849 0.079054706
1.1380169 -0.31347656 0.07543233
1.1630819 -0.32003343 0.080856353
1.1661586 -0.33052808 0.0761756
1.2214109 -0.238196 0.050703041
1.2030083 -0.23783761 0.059652582
1.1941472 -0.23923905 0.054166667
1.160219 -0.24317349 0.056448795
1.1452496 -0.24604124 0.053029008
1.1574639 -0.24763954 0.055437945
1.1316634 -0.24820957 0.058579832
1.1540055 -0.27137649 0.06438949
1.1854197 -0.28329942 0.060813628
1.141693 -0.28749621 0.063398913
1.1663606 -0.29266036 0.065842964
1.1516107 -0.29308259 0.068383336
1.1656045 -0.30797789 0.061022349
1.1500469 -0.31097013 0.061623238
1.1763575 -0.31640142 0.070560783
1.1606504 -0.33673352 0.068346277
1.1469129 -0.3343544 0.067017019
1.146433 -0.33557045 0.070704564
1.1326448 -0.33772972 0.075049907
1.2596979 -0.23705645 0.048052482
1.2160624 -0.24611795 0.050328083
1.1843923 -0.24342249 0.046951488
1.1723788 -0.24256837 0.047494773
1.1593524 -0.24337178 0.047083601
1.1883768 -0.25660247 0.044991489
1.2189808 -0.26146823 0.050642163
1.1696168 -0.26577157 0.051131044
1.1453139 -0.26194587 0.051570777
1.1307162 -0.26389846 0.046831898
1.2328279 -0.27052215 0.04978966
1.1171298 -0.26606676 0.052382726
1.2255759 -0.28019285 0.050357919
1.1795222 -0.28905955 0.055635773
1.1535823 -0.28674409 0.052651614
1.1693298 -0.30320337 0.060111605
1.1506481 -0.30902758 0.056443661
1.1896331 -0.31276941 0.060265198
1.1504501 -0.32706404 0.056062818
1.1366564 -0.32981333 0.063267812
1.173926 -0.33310154 0.058050696
1.2235383 -0.23303215 0.030657142
1.1945796 -0.23420881 0.035476845
1.1860083 -0.23953636 0.036376536
1.1728089 -0.23933047 0.036653753
1.2384481 -0.24897841 0.034981355
1.199025 -0.25062484 0.034146503
1.2349366 -0.2616303 0.041614439
1.170508 -0.26077804 0.039548956
1.1579379 -0.26056337 0.041335553
1.1443024 -0.26173016 0.041281074
1.1439756 -0.27801418 0.039606199
1.1822742 -0.30013469 0.048827119
1.1661843 -0.32003865 0.048125096
1.1872016 -0.32946956 0.047755115
1.1642438 -0.32431471 0.04885783
1.1496201 -0.32646003 0.04979194
1.1757985 -0.23145342 0.025892278
1.2593495 -0.23232497 0.029313639
1.2422612 -0.23334804 0.021373846
1.2116333 -0.23467526 0.02587289
1.1995947 -0.23736806 0.030825712
1.1864774 -0.23551354 0.026661286
1.2533364 -0.24930766 0.025500232
1.2183614 -0.24622366 0.02742048
1.2529392 -0.25730991 0.026577484
1.2237241 -0.25734392 0.029853627
1.1957167 -0.25863111 0.03088998
1.1855379 -0.25452939 0.027469844
1.1714748 -0.25739357 0.030179432
1.2324822 -0.26582783 0.031197872
1.2277215 -0.27498478 0.030140381
1.2134705 -0.27352232 0.027015656
1.1973579 -0.27692112 0.027801208
1.1852583 -0.27329317 0.033107888
1.1802766 -0.27861756 0.028713137
1.1700881 -0.27602509 0.027903192
1.1570833 -0.27672184 0.032333028
1.143355 -0.27741903 0.029533144
1.1952186 -0.29706603 0.037542626
1.1902732 -0.30201548 0.033025917
1.1803002 -0.29786128 0.032360151
1.1677024 -0.29824451 0.037044663
1.1667295 -0.29998651 0.036636945
1.1532463 -0.30100822 0.037530035
1.2131816 -0.31662154 0.038906917
1.178053 -0.31957287 0.039005443
1.1634934 -0.32276887 0.03886256
1.2004771 -0.32583755 0.037459534
1.1496853 -0.32497257 0.044503983
1.2744957 -0.23251538 0.019695606
1.2613542 -0.23368467 0.011959948
1.2262882 -0.23355648 0.018512286
1.2140434 -0.25051776 0.022616282
1.1882269 -0.24692659 0.017699979
1.1867895 -0.2503655 0.015148698
1.1610148 -0.25007296 0.021053985
1.2353796 -0.2564781 0.022471469
1.1986475 -0.25305694 0.019077782
1.1719342 -0.25403297 0.021909487
1.1980916 -0.2702508 0.021920286
1.1837722 -0.26894951 0.022347705
1.2466885 -0.275682 0.020802399
1.2293816 -0.2737819 0.017796842
1.2227693 -0.27315971 0.01801068
1.1933266 -0.27504733 0.018592604
1.1708187 -0.27284417 0.021932283
1.1569413 -0.27525073 0.023982322
1.2265164 -0.28267723 0.027414395
1.1770118 -0.2848914 0.021784933
1.2215244 -0.29319915 0.024414882
1.2081629 -0.29399732 0.026258145
1.2054777 -0.29455099 0.022598632
1.1807258 -0.29553306 0.022954891
1.1670296 -0.29771885 0.028550608
1.2506032 -0.30575585 0.023208562
1.2205504 -0.29952663 0.02363091
1.192073 -0.31390125 0.025556121
1.1663533 -0.31444591 0.024980968
1.1527356 -0.3174794 0.029175861
1.2807515 -0.23401771 0.0023632534
1.2418205 -0.23402208 0.0080031231
1.2116287 -0.22871001 0.0065479474
1.2540456 -0.24831648 0.006473125
1.1879278 -0.24470878 0.006996253
1.2516257 -0.25660968 0.013156941
1.2321366 -0.26113349 0.012606085
1.2623739 -0.26675105 0.012008093
1.2109247 -0.26720849 0.010732686
1.1977001 -0.26874587 0.0073298514
1.1841139 -0.27091417 0.012880672
1.1730131 -0.26758635 0.0078036087
1.2413104 -0.28327304 0.017873419
1.1831323 -0.28916356 0.012014197
1.1697713 -0.28867421 0.013468493
1.2233839 -0.29108569 0.013122208
1.2015709 -0.30785224 0.017741412
1.2145846 -0.31637609 0.01984743
1.2050173 -0.31083253 0.01427163
1.1798769 -0.31322891 0.020622274
1.1660748 -0.31353468 0.016707662
1.2894984 -0.22789131 -0.0091346987
1.2586524 -0.22286204 -0.0081640463
1.2245686 -0.22516984 -0.0034873234
1.1864243 -0.22596003 0.00036872737
1.2092587 -0.24498788 -0.0056458302
1.2348664 -0.24792039 0.00052838773
1.1963187 -0.24852805 0.0043894397
1.2488526 -0.27042884 0.00040977728
1.2298245 -0.26862967 -0.0013461299
1.1863726 -0.2654942 0.0035933098
1.2409618 -0.27854156 -0.00086542405
1.2236699 -0.28799105 0.0041973423
1.1832525 -0.28628656 0.0037573334
1.2596527 -0.29491359 0.0054573715
1.250252 -0.30098674 0.0043205786
1.2176739 -0.30807671 0.0057173651
1.1989603 -0.30527094 0.0079495655
1.2292842 -0.31723839 0.010246607
1.2010242 -0.31497145 0.010416063
1.1797708 -0.31134877 0.011111941
1.3342957 -0.22087356 -0.016296787
1.2422633 -0.22886987 -0.011139847
1.189774 -0.23571189 -0.015991332
1.2526395 -0.23984474 -0.011977453
1.1939486 -0.26480588 -0.007804336
1.1866006 -0.26064619 -0.0048709065
1.268141 -0.27108228 -0.0092876442
1.2103391 -0.28226647 -0.0099689029
1.185956 -0.28062287 -0.0079620779
1.2238268 -0.28593349 -0.0060207583
1.2058963 -0.28589624 -0.0024881084
1.1967528 -0.28443474 -0.0044180807
1.1961764 -0.30230203 -0.0038747974
1.182 -0.30203834 -0.0055826548
1.2174729 -0.30620539 -0.0015281588
1.1827123 -0.30441058 0.00036843121
1.1684332 -0.30474249 0.0015039146
1.2533474 -0.31344587 -0.00036807545
1.2441912 -0.31810459 0.00047682598
1.2891445 -0.223084 -0.028173892
1.3124126 -0.23299825 -0.02803581
1.2006863 -0.23441747 -0.020143572
1.2362654 -0.24617369 -0.015814476
1.2466265 -0.25682744 -0.015790856
1.2302675 -0.26347747 -0.020489104
1.2068884 -0.26126575 -0.017839601
1.2406136 -0.27381012 -0.019604264
1.2711701 -0.27965596 -0.020758286
1.1852733 -0.27658364 -0.016738068
1.2618357 -0.28961459 -0.015113093
1.2499008 -0.29621762 -0.014567394
1.2178289 -0.30323732 -0.010695392
1.1958055 -0.30012366 -0.016166013
1.1822193 -0.30229199 -0.010615185
1.2309062 -0.30469519 -0.0082973428
1.3331345 -0.21596774 -0.034893915
1.2750859 -0.22866449 -0.030505918
1.2427063 -0.22371767 -0.030282816
1.2522911 -0.23511326 -0.030716294
1.2133034 -0.23142639 -0.031142743
1.3063383 -0.24984954 -0.031480312
1.1976204 -0.25082707 -0.031827021
1.2464719 -0.26366624 -0.030154519
1.2242697 -0.2807813 -0.025163731
1.2650608 -0.29691082 -0.024632817
1.3270122 -0.23295231 -0.038365662
1.2211777 -0.23591389 -0.044304758
1.3208901 -0.24993686 -0.041837413
1.2689894 -0.24625283 -0.035257418
1.246278 -0.25209597 -0.034529701
1.3002641 -0.26670083 -0.034924813
1.2628928 -0.26384118 -0.040008914
1.1871409 -0.26732853 -0.039533366
1.2708162 -0.27484867 -0.03979747
1.2045186 -0.27754363 -0.030033376
1.2941898 -0.28355211 -0.03836932
1.2729993 -0.28703821 -0.035189867
1.2404251 -0.28111139 -0.034867328
1.2804996 -0.29762724 -0.034841556
1.1974025 -0.28983903 -0.035634093
1.1839458 -0.29252109 -0.028605228
1.2182717 -0.29808512 -0.029838361
1.1892083 -0.2973617 -0.032191887
1.2077961 -0.31269836 -0.031720366
1.1851224 -0.3108803 -0.031072855
1.3319733 -0.21106189 -0.053491049
1.273091 -0.21343888 -0.055856295
1.2755361 -0.22342756 -0.049963672
1.3258511 -0.22804649 -0.056962796
1.2519428 -0.2303818 -0.04945514
1.2857472 -0.24628979 -0.045227095
1.2459296 -0.24736449 -0.053268537
1.3147677 -0.26692146 -0.045309167
1.2796003 -0.26402387 -0.050017953
1.1945546 -0.26723665 -0.043510459
1.3086455 -0.28390604 -0.048780911
1.2021484 -0.29382151 -0.04222716
1.2668523 -0.30477229 -0.039980724
1.2343783 -0.29855654 -0.039580144
1.1826186 -0.3084586 -0.040472388
1.2884364 -0.2134694 -0.066252269
1.2923481 -0.22327542 -0.060055185
1.2670301 -0.23055673 -0.059700057
1.3027925 -0.24632978 -0.055359047
1.2704623 -0.27004138 -0.058836661
1.2734532 -0.28175795 -0.054808814
1.2728405 -0.29511213 -0.049818188
1.3025231 -0.30089062 -0.052252658
1.3308122 -0.20615608 -0.072088175
1.3040341 -0.24011488 -0.068382688
1.260969 -0.24767458 -0.063543804
1.3136065 -0.26201564 -0.06390629
1.2859447 -0.27054045 -0.069322042
1.3074843 -0.27900022 -0.067378044
1.2643527 -0.28729627 -0.062711187
1.2673062 -0.29949194 -0.059599675
1.3456467 -0.20588754 -0.082865447
1.2880825 -0.20866209 -0.08529146
1.3089564 -0.21839626 -0.083389372
1.2928022 -0.21799514 -0.07967414
1.2797859 -0.2879349 -0.073227912
1.301362 -0.29598475 -0.070849784
1.3606857 -0.2056051 -0.093831658
1.3037076 -0.20866475 -0.095990799
1.3235288 -0.21823481 -0.094157055
