# .PCD v0.7 - Point Cloud Data file format
VERSION 0.7
FIELDS x y z
SIZE 4 4 4
TYPE F F F
COUNT 1 1 1
WIDTH 142
HEIGHT 1
VIEWPOINT 0 0 0 1 0 0 0
POINTS 142
DATA ascii
0.70370519 -0.1274462 0.57917029
0.71616805 -0.063305698 0.56533879
0.71960843 -0.10192875 0.56557244
0.69900358 -0.14259933 0.57232392
0.72291899 -0.062246151 0.5502584
0.72320485 -0.080396108 0.54949206
0.73028636 -0.099260263 0.55846369
0.71470898 -0.11700562 0.55953014
0.70784354 -0.12563859 0.56498426
0.72891551 -0.10303488 0.54335797
0.72913903 -0.11282691 0.54597992
0.72906631 -0.11865036 0.54633826
0.69901609 -0.11896979 0.54869837
0.69994712 -0.13484639 0.5482443
0.6970973 -0.14095798 0.55658418
0.73049849 -0.056744941 0.53472179
0.72247821 -0.078245185 0.53803825
0.70945549 -0.073911704 0.53336614
0.70219254 -0.10134156 0.54108834
0.71477544 -0.11787592 0.53907341
0.71335256 -0.13083167 0.54264116
0.69434863 -0.1340128 0.54190177
0.71379793 -0.13741057 0.53982782
0.74363804 -0.052938871 0.52050155
0.72951984 -0.072953992 0.52258432
0.73626292 -0.088306233 0.52991289
0.71437037 -0.08841373 0.52375811
0.73664635 -0.095674247 0.52740288
0.70408678 -0.11467565 0.53271836
0.69921154 -0.11366566 0.53320432
0.70257264 -0.11987604 0.53285855
0.74205965 -0.086799666 0.51906049
0.70892328 -0.089438453 0.52185214
0.73514378 -0.10773462 0.51849002
0.70385718 -0.11208251 0.5177452
0.67170149 -0.11534943 0.52156729
0.67841762 -0.12687562 0.52745867
0.69193614 -0.13394746 0.52434111
0.72518635 -0.047929049 0.50022668
0.7222997 -0.050297372 0.5043034
0.71155041 -0.048350662 0.50257069
0.7432009 -0.068807639 0.50838089
0.7147373 -0.08906547 0.50509274
0.69855392 -0.092690594 0.51074564
0.74173844 -0.10214904 0.50728846
0.71869707 -0.10163999 0.50616813
0.73750317 -0.11132587 0.51160502
0.7140491 -0.1037631 0.51198608
0.70839101 -0.10496522 0.51033819
0.72414064 -0.1124529 0.5122605
0.71304768 -0.11687956 0.51263976
0.71999609 -0.1265794 0.51278222
0.69949055 -0.12738389 0.51014376
0.68978101 -0.12555888 0.51194781
0.68389779 -0.12759504 0.51128054
0.6712395 -0.12829185 0.51172757
0.65834939 -0.12234062 0.5096091
0.72186607 -0.066037573 0.4922809
0.71102643 -0.06363602 0.49123567
0.74276376 -0.08467643 0.4962602
0.72593296 -0.079928264 0.49522036
0.7121436 -0.08125554 0.4980264
0.74649519 -0.098964311 0.50051141
0.72030437 -0.10804781 0.49682873
0.7068311 -0.10857181 0.49814534
0.69335777 -0.1090958 0.49946198
0.67988449 -0.1096198 0.50077862
0.73354179 -0.12097984 0.50558388
0.71372795 -0.11911248 0.50021398
0.69066024 -0.11972442 0.49987045
0.68603867 -0.12072656 0.50491148
0.67676115 -0.12106225 0.50269884
0.66630512 -0.12177683 0.50596726
0.6704371 -0.13054189 0.50911158
0.7297945 -0.098897748 0.48571149
0.71430016 -0.10493426 0.49297205
0.67907494 -0.11073443 0.49522516
0.70455933 -0.11838654 0.49704212
0.65289158 -0.12535979 0.4917416
0.71518642 -0.077698551 0.48173204
0.72143245 -0.081777804 0.48025846
0.71050251 -0.078921407 0.47990066
0.72569609 -0.095215298 0.48336044
0.74232656 -0.10054521 0.48413956
0.69352937 -0.11466469 0.48268306
0.688039 -0.11557741 0.48137486
0.67429644 -0.11600234 0.4837372
0.73269957 -0.12061027 0.48098144
0.72658378 -0.12158113 0.48617211
0.67983812 -0.12431177 0.48910838
0.65651268 -0.11713876 0.48553056
0.72099882 -0.097518042 0.46823594
0.71487027 -0.09280929 0.47014299
0.70997858 -0.094206758 0.46856567
0.66101032 -0.10682304 0.47716004
0.71166998 -0.11182962 0.47430649
0.66496634 -0.12196524 0.47373542
0.66573864 -0.131495 0.47566411
0.66002589 -0.13183218 0.47467586
0.65200263 -0.1322957 0.47799447
0.71455401 -0.10792003 0.458554
0.73282266 -0.11386406 0.46001521
0.7146371 -0.11751573 0.46610433
0.70126617 -0.11803576 0.46741092
0.69276583 -0.11761174 0.46497446
0.68790877 -0.11884534 0.4643141
0.68789524 -0.11855578 0.46871755
0.67886609 -0.11978848 0.46935493
0.67474627 -0.11995552 0.46495968
0.66158378 -0.12106571 0.46560529
0.73446488 -0.11108151 0.45183301
0.71865737 -0.10536648 0.45189294
0.70911044 -0.11160049 0.44470325
0.69959539 -0.11016196 0.44069505
0.689942 -0.10475059 0.44041717
0.63581914 -0.10642409 0.44972092
0.64378655 -0.11711018 0.44790721
0.69106019 -0.12316731 0.44569406
0.67954248 -0.12533551 0.44787014
0.67623854 -0.12371902 0.4466162
0.64272034 -0.12553267 0.44748402
0.71338362 -0.10800268 0.43634975
0.66731286 -0.1202103 0.43474999
0.66236067 -0.12075489 0.43382141
0.64761084 -0.12613133 0.44162363
0.67856115 -0.12064396 0.42898607
0.6758914 -0.1203365 0.43149549
0.71100581 -0.098832607 0.41692376
0.69757855 -0.099247798 0.41923189
0.70100081 -0.11548981 0.41373596
0.67332608 -0.11490231 0.4157649
0.6862061 -0.10284886 0.40946659
0.7016269 -0.11273557 0.40904784
0.69170487 -0.11159123 0.40485084
0.68820614 -0.1135179 0.41132477
0.68363547 -0.1147144 0.41037849
0.70458502 -0.10876394 0.38728535
0.69869578 -0.10528676 0.38351581
0.69125986 -0.10917597 0.38957593
0.68096405 -0.11195961 0.38174129
0.66916901 -0.11293466 0.38132152
0.68773073 -0.10659747 0.36388853
