# .PCD v0.7 - Point Cloud Data file format
VERSION 0.7
FIELDS x y z
SIZE 4 4 4
TYPE F F F
COUNT 1 1 1
WIDTH 1413
HEIGHT 1
VIEWPOINT 0 0 0 1 0 0 0
POINTS 1413
DATA ascii
1.0529239 -0.15869053 -0.50772387
1.0371422 -0.16058519 -0.50566006
1.0628383 -0.17179489 -0.49861592
1.0544946 -0.17117368 -0.49938247
1.0503731 -0.1719214 -0.50226682
1.0422537 -0.1665417 -0.50481433
1.0367337 -0.16964489 -0.50352776
1.06394 -0.18143474 -0.50593847
1.0578427 -0.17403907 -0.506293
1.0392439 -0.17366648 -0.50294119
1.0637357 -0.18333408 -0.4966872
1.0486578 -0.18545316 -0.50503123
1.0418251 -0.18866444 -0.49944842
1.028047 -0.19050373 -0.49940985
1.0505493 -0.19575089 -0.49991474
1.0461349 -0.19407816 -0.49884385
1.0380255 -0.19673613 -0.50009483
1.0561907 -0.13383341 -0.51698965
1.0507382 -0.13000169 -0.51831931
1.0442165 -0.13178521 -0.52056611
1.0370525 -0.12929212 -0.52009565
1.0304923 -0.13211857 -0.51662076
1.0678922 -0.14147073 -0.51219958
1.0494241 -0.1442917 -0.51658672
1.0431045 -0.13982421 -0.51211894
1.0365472 -0.13770457 -0.51737249
1.0237857 -0.1462597 -0.5184077
1.0530522 -0.14797345 -0.51658797
1.0433328 -0.15143675 -0.51788592
1.0385067 -0.15062737 -0.51505983
1.0504955 -0.1592868 -0.51270628
1.0334255 -0.16460267 -0.51656616
1.0625176 -0.16744158 -0.51585722
1.0440063 -0.17004326 -0.50865006
1.0607036 -0.1749385 -0.51114345
1.05889 -0.18238011 -0.51394582
1.0469364 -0.17696363 -0.50633872
1.0432119 -0.18248822 -0.50624144
1.0536913 -0.18974061 -0.5074603
1.0489119 -0.18781804 -0.50477761
1.0455477 -0.18701977 -0.50814098
1.0338954 -0.18795335 -0.50506538
1.0490564 -0.19993395 -0.50495517
1.039245 -0.19876891 -0.51016897
1.0285467 -0.20224026 -0.50718963
1.0576131 -0.12678345 -0.530662
1.0463771 -0.12273582 -0.529167
1.0342534 -0.12594773 -0.52805638
1.0625694 -0.13306955 -0.52253956
1.0558538 -0.132725 -0.53020918
1.0432515 -0.133123 -0.5277676
1.0614252 -0.14059934 -0.52184117
1.0468982 -0.14692661 -0.52192914
1.0420604 -0.14378434 -0.52484047
1.0322107 -0.14307535 -0.52328831
1.0256679 -0.14410004 -0.52638173
1.0624609 -0.15321513 -0.52493906
1.0570697 -0.14938885 -0.52520907
1.0521312 -0.14918935 -0.52148461
1.0396795 -0.14904179 -0.52822369
1.0476338 -0.16294912 -0.52156597
1.0440465 -0.1605821 -0.52475458
1.0377318 -0.16422234 -0.52059883
1.0278476 -0.15746859 -0.52319604
1.0221967 -0.16467655 -0.51766777
1.064873 -0.16954969 -0.52212304
1.0574293 -0.16960582 -0.51972347
1.0501957 -0.17025119 -0.51963383
1.0352777 -0.17205498 -0.52009118
1.0710853 -0.17655158 -0.52155173
1.0569854 -0.18306702 -0.51936585
1.0507792 -0.18278646 -0.523103
1.042181 -0.17813262 -0.5227527
1.0300881 -0.18124443 -0.51927221
1.0553399 -0.19144383 -0.51775819
1.0501999 -0.19153002 -0.51495141
1.0458556 -0.18993938 -0.51600057
1.039119 -0.18487503 -0.5188818
1.0284374 -0.18826576 -0.52299231
1.0567727 -0.19760856 -0.51839185
1.0467459 -0.20118943 -0.51485288
1.0350231 -0.19888559 -0.51751494
1.0559498 -0.12499942 -0.53611302
1.0483801 -0.12510499 -0.53479689
1.0441895 -0.1233615 -0.538665
1.0398402 -0.12404852 -0.53949356
1.0291362 -0.12382662 -0.53493261
1.0492224 -0.13244091 -0.54039246
1.0428367 -0.13689804 -0.53867632
1.0282978 -0.13847038 -0.53228474
1.0233316 -0.13041408 -0.5358066
1.064211 -0.14731547 -0.53367275
1.0522622 -0.14321816 -0.53623146
1.0444828 -0.1459938 -0.53669822
1.0358793 -0.14694956 -0.52981621
1.0291845 -0.1478814 -0.53478771
1.07034 -0.15177014 -0.53650659
1.0568547 -0.15661432 -0.52979714
1.0502459 -0.14978635 -0.53010458
1.0465856 -0.15869744 -0.53618163
1.0231702 -0.15746796 -0.53589952
1.056672 -0.16377056 -0.53003794
1.0416385 -0.16427362 -0.52857286
1.0351174 -0.16558167 -0.53375459
1.0265641 -0.15974861 -0.52968055
1.0654942 -0.17063144 -0.52898687
1.0571467 -0.1850543 -0.52777195
1.0496345 -0.18160728 -0.52985317
1.0425718 -0.18054478 -0.53300899
1.0361626 -0.17791107 -0.53031057
1.0196817 -0.17813724 -0.52725166
1.0664068 -0.1918136 -0.53043288
1.0559263 -0.18920186 -0.52947736
1.045573 -0.18894726 -0.52713317
1.0367454 -0.19321221 -0.52583504
1.0314103 -0.19240475 -0.53160495
1.0264837 -0.19819787 -0.52259636
1.0628732 -0.12057824 -0.55170262
1.0599613 -0.12230559 -0.55210978
1.057175 -0.12639159 -0.54650873
1.0503039 -0.1286429 -0.54535884
1.0421937 -0.12612779 -0.54701817
1.0324481 -0.12967315 -0.54798245
1.0603803 -0.1336062 -0.5489496
1.0511669 -0.13978754 -0.54698861
1.0462247 -0.13922669 -0.54430252
1.0339566 -0.13899428 -0.54252177
1.0266556 -0.13710351 -0.54438561
1.0480542 -0.14394909 -0.54402483
1.0390308 -0.14831424 -0.54743898
1.0332518 -0.14327171 -0.54457259
1.0504637 -0.15548791 -0.54185718
1.0426098 -0.1590966 -0.54420787
1.0393025 -0.15669516 -0.53827363
1.0334486 -0.15503129 -0.54485989
1.0580699 -0.16294242 -0.54261905
1.0500994 -0.15986064 -0.54172742
1.0465986 -0.16479975 -0.5397355
1.0389941 -0.16057205 -0.54342455
1.0782306 -0.17166838 -0.53716505
1.0581368 -0.17522745 -0.53960621
1.0527817 -0.17515919 -0.53662723
1.0448227 -0.178101 -0.54225868
1.0376221 -0.17244476 -0.53627777
1.0300313 -0.17568365 -0.53627425
1.0565201 -0.18134785 -0.5390929
1.0497527 -0.18027484 -0.54196489
1.0487219 -0.1943568 -0.53986895
1.0460383 -0.1939836 -0.53808165
1.0355881 -0.19101782 -0.53735375
1.0244205 -0.19415545 -0.53800309
1.0693976 -0.12142097 -0.56099689
1.0573181 -0.12301478 -0.55916554
1.0495421 -0.12016219 -0.55500925
1.0440342 -0.11736241 -0.55550271
1.058406 -0.12402269 -0.55212349
1.0498224 -0.125662 -0.55904847
1.0439743 -0.12956029 -0.55835593
1.0339183 -0.13176399 -0.55519384
1.0264759 -0.13005295 -0.55373055
1.0708441 -0.14042228 -0.55273372
1.0553948 -0.14031309 -0.55579269
1.0499309 -0.13979225 -0.55457222
1.0469022 -0.1394472 -0.55154061
1.050303 -0.14713231 -0.55330592
1.0342245 -0.14925554 -0.5543974
1.0686378 -0.1543756 -0.54950899
1.0550396 -0.15871134 -0.55233526
1.0492755 -0.15477712 -0.55455351
1.0455549 -0.15434185 -0.55269289
1.0332156 -0.15356502 -0.54779416
1.0576383 -0.16470204 -0.55379885
1.0473634 -0.16882092 -0.54828101
1.037385 -0.16986547 -0.54813957
1.0320026 -0.16496924 -0.5517695
1.0554641 -0.17504948 -0.55375338
1.0505869 -0.17521901 -0.54929233
1.0277057 -0.17582616 -0.55128556
1.0735521 -0.18693042 -0.54604626
1.0530211 -0.18025872 -0.5453915
1.0432932 -0.18397105 -0.54813081
1.0500053 -0.19200018 -0.54652774
1.0287659 -0.18870316 -0.54645663
1.0453333 -0.11578844 -0.57061327
1.0711682 -0.11671993 -0.56728196
1.0576687 -0.11962818 -0.56387162
1.0751021 -0.13460058 -0.56752503
1.063454 -0.12775803 -0.56390381
1.056595 -0.1271818 -0.56882477
1.0492992 -0.13298927 -0.56618273
1.0429242 -0.1309519 -0.56189293
1.0358425 -0.126335 -0.56607008
1.05445 -0.1349422 -0.56818724
1.0513523 -0.13641912 -0.56698382
1.0354139 -0.13611932 -0.55964428
1.0306245 -0.1395939 -0.55932891
1.0494586 -0.14743975 -0.55974674
1.0352441 -0.1486569 -0.56431597
1.0643017 -0.15773454 -0.55936033
1.0502775 -0.15595731 -0.5617727
1.0429984 -0.15790069 -0.56095248
1.0363497 -0.15687045 -0.55827624
1.0636047 -0.17059696 -0.55683804
1.0478545 -0.16700116 -0.55625904
1.0429772 -0.16844383 -0.5595457
1.0312356 -0.17093602 -0.55979222
1.0742557 -0.17612059 -0.56216419
1.0564775 -0.17553994 -0.56121832
1.0507777 -0.17681649 -0.56113958
1.0649214 -0.18282971 -0.55344516
1.0540268 -0.18387112 -0.56218481
1.0504744 -0.18886557 -0.55702186
1.0457467 -0.18629476 -0.55765533
1.0362405 -0.18578412 -0.55836916
1.0773327 -0.11710374 -0.58010167
1.0708044 -0.11151776 -0.58025563
1.0660847 -0.11966097 -0.57620227
1.0451204 -0.12253579 -0.57625669
1.0396249 -0.12488069 -0.57572639
1.0651902 -0.13147047 -0.57554573
1.0581093 -0.13378301 -0.57453108
1.0511612 -0.1339139 -0.57323581
1.0394477 -0.13030419 -0.57549894
1.0644909 -0.13956104 -0.5699482
1.0586895 -0.14375153 -0.57148719
1.0497942 -0.14233544 -0.56910354
1.0432618 -0.14015077 -0.57418334
1.0323591 -0.14075875 -0.57568043
1.0698191 -0.14798313 -0.56898707
1.0662317 -0.15406382 -0.57291466
1.0507437 -0.1487712 -0.57514697
1.0445237 -0.14998627 -0.56920421
1.036869 -0.14986536 -0.57579845
1.0638711 -0.15491335 -0.57169461
1.0598991 -0.15616977 -0.5711475
1.0517017 -0.15935539 -0.57347471
1.0453405 -0.15835828 -0.57004935
1.0560236 -0.17000702 -0.57108963
1.0511101 -0.16757724 -0.57046151
1.0447969 -0.16472682 -0.57036406
1.0394993 -0.17064965 -0.57215536
1.0681452 -0.17721477 -0.56962675
1.0609233 -0.17561752 -0.566517
1.0592529 -0.17474823 -0.57191098
1.0520459 -0.18201905 -0.57072788
1.0459369 -0.18017147 -0.56612492
1.0585717 -0.18681829 -0.56416696
1.0284532 -0.18176714 -0.56389558
1.0712854 -0.11346938 -0.58968568
1.066565 -0.11301599 -0.58581662
1.0586102 -0.11300064 -0.58617532
1.0370398 -0.11754581 -0.5891335
1.0317754 -0.11598469 -0.58804226
1.2306663 -0.12255757 -0.59179908
1.0712312 -0.12441707 -0.58314568
1.0551711 -0.12196903 -0.58396578
1.050288 -0.12534569 -0.58448827
1.04254 -0.11996758 -0.58641762
1.0386357 -0.1209923 -0.58847213
1.0720496 -0.13048628 -0.58156359
1.063904 -0.13379912 -0.58270544
1.0597289 -0.13315886 -0.58310592
1.051832 -0.13310903 -0.58610874
1.036175 -0.13540173 -0.58646357
1.0333586 -0.12773788 -0.58237982
1.0647987 -0.14076424 -0.58451456
1.0605267 -0.1384514 -0.58355743
1.0495104 -0.13952915 -0.58022892
1.0352957 -0.14098026 -0.58038312
1.0612775 -0.15073177 -0.58223218
1.0572033 -0.14934884 -0.58376271
1.0480468 -0.15262145 -0.57734966
1.0438066 -0.15147194 -0.58196294
1.0614833 -0.15725139 -0.5844875
1.0558177 -0.16120254 -0.58059174
1.0520319 -0.1582875 -0.57754934
1.0472075 -0.15810663 -0.5848853
1.0401514 -0.16004071 -0.57651007
1.0620345 -0.17016363 -0.57879132
1.0573595 -0.17172456 -0.57790768
1.0425662 -0.16706444 -0.57474649
1.0400946 -0.16644013 -0.58346009
1.0743802 -0.17672589 -0.57567322
1.0640396 -0.18218778 -0.58139879
1.0603395 -0.17909801 -0.57866067
1.0481395 -0.18135531 -0.57593602
1.0450728 -0.17599973 -0.57834131
1.0387317 -0.17933048 -0.57285595
1.0503392 -0.1872759 -0.57345372
1.0439926 -0.18728203 -0.57384622
1.1652209 -0.10882016 -0.6026125
1.0742133 -0.10855093 -0.59724319
1.0637914 -0.10879438 -0.59897321
1.0390766 -0.11040039 -0.60059464
1.1480359 -0.11193626 -0.60191506
1.1142108 -0.12052967 -0.59880668
1.0849462 -0.11415995 -0.6003654
1.0766568 -0.11982249 -0.60024375
1.0726558 -0.11368086 -0.6000585
1.0655478 -0.11458643 -0.59269965
1.0600408 -0.11170376 -0.60000551
1.0432099 -0.11466234 -0.59886503
1.0386448 -0.11763458 -0.59979922
1.2273957 -0.12882192 -0.59783185
1.199216 -0.12491941 -0.59707481
1.0705551 -0.12671065 -0.59336871
1.064211 -0.12800196 -0.59546769
1.0436202 -0.12578923 -0.59487277
1.1893325 -0.13488722 -0.59698516
1.1719645 -0.13795683 -0.5962801
1.093769 -0.13748695 -0.59537321
1.061921 -0.13037217 -0.5939182
1.0609647 -0.12881097 -0.59138149
1.0537461 -0.1304031 -0.59128481
1.042784 -0.13586697 -0.58897501
1.2411001 -0.14463764 -0.59310848
1.2231748 -0.14769706 -0.59416151
1.2007638 -0.14513654 -0.59889072
1.0698791 -0.14723074 -0.59367412
1.0649755 -0.14013353 -0.59374094
1.0498381 -0.14285004 -0.59392166
1.0435151 -0.13845381 -0.59048867
1.0695686 -0.15053025 -0.59262186
1.0669537 -0.14870653 -0.59552997
1.0581908 -0.15048501 -0.59235692
1.0501161 -0.15420137 -0.59076416
1.0446062 -0.15064374 -0.58923453
1.0328318 -0.15416723 -0.58977211
1.0558401 -0.16387548 -0.5901919
1.062816 -0.16764507 -0.59285176
1.0580952 -0.16859226 -0.58657151
1.0513319 -0.16895756 -0.58910799
1.0458165 -0.17169423 -0.58767611
1.038234 -0.16950899 -0.5888235
1.0563034 -0.18298204 -0.58574891
1.0509171 -0.18401648 -0.5874114
1.0439601 -0.18275051 -0.58725655
1.2253007 -0.1052561 -0.61330855
1.1367053 -0.11139667 -0.60928124
1.1033914 -0.10717152 -0.6072526
1.078269 -0.10869667 -0.60494578
1.0538651 -0.10944835 -0.60710371
1.03854 -0.1105628 -0.60579813
1.1777898 -0.12013587 -0.60563195
1.1435846 -0.11620421 -0.60539609
1.1104356 -0.11239596 -0.60516226
1.0997728 -0.11655425 -0.60886008
1.076934 -0.11370105 -0.60602361
1.0515366 -0.11904876 -0.60417622
1.0468223 -0.12000266 -0.60385948
1.039495 -0.11427984 -0.60572112
1.1313608 -0.12313027 -0.60115236
1.1092615 -0.12412128 -0.60475272
1.079037 -0.12262814 -0.60672492
1.0702046 -0.1234449 -0.6064955
1.0508554 -0.12624687 -0.60078293
1.0459882 -0.12835895 -0.60402387
1.0358064 -0.12893492 -0.60347247
1.0516126 -0.13486193 -0.60091752
1.0459059 -0.13257438 -0.60169268
1.0361885 -0.13409048 -0.59779793
1.0768437 -0.14947107 -0.60463047
1.0748049 -0.14950745 -0.6042223
1.0675071 -0.14236271 -0.5993889
1.0516306 -0.14588313 -0.60243481
1.0419632 -0.14759926 -0.59959799
1.1720432 -0.15172955 -0.59859341
1.0612432 -0.15660797 -0.59768987
1.0500503 -0.15078074 -0.59962052
1.0367732 -0.15790254 -0.60278136
1.0781738 -0.16714403 -0.59479582
1.0625122 -0.1652156 -0.59767449
1.0574867 -0.16527098 -0.59785229
1.051024 -0.16580564 -0.60020077
1.0451471 -0.16329014 -0.60061741
1.0341761 -0.16319832 -0.60205221
1.0781951 -0.17252195 -0.59395468
1.0666522 -0.17432487 -0.59513652
1.0513707 -0.17741069 -0.60030651
1.0460517 -0.17047679 -0.59730226
1.0695074 -0.17755727 -0.59863049
1.0512097 -0.18156764 -0.59659243
1.2357398 -0.10160741 -0.62432969
1.2249718 -0.1117368 -0.61706758
1.1595944 -0.10959396 -0.62119842
1.0716594 -0.11007066 -0.61228752
1.0669916 -0.10792214 -0.61729658
1.0486645 -0.1077929 -0.61364996
1.0413029 -0.1062286 -0.62006241
1.2323444 -0.11957495 -0.61706966
1.1954101 -0.11451077 -0.61915761
1.1126366 -0.11642648 -0.61414242
1.0468665 -0.1218399 -0.61565566
1.1319913 -0.12706715 -0.61772734
1.105793 -0.12754117 -0.61397547
1.0736963 -0.12361344 -0.613626
1.0652266 -0.1254988 -0.61244446
1.0556339 -0.12650284 -0.60912311
1.0494534 -0.12349707 -0.61193627
1.2230929 -0.13907367 -0.61099905
1.2081958 -0.14005759 -0.61512989
1.0948113 -0.13259077 -0.61158949
1.0734661 -0.13810824 -0.61201847
1.0651536 -0.13797432 -0.61258376
1.2374035 -0.14539579 -0.61736625
1.1700344 -0.14673772 -0.61224365
1.1139569 -0.14725253 -0.61523139
1.0729283 -0.14630604 -0.61088246
1.0642027 -0.14546892 -0.60985637
1.0574791 -0.14414124 -0.61248177
1.0482358 -0.14754821 -0.60871106
1.0476089 -0.14774659 -0.60996979
1.033741 -0.14718869 -0.60712367
1.1159667 -0.15715131 -0.60865563
1.0629005 -0.1576761 -0.60764247
1.0475303 -0.15223065 -0.60543138
1.1129484 -0.16163334 -0.61319977
1.0837605 -0.16785362 -0.61051595
1.0708244 -0.16597289 -0.60955238
1.0556445 -0.16387379 -0.60758358
1.0497844 -0.16327864 -0.61017722
1.0405073 -0.1649505 -0.60800016
1.0552394 -0.17787266 -0.60693043
1.0517741 -0.17362127 -0.60696977
1.0470084 -0.1780847 -0.61014664
1.0303475 -0.17432061 -0.60400003
1.2081801 -0.10132781 -0.62943262
1.1854407 -0.10058439 -0.62534875
1.1504711 -0.10373987 -0.63055712
1.1284202 -0.1031572 -0.62569827
1.1121958 -0.1003982 -0.63115656
1.0514203 -0.1023098 -0.62884539
1.2395748 -0.11059705 -0.63191032
1.2288866 -0.11352116 -0.62362134
1.2079598 -0.11206041 -0.62433988
1.1886556 -0.11422543 -0.6304118
1.066551 -0.11479918 -0.62830544
1.0490109 -0.11166315 -0.62906337
1.0404 -0.10768326 -0.62268877
1.2333013 -0.1196321 -0.62895113
1.1947352 -0.12030887 -0.6265772
1.0859603 -0.11820696 -0.62231439
1.0624912 -0.12369202 -0.62513077
1.0460622 -0.1207713 -0.6224727
1.2440884 -0.1276108 -0.62732971
1.2224035 -0.12548202 -0.62685406
1.1912117 -0.13011038 -0.62884831
1.1727844 -0.12837771 -0.62344909
1.1687598 -0.12967061 -0.62257892
1.1080306 -0.13256671 -0.62216061
1.0971036 -0.13091019 -0.61870611
1.0703754 -0.12457751 -0.62589586
1.0497843 -0.12522361 -0.61972314
1.0470676 -0.12491886 -0.62370527
1.2318608 -0.13587786 -0.6240502
1.2280786 -0.13542458 -0.62691569
1.2205775 -0.13629802 -0.62804949
1.1338434 -0.13865577 -0.62676316
1.0905093 -0.13585359 -0.6184361
1.0691235 -0.13853022 -0.62230635
1.0605943 -0.14132157 -0.61930484
1.0457535 -0.13754411 -0.61688107
1.1341548 -0.1469654 -0.6232965
1.1152971 -0.14956707 -0.61955756
1.1070541 -0.14261335 -0.61710364
1.0903182 -0.14800052 -0.62180936
1.0736037 -0.15129469 -0.62284058
1.0569756 -0.14402863 -0.62230939
1.0438122 -0.14480117 -0.61590326
1.122411 -0.15419957 -0.62412351
1.1126014 -0.15276693 -0.62161219
1.0904958 -0.15679848 -0.62072545
1.0710114 -0.1554766 -0.61866802
1.0672464 -0.15648572 -0.61692375
1.109869 -0.16333282 -0.62063736
1.0982887 -0.16920491 -0.61931932
1.083802 -0.16586186 -0.6214754
1.0651503 -0.16569164 -0.61534774
1.0549818 -0.16302362 -0.61434633
1.0441253 -0.16217034 -0.61958021
1.0900109 -0.17157185 -0.62048084
1.0749754 -0.17292678 -0.61586231
1.0565883 -0.17393324 -0.61721224
1.0391123 -0.17373507 -0.61750847
1.2137889 -0.10036968 -0.6434859
1.1955832 -0.10492599 -0.64051312
1.1824726 -0.10095149 -0.63383847
1.1728576 -0.10432993 -0.63549399
1.0879731 -0.10072517 -0.63880002
1.2106802 -0.11529204 -0.63241029
1.2045352 -0.1164189 -0.63948762
1.1633666 -0.1080692 -0.64007139
1.1556307 -0.10856716 -0.63725817
1.1469979 -0.11007573 -0.63981783
1.0908962 -0.11291535 -0.63863909
1.0871947 -0.11509921 -0.6343478
1.2382528 -0.11951189 -0.64008045
1.2274683 -0.11995091 -0.63565582
1.1266925 -0.1217242 -0.63492525
1.1208143 -0.11995289 -0.63256526
1.0525055 -0.11751678 -0.63526112
1.1502092 -0.12638116 -0.63783705
1.1338571 -0.12862742 -0.63702703
1.1179693 -0.13219012 -0.63575584
1.0449558 -0.13326533 -0.63273138
1.111892 -0.13696387 -0.6312207
1.1039429 -0.14041464 -0.63388062
1.0721854 -0.13631265 -0.62938768
1.062423 -0.13628474 -0.63446128
1.0448946 -0.13749139 -0.63067234
1.109055 -0.14874597 -0.6317395
1.1025908 -0.14811192 -0.63112926
1.0708239 -0.14407849 -0.62659585
1.0444427 -0.14936788 -0.62693262
1.1023765 -0.15816304 -0.62548465
1.0777373 -0.15627915 -0.62629026
1.0555966 -0.15811822 -0.62878036
1.0516826 -0.15731351 -0.63108581
1.0414982 -0.15555978 -0.62553948
1.1092784 -0.16251457 -0.62411261
1.1069033 -0.16886009 -0.62522584
1.0999004 -0.16889083 -0.62487501
1.0505264 -0.16978227 -0.62756062
1.0851322 -0.17301929 -0.62854725
1.0703607 -0.17304048 -0.62635142
1.1578625 -0.097854778 -0.65131611
1.097502 -0.097180322 -0.65054154
1.0924355 -0.097752698 -0.65032744
1.1262976 -0.10462166 -0.64721555
1.1132237 -0.1047607 -0.64416379
1.0895131 -0.10242218 -0.64932525
1.0804247 -0.099596217 -0.64839196
1.059764 -0.098900892 -0.64438236
1.2304776 -0.11107361 -0.65034956
1.2210419 -0.11167042 -0.64334965
1.1993121 -0.10976587 -0.6457203
1.1853968 -0.10905451 -0.64344776
1.1799577 -0.11441218 -0.64342231
1.1188737 -0.1085638 -0.64170682
1.084727 -0.1149601 -0.64837217
1.0590348 -0.11097427 -0.64463252
1.0482384 -0.11357324 -0.63952065
1.2435405 -0.12047114 -0.6452806
1.1530161 -0.1229101 -0.64706379
1.0479228 -0.11825202 -0.64055413
1.2344468 -0.13242675 -0.64265108
1.2231029 -0.1346544 -0.64179951
1.2069312 -0.13257775 -0.64237088
1.1327593 -0.13407536 -0.64412665
1.1167443 -0.13507496 -0.64195925
1.0994618 -0.13238363 -0.64002937
1.0831863 -0.12999317 -0.64360017
1.0819833 -0.13557319 -0.64271474
1.0643989 -0.1282714 -0.6403625
1.0546404 -0.13555789 -0.64168948
1.0454707 -0.12623405 -0.63841039
1.1480725 -0.13604598 -0.63867879
1.1413556 -0.14204428 -0.63903099
1.1140777 -0.14277369 -0.6445592
1.1086488 -0.1423357 -0.6427322
1.0998746 -0.1433458 -0.63945478
1.09272 -0.14364934 -0.63975072
1.074998 -0.14445782 -0.6359027
1.1046269 -0.15215343 -0.63689464
1.1018152 -0.14671557 -0.63645411
1.0761043 -0.14965831 -0.63796222
1.0705974 -0.14809409 -0.63799179
1.053551 -0.14550397 -0.63979268
1.0431014 -0.14600155 -0.64227206
1.1164237 -0.1576314 -0.63972586
1.0961823 -0.16234276 -0.63964838
1.095445 -0.15608773 -0.636931
1.0806261 -0.16151023 -0.63581538
1.0662889 -0.15997003 -0.63449049
1.0597827 -0.15915796 -0.64192647
1.0514359 -0.15551187 -0.63400865
1.103084 -0.16581053 -0.6369037
1.0969573 -0.16436449 -0.63551986
1.0921286 -0.1712469 -0.63614941
1.0774511 -0.16642007 -0.63854945
1.0652175 -0.16856834 -0.6314857
1.0389175 -0.17099756 -0.63455474
1.0468423 -0.17356005 -0.63023353
1.1184927 -0.096649319 -0.65312862
1.1491566 -0.10806261 -0.65117776
1.0496523 -0.10671003 -0.65563375
1.2359445 -0.11498928 -0.6573174
1.1210049 -0.1172207 -0.65355027
1.1065159 -0.11084845 -0.65406591
1.0769665 -0.11391418 -0.65793186
1.0697984 -0.11070237 -0.65776217
1.0570958 -0.11450547 -0.65153521
1.0533937 -0.10949535 -0.6534127
1.0360165 -0.11233616 -0.64981598
1.216287 -0.12708437 -0.65518594
1.1774427 -0.12787287 -0.65300614
1.1600233 -0.12273021 -0.64993006
1.1311979 -0.12014931 -0.65802604
1.1199435 -0.12723053 -0.65126884
1.1014451 -0.12659258 -0.65289974
1.0950075 -0.12307885 -0.64890641
1.0463963 -0.12622592 -0.6489988
1.1253695 -0.1308382 -0.65609866
1.1087073 -0.12846148 -0.65308326
1.092674 -0.13387935 -0.64952087
1.0865023 -0.13532524 -0.65196252
1.071952 -0.13273989 -0.64620286
1.064644 -0.13318637 -0.65041035
1.0456908 -0.13118613 -0.64886796
1.1130558 -0.14512037 -0.64811242
1.103007 -0.14327273 -0.64910924
1.09861 -0.14070961 -0.65332443
1.077969 -0.13695395 -0.64644682
1.0626593 -0.14164004 -0.65265274
1.0986 -0.15104723 -0.64929193
1.091635 -0.14944956 -0.64770621
1.0844371 -0.15325907 -0.64934403
1.0781283 -0.15106973 -0.64612383
1.0572206 -0.15020689 -0.64587557
1.0518318 -0.14924996 -0.65173322
1.1037456 -0.16465339 -0.64330196
1.0932544 -0.16025567 -0.64663827
1.0860512 -0.16045424 -0.64726895
1.0601484 -0.16046441 -0.65126216
1.0499706 -0.1617178 -0.64628363
1.0999792 -0.16955584 -0.646608
1.091436 -0.16885088 -0.64985085
1.0829834 -0.16880922 -0.644593
1.0629572 -0.16868822 -0.64884973
1.046402 -0.16829947 -0.64186412
1.1844245 -0.10128506 -0.66780072
1.1832033 -0.10392459 -0.6633113
1.1761447 -0.10745705 -0.6649996
1.1464382 -0.10662451 -0.66949588
1.1361786 -0.10943139 -0.66153932
1.1167077 -0.10806012 -0.66196996
1.0784128 -0.10531802 -0.66292161
1.0591118 -0.10664038 -0.66461182
1.1885866 -0.12014822 -0.66732472
1.1698374 -0.11907925 -0.66202307
1.1520067 -0.11477652 -0.66625255
1.1066854 -0.11737797 -0.65925497
1.0898947 -0.11169058 -0.65985614
1.0870821 -0.11543274 -0.65858865
1.1846936 -0.12046674 -0.6599139
1.1325436 -0.12734942 -0.6611436
1.1207221 -0.12646952 -0.66424382
1.1068528 -0.12292515 -0.66318434
1.0952005 -0.12467801 -0.6617471
1.0854539 -0.1221857 -0.66413873
1.0665125 -0.12072244 -0.66459942
1.0569744 -0.1257177 -0.65684873
1.052898 -0.12732865 -0.66332346
1.1632632 -0.1335218 -0.6663599
1.1519798 -0.13174008 -0.65740347
1.1353928 -0.13260302 -0.66207123
1.1056992 -0.13577405 -0.66308832
1.0999519 -0.1316659 -0.66270453
1.0932282 -0.13427274 -0.66027498
1.0854354 -0.13592619 -0.6641711
1.0786767 -0.1302316 -0.65881807
1.0746475 -0.13081482 -0.65913117
1.1233494 -0.14227402 -0.65818602
1.1106886 -0.14814 -0.66258931
1.0980763 -0.14173076 -0.65889168
1.0853558 -0.14771688 -0.66019857
1.0795448 -0.1389939 -0.66280192
1.0636634 -0.14632422 -0.65889502
1.0617864 -0.1413061 -0.65552598
1.0445539 -0.13887858 -0.65847689
1.0999548 -0.15191026 -0.65851289
1.0920732 -0.15452033 -0.66069615
1.0816489 -0.14834936 -0.66034734
1.1056381 -0.16011333 -0.65755022
1.0973732 -0.15952531 -0.6534999
1.0934572 -0.16113406 -0.65649396
1.0867051 -0.16584396 -0.65227646
1.0765357 -0.16612849 -0.65697795
1.0677695 -0.15889144 -0.6549747
1.055931 -0.16475461 -0.65360576
1.0497786 -0.16157901 -0.66021621
1.0397749 -0.16395053 -0.65149546
1.1864904 -0.093409233 -0.67739075
1.1968232 -0.10659125 -0.67668623
1.1268277 -0.11260295 -0.67681408
1.2040164 -0.11688256 -0.67305267
1.193312 -0.11893255 -0.673792
1.1791011 -0.11665156 -0.67282099
1.1407046 -0.11637579 -0.67055005
1.114841 -0.12088101 -0.67157406
1.0816398 -0.12082921 -0.67544854
1.16514 -0.13042124 -0.66865575
1.0993869 -0.13037458 -0.67347777
1.0860025 -0.12703587 -0.66861844
1.1171204 -0.13944452 -0.67420316
1.1130074 -0.13915199 -0.6689831
1.1014923 -0.13540086 -0.67005199
1.0911034 -0.13766582 -0.67055935
1.0835994 -0.13492191 -0.67367941
1.0717674 -0.13777611 -0.6655128
1.0646702 -0.13337511 -0.67407757
1.054612 -0.13612685 -0.66627729
1.1178846 -0.14077902 -0.66609788
1.1086383 -0.14121512 -0.6731565
1.0964031 -0.14905286 -0.67214805
1.0816665 -0.14551507 -0.66638768
1.0751442 -0.14197864 -0.66384113
1.0997654 -0.15149179 -0.66372925
1.0934551 -0.15570608 -0.66708064
1.0852534 -0.15612561 -0.66288531
1.0798211 -0.15178233 -0.66773158
1.0602945 -0.15475845 -0.66479284
1.0960397 -0.16042683 -0.6684472
1.0913789 -0.15903527 -0.6675576
1.086207 -0.16283324 -0.66762662
1.0799096 -0.16017962 -0.66667622
1.0625727 -0.16038938 -0.66764498
1.0597821 -0.15920748 -0.66893715
1.154441 -0.092103168 -0.6868909
1.189768 -0.11178435 -0.68044609
1.1502115 -0.11260226 -0.683074
1.09965 -0.10939232 -0.6851657
1.1472352 -0.11785211 -0.68248826
1.1355219 -0.12028981 -0.6818648
1.1274651 -0.12119289 -0.68435103
1.1013314 -0.12118109 -0.67938203
1.0921375 -0.11551087 -0.6799615
1.1963056 -0.12687349 -0.68081093
1.1478097 -0.12611812 -0.68437231
1.1432763 -0.12509422 -0.67690003
1.0930595 -0.12962261 -0.67892659
1.0840867 -0.12881388 -0.68121445
1.1227134 -0.13643768 -0.6840834
1.1122419 -0.13330427 -0.68380839
1.1085004 -0.13496663 -0.67588311
1.0999192 -0.1354796 -0.67792934
1.0862883 -0.13972571 -0.67908591
1.0771333 -0.13758887 -0.67955762
1.0720328 -0.13778545 -0.67814893
1.1177791 -0.1432942 -0.67808312
1.0973067 -0.14900202 -0.67780441
1.0911062 -0.14497238 -0.68032628
1.1124783 -0.15741572 -0.67276525
1.1066077 -0.15412401 -0.67899656
1.0935316 -0.15239307 -0.67630821
1.087198 -0.1545724 -0.67805707
1.0797716 -0.15321872 -0.67769831
1.0716206 -0.15042804 -0.67536837
1.0682013 -0.15245503 -0.6749292
1.1640232 -0.086134858 -0.69638169
1.180986 -0.094556764 -0.69882309
1.1556389 -0.089255311 -0.6929341
1.1379309 -0.095599934 -0.69385719
1.1708789 -0.10483829 -0.6976527
1.157475 -0.096906826 -0.69358617
1.1904519 -0.10762187 -0.69694972
1.1782103 -0.11325284 -0.6898312
1.1750513 -0.10691127 -0.69575423
1.1597182 -0.10882873 -0.69559795
1.1158273 -0.11387597 -0.68769425
1.1026586 -0.11150541 -0.69467658
1.152083 -0.12119448 -0.69221109
1.1169788 -0.1187392 -0.68902785
1.1100675 -0.11856049 -0.69316894
1.1090473 -0.11583567 -0.69292623
1.0860147 -0.12036197 -0.68867749
1.1152604 -0.13286887 -0.6921913
1.101714 -0.12945181 -0.69235426
1.0932347 -0.12764536 -0.69218892
1.0874532 -0.12672216 -0.6929481
1.1112807 -0.13483235 -0.6926415
1.1038389 -0.13359435 -0.68506926
1.0980638 -0.13437226 -0.68668848
1.092224 -0.13908233 -0.6858362
1.0841653 -0.13346383 -0.69004625
1.0797741 -0.13674487 -0.69097859
1.1065935 -0.14839193 -0.68605167
1.09727 -0.1515021 -0.6853621
1.0925683 -0.15011847 -0.69046903
1.0806204 -0.14751144 -0.68422377
1.0968468 -0.15440474 -0.68478942
1.0842966 -0.15623595 -0.68520981
1.0822718 -0.15350419 -0.68844235
1.1685934 -0.086452387 -0.70395631
1.1751956 -0.104046 -0.70431966
1.1693517 -0.10343657 -0.70782536
1.1622013 -0.098685317 -0.70931625
1.1168028 -0.10696374 -0.70360106
1.1385268 -0.11590941 -0.70069027
1.1304954 -0.11423564 -0.70510435
1.1289897 -0.1157577 -0.70243078
1.1195965 -0.11501563 -0.70491046
1.1157111 -0.11394763 -0.69783533
1.0852112 -0.10925447 -0.70309287
1.1883627 -0.11724634 -0.70405602
1.1154113 -0.12489804 -0.70251143
1.0930841 -0.12187991 -0.70246273
1.0805897 -0.11633708 -0.69980347
1.111068 -0.13150878 -0.70028132
1.1054896 -0.12972569 -0.7003935
1.0932587 -0.12855792 -0.70070827
1.0852416 -0.13161388 -0.69819218
1.0975515 -0.1434457 -0.69394624
1.0857136 -0.14150572 -0.69704342
1.0820596 -0.14040025 -0.69402105
1.1070584 -0.14773226 -0.69583195
1.0924886 -0.14914817 -0.69642007
1.0855346 -0.14523032 -0.69697976
1.0788604 -0.14736611 -0.69175047
1.0743551 -0.15047149 -0.69247812
1.1004287 -0.15382138 -0.69385409
1.0875387 -0.15768392 -0.69221258
1.1940122 -0.093454272 -0.71386856
1.1495191 -0.10104124 -0.71462983
1.1103044 -0.10766339 -0.71663862
1.094252 -0.10550167 -0.71507955
1.1513914 -0.11692794 -0.71079183
1.1392654 -0.11212358 -0.71538228
1.1237171 -0.11414318 -0.70711374
1.1150904 -0.11196711 -0.7104454
1.1042154 -0.10835052 -0.71010417
1.076521 -0.11090546 -0.70842415
1.1787835 -0.12335481 -0.70846516
1.0998172 -0.12499826 -0.7111569
1.0959548 -0.11818146 -0.71321416
1.0871371 -0.12162751 -0.71158451
1.1182413 -0.12852326 -0.71086723
1.1002324 -0.12791005 -0.7060523
1.0917051 -0.12672248 -0.70722836
1.0771567 -0.13055097 -0.70927399
1.1108408 -0.14091301 -0.71046734
1.1044146 -0.14412296 -0.70232189
1.0980757 -0.1435001 -0.70812285
1.0930951 -0.14059524 -0.70806175
1.0886089 -0.14076556 -0.70737147
1.0756638 -0.14298637 -0.70618308
1.1074654 -0.14901239 -0.70923018
1.1004597 -0.14688031 -0.70653856
1.0842339 -0.15341654 -0.70790094
1.0820038 -0.148472 -0.70736641
1.1692396 -0.088738188 -0.72808456
1.1622261 -0.091144711 -0.72436357
1.1244606 -0.087319635 -0.72455913
1.161239 -0.095586687 -0.72221291
1.1469773 -0.098708533 -0.7270022
1.1083256 -0.091175549 -0.7249915
1.1759919 -0.10415107 -0.71899837
1.1469159 -0.10938973 -0.71996158
1.1188065 -0.10363749 -0.72140253
1.1131614 -0.10473197 -0.72042006
1.1057299 -0.10309443 -0.72663486
1.0863283 -0.10858051 -0.71697378
1.0784283 -0.10826031 -0.71958041
1.1495532 -0.11552171 -0.72437853
1.1415318 -0.11152902 -0.71951574
1.0899326 -0.11763258 -0.71695518
1.069877 -0.11584067 -0.72287077
1.1217239 -0.12012491 -0.71898729
1.1113288 -0.12652256 -0.7186414
1.106336 -0.12449769 -0.71997505
1.0988988 -0.12339032 -0.72003835
1.0964526 -0.12277166 -0.72255391
1.085822 -0.12332077 -0.71960658
1.0741378 -0.1236605 -0.71750563
1.0856446 -0.13183716 -0.71901309
1.1080374 -0.14406611 -0.71403629
1.0991408 -0.1409118 -0.71839422
1.0919437 -0.14245422 -0.7171405
1.0800114 -0.1430323 -0.7195282
1.0724672 -0.13860661 -0.72061563
1.0871644 -0.15191036 -0.71070683
1.198977 -0.090128854 -0.73041433
1.1928951 -0.088734761 -0.73175943
1.1591098 -0.092862345 -0.73767328
1.154127 -0.092425324 -0.73609418
1.1502537 -0.090103701 -0.7328161
1.1950425 -0.09610977 -0.73516959
1.1757978 -0.092925116 -0.73125637
1.1299835 -0.099913642 -0.73325676
1.1930807 -0.10587891 -0.7327562
1.1893201 -0.11062139 -0.73630798
1.1554755 -0.10518517 -0.73399359
1.1199989 -0.10977871 -0.72871685
1.1107205 -0.1028242 -0.7346186
1.1029278 -0.10605642 -0.72759235
1.0872253 -0.10337412 -0.73229307
1.215816 -0.11258088 -0.7298817
1.1057053 -0.12049735 -0.73261917
1.0970575 -0.111336 -0.72874016
1.0855329 -0.11334864 -0.73155767
1.1286565 -0.12673225 -0.72948414
1.1197071 -0.12371568 -0.72740412
1.1045635 -0.12054784 -0.72894096
1.0983616 -0.12154946 -0.73216695
1.083945 -0.12133555 -0.7260552
1.0935169 -0.13559462 -0.72557926
1.0813292 -0.137492 -0.72646528
1.075367 -0.1325565 -0.72256595
1.1049 -0.14309418 -0.72192508
1.097905 -0.13930359 -0.72519213
1.0925337 -0.14015768 -0.72492552
1.0823016 -0.14605579 -0.72429746
1.099421 -0.080872044 -0.74815559
1.2206625 -0.09119691 -0.7446571
1.189901 -0.090969145 -0.74332142
1.182943 -0.088041939 -0.74686962
1.1082557 -0.085632339 -0.74163103
1.238551 -0.095800251 -0.74151164
1.1835309 -0.094058432 -0.742823
1.1771894 -0.099386834 -0.7447471
1.115941 -0.099067837 -0.74386132
1.1051149 -0.095445603 -0.74445951
1.2325224 -0.11190382 -0.74390596
1.1279585 -0.10463767 -0.73958123
1.1159884 -0.10528828 -0.74229985
1.0981551 -0.10458274 -0.74405861
1.092981 -0.11246629 -0.74360758
1.084824 -0.11070788 -0.74351132
1.0732208 -0.11146893 -0.74102467
1.244337 -0.11544479 -0.74295902
1.2246994 -0.11632908 -0.73870152
1.1604404 -0.11460497 -0.73905694
1.1280365 -0.11535178 -0.73546314
1.1229824 -0.11894664 -0.74310851
1.1134363 -0.12003806 -0.73780704
1.1050603 -0.11895834 -0.73721862
1.0932549 -0.1176763 -0.73828971
1.0844905 -0.11479736 -0.74195552
1.0830113 -0.11560825 -0.73780715
1.0636648 -0.11723574 -0.73450166
1.1088585 -0.12296221 -0.73685271
1.0954282 -0.12352409 -0.73584479
1.081049 -0.1274883 -0.73695153
1.106294 -0.13522112 -0.73639506
1.1005018 -0.13680327 -0.73732555
1.0919526 -0.13418543 -0.74012965
1.0834926 -0.13903007 -0.73975176
1.082244 -0.13292368 -0.73534286
1.0692707 -0.13422687 -0.73504823
1.112828 -0.13975905 -0.73187983
1.1049223 -0.14195824 -0.73176986
1.1018798 -0.13972753 -0.73122728
1.086939 -0.1442655 -0.73323864
1.0802262 -0.14331174 -0.73376673
1.1923952 -0.072283432 -0.7563405
1.1981828 -0.08161059 -0.7525112
1.2096764 -0.090588927 -0.75550252
1.2020841 -0.093830585 -0.75760514
1.1895849 -0.091280706 -0.75045198
1.2403439 -0.099961631 -0.7524398
1.1366941 -0.099952675 -0.74782783
1.1111364 -0.097985007 -0.75259864
1.0873884 -0.095756948 -0.74868053
1.2352163 -0.11045783 -0.74796504
1.2081227 -0.10901297 -0.75617379
1.1857699 -0.10646053 -0.75145018
1.092337 -0.11213899 -0.74929827
1.08363 -0.10913791 -0.74594015
1.0814934 -0.10512503 -0.75144643
1.1204199 -0.11526535 -0.75306708
1.1160066 -0.11962292 -0.74705184
1.1065135 -0.11724037 -0.75010937
1.1016871 -0.11712468 -0.75233728
1.0951462 -0.11633833 -0.75096613
1.0849866 -0.11404397 -0.7488333
1.0713791 -0.11594484 -0.74777657
1.0917778 -0.13034996 -0.74721283
1.0790052 -0.12624642 -0.74731231
1.0707495 -0.12502423 -0.75029188
1.1079248 -0.13574879 -0.74844187
1.0999938 -0.13480699 -0.74383664
1.0923948 -0.13403979 -0.74556869
1.0837671 -0.13999052 -0.7478255
1.0789295 -0.13294369 -0.74943471
1.0993378 -0.14744356 -0.7404781
1.0890983 -0.14693381 -0.74304408
1.0791787 -0.14684564 -0.74421805
1.2046463 -0.076723501 -0.76938039
1.126668 -0.073868379 -0.76503563
1.190661 -0.079295732 -0.76754111
1.1606491 -0.080697998 -0.76817298
1.151787 -0.078910448 -0.76888651
1.1394054 -0.080140039 -0.76329273
1.2302665 -0.096087694 -0.76604068
1.1319762 -0.095575869 -0.75964689
1.1055893 -0.089518264 -0.76382786
1.0879215 -0.089474529 -0.76421809
1.2135475 -0.10299622 -0.76621544
1.2022473 -0.10038345 -0.76493007
1.1913345 -0.098537087 -0.76015949
1.1353641 -0.096955724 -0.75972164
1.126742 -0.098017775 -0.76060331
1.1156583 -0.10080465 -0.76005721
1.1077193 -0.10186128 -0.7627545
1.0992508 -0.097920969 -0.75917161
1.0923791 -0.10477273 -0.76125115
1.2190776 -0.11082859 -0.75816804
1.1581987 -0.11021283 -0.75579667
1.1395329 -0.10804518 -0.76316625
1.1040367 -0.11373539 -0.75718838
1.0996234 -0.10929869 -0.75925297
1.0942975 -0.10980621 -0.75772184
1.0850363 -0.10834696 -0.75764447
1.1264988 -0.11874806 -0.76168317
1.0958959 -0.11814734 -0.75464976
1.0882331 -0.11978442 -0.76055819
1.0791668 -0.12058003 -0.76053131
1.1041616 -0.13230659 -0.75794989
1.1022513 -0.13167566 -0.75365913
1.0941418 -0.1284956 -0.7565223
1.0887035 -0.13074641 -0.75942451
1.11253 -0.13468623 -0.75848806
1.1010725 -0.13362689 -0.75441188
1.0741303 -0.14157552 -0.75099289
1.1721456 -0.07337074 -0.77360898
1.205163 -0.08934214 -0.77689493
1.1787245 -0.081631094 -0.77337134
1.1436642 -0.093729794 -0.77087396
1.1115525 -0.093145818 -0.77057862
1.0787667 -0.097065121 -0.77092546
1.1605164 -0.10155614 -0.77432334
1.1413379 -0.10206746 -0.77132756
1.1119282 -0.098466635 -0.76792735
1.109125 -0.099827304 -0.76696181
1.1003314 -0.10506183 -0.77143604
1.092714 -0.10517177 -0.76713997
1.2178905 -0.10835582 -0.77125746
1.1073695 -0.11261869 -0.76851869
1.0999838 -0.11085508 -0.76680392
1.0917684 -0.11154547 -0.76985478
1.0834835 -0.10942051 -0.76914608
1.1363472 -0.1182574 -0.76633811
1.1221156 -0.11978902 -0.76550847
1.0895596 -0.11976005 -0.76834798
1.078297 -0.1215691 -0.76608831
1.1158472 -0.13018213 -0.76174736
1.1056435 -0.13103946 -0.76564676
1.0998695 -0.13049015 -0.7613799
1.0939586 -0.12777822 -0.76465034
1.0873853 -0.1293433 -0.76254487
1.0925025 -0.13810113 -0.76219916
1.0874294 -0.13900775 -0.76542389
1.0811704 -0.13827436 -0.763327
1.1453193 -0.066929854 -0.78801793
1.2461114 -0.075615942 -0.78214431
1.1990738 -0.072421886 -0.78927052
1.1893038 -0.076128297 -0.78414285
1.1578664 -0.072812326 -0.78761268
1.2678858 -0.084990799 -0.7840746
1.1939191 -0.082427584 -0.78815377
1.0916418 -0.087460436 -0.78138953
1.272741 -0.091231622 -0.77946973
1.2323408 -0.091052227 -0.7855882
1.2124131 -0.098203875 -0.78438222
1.2029961 -0.092707455 -0.78335315
1.1981255 -0.097494975 -0.78570402
1.1909916 -0.093879178 -0.77860701
1.1242483 -0.090072945 -0.77994245
1.0918343 -0.097204752 -0.7786184
1.0876122 -0.093312651 -0.78341448
1.0755202 -0.097934455 -0.78338647
1.1927205 -0.10513194 -0.77931154
1.1289228 -0.099993765 -0.77511817
1.1242151 -0.10108495 -0.77975708
1.1004298 -0.10287679 -0.78201294
1.0938014 -0.10202516 -0.77990025
1.1242889 -0.11441839 -0.77818477
1.1083186 -0.11260362 -0.78170019
1.0979848 -0.11678214 -0.77686197
1.0897576 -0.11120014 -0.77617109
1.0753032 -0.11132061 -0.78007013
1.0940433 -0.12062585 -0.77573466
1.087557 -0.11812437 -0.77749819
1.0838193 -0.12300595 -0.77761161
1.1313372 -0.13326307 -0.77882034
1.130663 -0.13499142 -0.77229083
1.107757 -0.12731992 -0.77442557
1.1017008 -0.12881202 -0.77274358
1.0930411 -0.13063034 -0.77566606
1.0867488 -0.1322622 -0.7742402
1.2179391 -0.066936776 -0.79503888
1.196094 -0.07319098 -0.79868376
1.1478225 -0.069397673 -0.79035038
1.2656826 -0.075232849 -0.79762518
1.2621981 -0.0876728 -0.79266608
1.194387 -0.089379504 -0.79546607
1.1716509 -0.084462136 -0.78820747
1.1458042 -0.086108036 -0.78965974
1.1334122 -0.086435474 -0.79201484
1.1013192 -0.084812813 -0.78889477
1.2401553 -0.09337312 -0.78790015
1.2272265 -0.09707316 -0.79007161
1.1883891 -0.097861104 -0.78945053
1.1406509 -0.098079167 -0.79085708
1.1285901 -0.095476329 -0.79300934
1.1078362 -0.095671631 -0.78752875
1.0871882 -0.097962059 -0.7876761
1.250901 -0.10461876 -0.78620046
1.1196963 -0.10603157 -0.78464097
1.1132629 -0.10058869 -0.78996539
1.1104455 -0.10626979 -0.78436792
1.0964013 -0.10858465 -0.7919178
1.1401925 -0.11401997 -0.78476506
1.105904 -0.11239595 -0.78809798
1.1008872 -0.11083165 -0.78434092
1.0928652 -0.11221281 -0.7904157
1.0893799 -0.11066771 -0.78782248
1.0797409 -0.11326038 -0.7900669
1.0764717 -0.11667147 -0.78875577
1.1075137 -0.122012 -0.78639233
1.1018037 -0.12381383 -0.78297782
1.0962377 -0.12404716 -0.78340757
1.0867158 -0.12171996 -0.78253227
1.1039317 -0.12850733 -0.78504181
1.093732 -0.1332933 -0.78786206
1.0869043 -0.13099293 -0.78354716
1.083426 -0.13006313 -0.78244823
1.0783559 -0.13686064 -0.77869844
1.1479677 -0.063284449 -0.80562043
1.1965903 -0.070250943 -0.80193758
1.1670967 -0.069148473 -0.79977274
1.2752585 -0.079952195 -0.80018485
1.2566564 -0.082556561 -0.80136508
1.2310971 -0.076909989 -0.80373603
1.2153982 -0.080874652 -0.80456764
1.1905626 -0.078497246 -0.80420184
1.1423594 -0.081829622 -0.80073667
1.2728198 -0.087752268 -0.80641067
1.2116214 -0.088470697 -0.79749256
1.2042589 -0.087039202 -0.80407214
1.1958277 -0.086656816 -0.79884267
1.1839827 -0.088053338 -0.80069447
1.0967644 -0.08595074 -0.8043685
1.0856705 -0.09007109 -0.79731125
1.0813514 -0.085642695 -0.80276352
1.2672333 -0.094413295 -0.79769844
1.2486705 -0.096395791 -0.79962844
1.2259723 -0.097100183 -0.80044621
1.1947612 -0.10017851 -0.79854065
1.149722 -0.093048513 -0.79723924
1.1329683 -0.10039791 -0.79722083
1.1263486 -0.10147312 -0.80286646
1.098341 -0.093148306 -0.79813433
1.0932455 -0.098052524 -0.80234843
1.0776871 -0.094937652 -0.7983048
1.1414797 -0.1096931 -0.7957778
1.1220791 -0.11008873 -0.79468638
1.1092998 -0.10793053 -0.79918551
1.1009332 -0.10796186 -0.79873937
1.0860137 -0.11030506 -0.79604101
1.0841488 -0.10756814 -0.79255927
1.0993608 -0.11798893 -0.79465425
1.0967164 -0.11582439 -0.79248911
1.0871288 -0.11691726 -0.80037665
1.1291116 -0.12890242 -0.79543996
1.12016 -0.12627831 -0.7950511
1.1159291 -0.12216315 -0.79304057
1.1100767 -0.123684 -0.79500675
1.1002759 -0.12484151 -0.79345566
1.0887268 -0.12442635 -0.79817426
1.1024255 -0.13081552 -0.79202306
1.0848473 -0.13272089 -0.79089922
1.0749663 -0.13288814 -0.79315519
1.2386855 -0.066234194 -0.81487495
1.1592516 -0.072077058 -0.80971354
1.1176122 -0.067799792 -0.811737
1.2610369 -0.082766972 -0.81126326
1.2220064 -0.084318541 -0.81148201
1.2128936 -0.083346665 -0.81126475
1.1641701 -0.075471193 -0.8098864
1.1514683 -0.07739199 -0.80887717
1.0907375 -0.08236216 -0.81267273
1.0733885 -0.081273869 -0.80907708
1.2559851 -0.091396973 -0.81561148
1.2263463 -0.092703015 -0.81224811
1.1914165 -0.088740662 -0.80706471
1.1682687 -0.093013451 -0.81147224
1.1462024 -0.086495593 -0.81192297
1.0961297 -0.087236688 -0.81179374
1.0866569 -0.091377281 -0.81012142
1.2363137 -0.096527353 -0.80987573
1.1850328 -0.093930766 -0.8054986
1.1514738 -0.097036414 -0.80601579
1.1420585 -0.094620094 -0.80843419
1.1080542 -0.098610044 -0.80831885
1.1043776 -0.098456748 -0.81189418
1.0909812 -0.093122199 -0.80505973
1.0801581 -0.099229664 -0.8117348
1.1950217 -0.1039165 -0.81147182
1.1583309 -0.10899678 -0.81109065
1.1296141 -0.10547244 -0.80742681
1.1198692 -0.10575905 -0.81118798
1.1033401 -0.10655642 -0.80542219
1.0957687 -0.10882107 -0.80534708
1.0818075 -0.10442401 -0.80622739
1.0754602 -0.10886775 -0.80608082
1.1213546 -0.11756858 -0.81013864
1.117901 -0.11809798 -0.80777967
1.1047347 -0.11217393 -0.80429918
1.07704 -0.11506094 -0.80652517
1.1211329 -0.12234971 -0.80460906
1.1143388 -0.12623642 -0.80358624
1.1041878 -0.13075708 -0.80622554
1.0922922 -0.12303536 -0.80070615
1.0881742 -0.12242384 -0.80697864
1.0819204 -0.12397003 -0.80412936
1.0715768 -0.12891564 -0.80761194
1.1126379 -0.13117734 -0.8069458
1.1289899 -0.063599631 -0.82537389
1.1119307 -0.062519297 -0.82341099
1.2680889 -0.070774674 -0.82250303
1.2408609 -0.074027553 -0.82290661
1.2382373 -0.072350323 -0.81981385
1.1619049 -0.067780703 -0.82277673
1.2339686 -0.082762823 -0.82308596
1.2288718 -0.079997204 -0.82577133
1.1001824 -0.079297498 -0.82188505
1.0915933 -0.084841087 -0.82237244
1.2101445 -0.08861921 -0.82071602
1.1816765 -0.090000436 -0.82154661
1.1661383 -0.087077305 -0.82465279
1.1219177 -0.08827126 -0.81776184
1.0920999 -0.086700127 -0.81941265
1.1758121 -0.099346995 -0.82002079
1.140646 -0.10105705 -0.81370807
1.1317739 -0.096878558 -0.81996459
1.0988368 -0.10258891 -0.82158041
1.0938221 -0.09958712 -0.82058704
1.0886272 -0.10028027 -0.81778127
1.0739232 -0.098363675 -0.82118499
1.1625391 -0.10988145 -0.81747264
1.1225164 -0.10717338 -0.81454152
1.1073632 -0.10616603 -0.81490046
1.1024472 -0.10587517 -0.81598133
1.0875416 -0.11211457 -0.81822103
1.0839243 -0.1064678 -0.81894213
1.1130341 -0.1193727 -0.81353515
1.1097966 -0.11769409 -0.81746191
1.0998229 -0.11859551 -0.81532174
1.0956316 -0.12069655 -0.81513119
1.0892082 -0.11768895 -0.81503803
1.0710152 -0.12256254 -0.81671101
1.1102134 -0.12351502 -0.81608057
1.2434723 -0.064214543 -0.83320421
1.1919262 -0.06510359 -0.83611023
1.2029161 -0.07531742 -0.82942665
1.1701196 -0.070453465 -0.83185953
1.1095093 -0.075801067 -0.83249104
1.0876572 -0.077305444 -0.83314413
1.2554163 -0.082178958 -0.83508718
1.2046494 -0.083587207 -0.83159143
1.1659125 -0.086713031 -0.83431816
1.1284384 -0.080906719 -0.82987404
1.1208616 -0.080511823 -0.83194584
1.1112144 -0.081470683 -0.83423662
1.0931635 -0.080339104 -0.83362162
1.0845181 -0.083703354 -0.82856888
1.2495928 -0.096030399 -0.82801574
1.2334865 -0.088143371 -0.82832599
1.1871471 -0.092987023 -0.82592613
1.1472139 -0.091131374 -0.83128512
1.114202 -0.087813884 -0.82574338
1.1071672 -0.094880804 -0.82890928
1.095809 -0.095045373 -0.82890415
1.0786941 -0.091627494 -0.83040315
1.1603388 -0.1041229 -0.83001095
1.1493161 -0.099588312 -0.82824612
1.1216185 -0.098285377 -0.82662576
1.1176594 -0.1014294 -0.82768953
1.1084538 -0.099957846 -0.82903862
1.1011721 -0.10197128 -0.82397503
1.1359385 -0.10640603 -0.83012992
1.1087933 -0.10950872 -0.82978636
1.0915146 -0.11193756 -0.82938039
1.0627195 -0.10807469 -0.82173294
1.1231092 -0.11755272 -0.82323086
1.1063946 -0.12042724 -0.82582128
1.1018342 -0.12037736 -0.82532108
1.095986 -0.11835969 -0.82263392
1.0801805 -0.11898409 -0.82180095
1.0681872 -0.12494312 -0.82206869
1.2335464 -0.066428006 -0.84276479
1.28178 -0.071499757 -0.84159482
1.2362314 -0.076915175 -0.84174544
1.1662714 -0.073301688 -0.84418505
1.1188954 -0.072520517 -0.84240025
1.2926968 -0.086031094 -0.84225684
1.2424059 -0.084484719 -0.84529239
1.1783202 -0.086070105 -0.83759475
1.1462702 -0.083623059 -0.83665591
1.0983726 -0.080208078 -0.8371858
1.1601536 -0.091543779 -0.83826065
1.1019492 -0.096020982 -0.84008962
1.086504 -0.090007126 -0.8397786
1.0724467 -0.090817466 -0.83908427
1.1664152 -0.10561011 -0.83604723
1.1096982 -0.10278613 -0.83381313
1.0997578 -0.10439042 -0.83622396
1.0967855 -0.10164202 -0.83226323
1.1159917 -0.1150614 -0.83206367
1.1066923 -0.11205562 -0.83810109
1.1012743 -0.11317047 -0.83428311
1.0880003 -0.10982189 -0.83351922
1.1397103 -0.11693296 -0.8386333
1.12779 -0.11787038 -0.83161402
1.1012905 -0.12150209 -0.83434922
1.0913397 -0.1159138 -0.83401281
1.0806602 -0.1220305 -0.83162749
1.0758094 -0.11743927 -0.83477134
1.2433271 -0.063009486 -0.8530907
1.2004728 -0.067621112 -0.84802157
1.1762685 -0.080915593 -0.85271877
1.1305956 -0.078031421 -0.84496564
1.1121597 -0.075142056 -0.84835368
1.082386 -0.076127626 -0.84677362
1.270614 -0.081399329 -0.84757757
1.198109 -0.086467296 -0.84781814
1.1722252 -0.081939898 -0.85079396
1.1638579 -0.082189083 -0.84636724
1.1330942 -0.082524851 -0.85085207
1.0814524 -0.08746729 -0.85018098
1.07601 -0.083820805 -0.84893209
1.0594943 -0.089173153 -0.85056883
1.2302507 -0.093450509 -0.85253048
1.1014266 -0.090052478 -0.84741062
1.0939336 -0.094688214 -0.84561199
1.1291845 -0.10260789 -0.84416413
1.0825127 -0.10649108 -0.84797609
1.1840423 -0.10998148 -0.84183389
1.133437 -0.11501351 -0.84707969
1.1157398 -0.11013712 -0.84860969
1.1016765 -0.11329464 -0.8485077
1.0945179 -0.11264999 -0.84502852
1.0799021 -0.10853679 -0.84146798
1.1124556 -0.11895272 -0.8437264
1.0948402 -0.12023955 -0.84338468
1.0834736 -0.12220748 -0.83991325
1.2325124 -0.067344166 -0.86028111
1.2098653 -0.064127028 -0.85959494
1.1376672 -0.065959424 -0.86221862
1.11816 -0.065310046 -0.85889363
1.1068277 -0.066922545 -0.86390758
1.0975088 -0.069131747 -0.8557837
1.240804 -0.076849833 -0.8625527
1.144316 -0.076045141 -0.85478479
1.1578957 -0.087119788 -0.85512173
1.1145535 -0.088338971 -0.85990828
1.1092368 -0.086438611 -0.85908306
1.1009202 -0.089149304 -0.8575657
1.0944754 -0.088249236 -0.85244757
1.0873235 -0.081036597 -0.85475367
1.2515031 -0.092735663 -0.8625223
1.1140331 -0.094968379 -0.85573035
1.0924768 -0.099473767 -0.85868508
1.0756727 -0.097379446 -0.8539356
1.1489736 -0.10242993 -0.85466754
1.1051002 -0.099866152 -0.85306031
1.0974987 -0.10594821 -0.85259914
1.0818281 -0.10153279 -0.85382241
1.0669619 -0.10687908 -0.85327154
1.1173668 -0.10935213 -0.85373789
1.0896964 -0.11793466 -0.85286975
1.0829753 -0.11466456 -0.85642326
1.0550494 -0.11407842 -0.85318768
1.1716645 -0.12056842 -0.85111815
1.0936248 -0.11989692 -0.85152906
1.1470531 -0.062678888 -0.87212783
1.2505846 -0.073431328 -0.87287873
1.1251655 -0.068413481 -0.86584258
1.0694941 -0.064753823 -0.87093616
1.178538 -0.077166781 -0.86726981
1.1113888 -0.080776662 -0.87117332
1.0959146 -0.07952562 -0.86447221
1.075282 -0.077905014 -0.86485451
1.1101956 -0.084869958 -0.86587983
1.0682783 -0.085686475 -0.86214077
1.1027375 -0.099284902 -0.86771888
1.0907804 -0.097816586 -0.8654272
1.0849342 -0.09414237 -0.8637135
1.2517344 -0.10624366 -0.86665821
1.1106905 -0.10269189 -0.86882454
1.0994803 -0.10924651 -0.86187977
1.0906402 -0.10249878 -0.86129963
1.0822934 -0.10366383 -0.86208975
1.1444019 -0.11762784 -0.86285889
1.0996577 -0.11570647 -0.86065847
1.0945725 -0.11717103 -0.85791993
1.2401545 -0.048246898 -0.88702732
1.2276028 -0.059054784 -0.88034415
1.2074225 -0.056576408 -0.87782419
1.2160581 -0.074664012 -0.88060337
1.1627059 -0.069203869 -0.87744492
1.096004 -0.070648037 -0.88066339
1.0891134 -0.06518659 -0.87627196
1.237033 -0.078146771 -0.88363564
1.1431972 -0.084388033 -0.88098413
1.1209929 -0.08009991 -0.8766911
1.1045631 -0.079042509 -0.87253684
1.0967864 -0.082726225 -0.87915301
1.0662497 -0.07818713 -0.87988669
1.170895 -0.087121747 -0.88018745
1.1503786 -0.086360626 -0.87535161
1.1227399 -0.084317714 -0.87332851
1.094196 -0.090905301 -0.87349141
1.09189 -0.09148816 -0.87914157
1.0700362 -0.08999335 -0.87606829
1.0873901 -0.097570315 -0.87032425
1.0650114 -0.099212989 -0.87115335
1.0995753 -0.10944642 -0.87554276
1.096274 -0.10453535 -0.86885154
1.0890514 -0.10969138 -0.87432259
1.082545 -0.10724816 -0.87267339
1.0868052 -0.11674834 -0.87015164
