# .PCD v0.7 - Point Cloud Data file format
VERSION 0.7
FIELDS x y z
SIZE 4 4 4
TYPE F F F
COUNT 1 1 1
WIDTH 1182
HEIGHT 1
VIEWPOINT 0 0 0 1 0 0 0
POINTS 1182
DATA ascii
1.0783293 -0.051421802 -0.67052507
1.05922 -0.049679663 -0.67498398
1.0470221 -0.049841724 -0.67233199
1.0576845 -0.045753971 -0.68317318
1.0567926 -0.049328759 -0.68179935
1.0812377 -0.045160379 -0.6944502
1.0604626 -0.04528445 -0.69938648
1.08736 -0.040531199 -0.71042919
1.068918 -0.038868584 -0.70892715
1.0694417 -0.044427577 -0.70644724
1.05814 -0.043784715 -0.71287304
1.0769038 -0.037818279 -0.72232795
1.0713428 -0.03981277 -0.72436178
1.0688462 -0.038023479 -0.72100508
1.050118 -0.042158552 -0.71675897
1.0696833 -0.034489296 -0.73471338
1.0714402 -0.040289581 -0.72677004
1.0678028 -0.037195846 -0.73456085
1.059621 -0.039474551 -0.73198783
1.0533394 -0.037229419 -0.73502982
1.0410113 -0.036091641 -0.73083127
1.0773073 -0.034504697 -0.73654503
1.0748825 -0.03483554 -0.74114865
1.0554954 -0.031871855 -0.74391675
1.0615252 -0.038455732 -0.73910075
1.0727488 -0.032762386 -0.75202847
1.0684735 -0.035096586 -0.7483111
1.0598681 -0.031005763 -0.75176889
1.0683551 -0.027856201 -0.76258892
1.0870779 -0.033621408 -0.75879771
1.0819638 -0.031377546 -0.7599349
1.0751451 -0.030583158 -0.76019096
1.0651901 -0.031248517 -0.76231503
1.0613726 -0.033993624 -0.7586472
1.1003429 -0.030529782 -0.77166939
1.0937479 -0.029362015 -0.77381676
1.0827132 -0.026196577 -0.77175045
1.0747125 -0.026121609 -0.77087587
1.0663726 -0.025985621 -0.77029455
1.07459 -0.03142029 -0.77045178
1.0956495 -0.029051654 -0.77994299
1.0877416 -0.026943579 -0.77802628
1.0756409 -0.028854437 -0.77893358
1.0668451 -0.023214661 -0.78189605
1.0591165 -0.030105881 -0.78150457
1.0924873 -0.022465512 -0.79309982
1.0586232 -0.023552366 -0.79032284
1.0492393 -0.022930942 -0.7856921
1.0926651 -0.024672672 -0.79257166
1.0803955 -0.027617715 -0.78971529
1.0749937 -0.026723735 -0.78790188
1.0681679 -0.027257957 -0.79135251
1.0847604 -0.021397196 -0.8018232
1.0757134 -0.020089425 -0.79726416
1.0581231 -0.019626118 -0.79663861
1.095947 -0.019608729 -0.81098861
1.0867121 -0.020513676 -0.81084055
1.0815785 -0.021007426 -0.80726415
1.0754709 -0.022036225 -0.80899566
1.0679939 -0.020003267 -0.81211227
1.0553398 -0.01970429 -0.80432671
1.0626487 -0.018214144 -0.81757689
1.1005627 -0.020536043 -0.8173402
1.0889597 -0.020391911 -0.82000548
1.0964965 -0.015372381 -0.82867509
1.0818565 -0.016369618 -0.82771039
1.0769407 -0.016993329 -0.82839704
1.1123811 -0.013983801 -0.84364414
1.0888239 -0.013938755 -0.8386969
1.0812098 -0.012811691 -0.84174293
1.0748929 -0.016625479 -0.83836162
1.0841793 -0.013515979 -0.84988105
1.0750988 -0.0095292926 -0.84840029
1.0749434 -0.0160207 -0.84777117
1.0625107 -0.016247213 -0.84589511
1.1070942 -0.012292989 -0.85398149
1.0959768 -0.0075652301 -0.8560006
1.0902148 -0.011780672 -0.85822451
1.0838935 -0.013028845 -0.85624003
1.0753952 -0.010178074 -0.85595495
1.1003281 -0.0060720816 -0.86477852
1.068923 -0.0034561604 -0.86812067
1.1100948 -0.0079938695 -0.87044185
1.0992134 -0.01005616 -0.87149465
1.0798053 -0.0090667531 -0.86904114
1.0594424 -0.0093887895 -0.86879396
1.1022437 -0.0014219433 -0.88283026
1.0971636 -0.0048414171 -0.87525833
1.0870489 -0.0029287413 -0.87967205
1.0687454 -0.005890578 -0.87915576
1.0818172 -0.0096920207 -0.87270999
1.07007 -0.0099055767 -0.87859303
1.0485498 -0.008615315 -0.87480497
1.0990952 -0.00050061196 -0.89162934
1.0964248 -0.0061526299 -0.88715661
1.0887227 -0.0059356317 -0.88844502
1.0837734 -0.0071055815 -0.89062428
1.0771997 -0.0038268864 -0.88663471
1.067572 -0.0034254417 -0.88739824
1.0578079 -0.0052616671 -0.88578862
1.0464448 -0.0044908747 -0.89052439
1.0630327 -0.0090307444 -0.88507348
1.0756581 0.0024306327 -0.89962465
1.0688285 -0.0018108338 -0.89417249
1.103233 0.0034629703 -0.91001159
1.0909935 0.0032649934 -0.90790266
1.0853965 0.0027402416 -0.91127324
1.0756477 0.0031268895 -0.90763485
1.0608584 0.0063326061 -0.91922271
1.1027676 -0.00078575313 -0.91821647
1.0814673 0.00074134767 -0.91343296
1.0608793 0.0044183061 -0.91594326
1.1048084 0.0064781308 -0.92549062
1.0919363 0.0072096586 -0.92556363
1.0763798 0.0071027279 -0.92636913
1.0687437 0.0083876103 -0.92866814
1.0855067 0.0031670481 -0.92724103
1.1054097 0.010151327 -0.93702829
1.0999597 0.0031445622 -0.93398583
1.0894511 0.0072977096 -0.93701053
1.0670476 0.0052372515 -0.93469173
1.1159229 0.012234658 -0.94876033
1.0972754 0.0057326555 -0.94572163
1.0888379 0.0065172613 -0.94403601
1.0864564 0.005099535 -0.94496304
1.0784925 0.0069954842 -0.95056635
1.0680704 0.0077221543 -0.94598675
1.1084632 0.012873679 -0.95671028
1.0957979 0.011882141 -0.95967305
1.0696936 0.010835469 -0.96012056
1.0788858 0.0073313713 -0.95849138
1.1105632 0.016216666 -0.96347433
1.0943443 0.011005133 -0.96552455
1.1060172 0.01939851 -0.97656196
1.0881819 0.019405827 -0.97910601
1.063237 0.021060035 -0.97925973
1.1026132 0.012376308 -0.97206241
1.078369 0.013508081 -0.97369421
1.1109267 0.014585063 -0.98747069
1.0812944 0.020962834 -0.99026638
1.0764643 0.018784672 -0.98922104
1.0910487 0.014287472 -0.98087978
1.1228542 0.023468718 -0.9983685
1.0631546 0.023261771 -0.99479073
1.1037375 0.018223956 -0.99597549
1.0950671 0.017690673 -0.99724901
1.089635 0.018039733 -0.99821305
1.0790056 0.016513348 -0.99374777
1.0843976 0.024642646 -1.0040715
1.0759264 0.024624482 -1.0076994
1.1076013 0.019141585 -1.0024858
1.0958589 0.017054558 -1.0036741
1.081841 0.015929505 -1.0023066
1.1057109 0.026564494 -1.0159005
1.0995042 0.020371035 -1.015281
1.0745246 0.021892056 -1.0136139
1.1127558 0.018596917 -1.0112959
1.0742524 0.027492449 -1.021542
1.0998743 0.032685682 -1.0349909
1.0915312 0.028900534 -1.0324453
1.0833266 0.032553658 -1.036257
1.0693518 0.028878361 -1.0310788
1.065052 0.032314375 -1.0302104
1.1122326 0.022963136 -1.0324007
1.1281193 0.033337548 -1.0476053
1.1092584 0.030288994 -1.0458916
1.1018497 0.032792881 -1.0423775
1.0968903 0.027019039 -1.0486338
1.0756097 0.032874584 -1.0451698
1.0818675 0.036870793 -1.0592612
1.0794184 0.031345934 -1.0540309
1.0598049 0.0292546 -1.049307
1.1258937 0.037698165 -1.064225
1.1109486 0.037484601 -1.0635136
1.1059543 0.035174742 -1.063555
1.0955719 0.029336423 -1.0601774
1.0680208 0.032310992 -1.0594306
1.1252846 0.039096028 -1.0710423
1.094101 0.035449743 -1.0750877
1.0769469 0.037739247 -1.0696522
1.0650147 0.037483186 -1.0772195
1.113341 0.030872017 -1.0693426
1.1044899 0.040922612 -1.083365
1.085554 0.043887168 -1.083147
1.0745153 0.044047564 -1.0850681
1.112501 0.034969613 -1.0796299
1.0883182 0.033308476 -1.0782468
1.1243632 0.042854995 -1.0956875
1.0864515 0.039253265 -1.0931568
1.0724456 0.041133329 -1.0894011
1.0660292 0.040320009 -1.0972484
1.108036 0.035822645 -1.094512
1.0727768 0.048849389 -1.1027743
1.1309501 0.044676453 -1.103951
1.1089628 0.044943973 -1.1000248
1.1008843 0.044536561 -1.099925
1.0798767 0.044783458 -1.1015826
1.1344565 0.048071116 -1.111683
1.1153556 0.050722986 -1.1185169
1.1077576 0.04913941 -1.1112092
1.099281 0.048712477 -1.1143278
1.118338 0.040011495 -1.1127795
1.0943567 0.041236237 -1.109128
1.0760064 0.042308733 -1.1141326
1.0947385 0.052083701 -1.125946
1.0731074 0.051780283 -1.122508
1.112046 0.054598644 -1.1343417
1.0914522 0.05187948 -1.1369212
1.128221 0.047143623 -1.1283879
1.117008 0.048559994 -1.1287258
1.1271163 0.055984795 -1.1441427
1.1046844 0.057444721 -1.1473751
1.125489 0.046114922 -1.1398776
1.1184672 0.046330303 -1.1379442
1.1191672 0.053647831 -1.153533
1.0964502 0.056112096 -1.1526725
1.0870688 0.05676432 -1.1499527
1.1195022 0.058398336 -1.1634716
1.0924363 0.055862352 -1.1647716
1.1254463 0.052067146 -1.1587181
1.1117023 0.053123817 -1.1574702
1.1084381 0.05428645 -1.1640533
1.1260953 0.055899739 -1.1760809
1.1179682 0.061191499 -1.1746799
1.10095 0.059594452 -1.1715358
1.129618 0.053074613 -1.1734084
1.1266003 0.062131241 -1.1854655
1.1058617 0.060401976 -1.1786615
1.0999902 0.059380963 -1.184626
1.1059693 0.053762361 -1.1765531
1.1032598 0.06645529 -1.1931036
1.1434846 0.058661923 -1.194424
1.1256689 0.057036057 -1.1920432
1.1155469 0.055669606 -1.1944466
1.1232439 0.066061571 -1.2015135
1.1137798 0.062454551 -1.1992031
1.1085891 0.060460821 -1.2056133
1.0964279 0.061900169 -1.2023017
1.1054847 0.070917562 -1.2135966
1.1454151 0.063347936 -1.212615
1.1354326 0.066493481 -1.2096249
1.1244806 0.063872308 -1.2105494
1.1194022 0.062867492 -1.2112123
1.113385 0.062195793 -1.2090875
1.1332179 0.073023066 -1.2236772
1.1263415 0.066917732 -1.225885
1.1198875 0.069991872 -1.2175615
1.1312129 0.061249584 -1.2207482
1.1165129 0.06204845 -1.2212789
1.1331091 0.070667729 -1.230925
1.1289924 0.071910262 -1.2358204
1.1238383 0.068533108 -1.2286643
1.1083407 0.071382537 -1.2284888
1.1141483 0.064748168 -1.225787
1.1408597 0.07398212 -1.2432235
1.1177629 0.076220497 -1.2400836
1.1387495 0.06921488 -1.2446493
1.1091429 0.071551532 -1.2418344
1.1500323 0.075046211 -1.2484854
1.1253309 0.077834159 -1.2520058
1.1202279 0.072472841 -1.2469012
1.1371644 0.070620626 -1.2472581
1.13737 0.078763723 -1.2589805
1.1236675 0.076823443 -1.2625241
1.1042738 0.078248903 -1.2576538
1.1656843 0.0748059 -1.2673496
1.1485076 0.072400883 -1.2657369
1.1347899 0.077848151 -1.270613
1.1476673 0.079423591 -1.2805814
1.1230649 0.080760837 -1.2783618
1.1436729 0.087223768 -1.2909633
1.1041077 0.086601883 -1.2855636
1.16763 0.079528302 -1.285682
1.1570293 0.077844262 -1.2921764
1.1213617 0.082931578 -1.2870388
1.1695755 0.084250748 -1.3040141
1.1467453 0.090874121 -1.3053752
1.0995044 0.087125003 -1.3035152
1.1493461 0.082153395 -1.3019723
1.1393783 0.091201425 -1.3090463
1.1315101 0.084573895 -1.3097367
1.1054293 0.088239342 -1.3082368
1.1535754 0.081888795 -1.3086909
1.156998 0.091464028 -1.3217607
1.1519538 0.094917089 -1.321439
1.1039673 0.094391033 -1.3172927
1.1491621 0.086340219 -1.3190905
1.1364088 0.08746928 -1.3229606
1.1311809 0.08165507 -1.3212731
1.1184911 0.088898987 -1.3147155
1.1487261 0.095194668 -1.3310003
1.1332477 0.092459232 -1.3327646
1.1274709 0.093544796 -1.3336376
1.1343338 0.088690206 -1.327427
1.111761 0.10071605 -1.3423609
1.1644483 0.089563459 -1.3392737
1.1589285 0.096150056 -1.3399516
1.1493573 0.090946108 -1.3382434
1.139948 0.091019809 -1.340029
1.1338482 0.091897056 -1.3387053
1.1320475 0.094706893 -1.3382453
1.0971178 0.097866699 -1.3349134
1.157711 0.097079828 -1.3469465
1.1321474 0.097108081 -1.3503876
1.1141832 0.099556014 -1.3497754
1.1109821 0.10211083 -1.3493075
1.1511292 0.09028253 -1.3455213
1.1371439 0.090329573 -1.3459207
1.1223743 0.089320242 -1.3508024
1.1628649 0.097656682 -1.3578367
1.1540612 0.10201989 -1.3598806
1.1490221 0.095497862 -1.3562706
1.1313368 0.097484097 -1.356616
1.1216142 0.10014699 -1.3588735
1.1432135 0.094022483 -1.3582343
1.1510382 0.10605697 -1.3732142
1.1430057 0.1046454 -1.3677596
1.1243083 0.10443357 -1.3725539
1.1190763 0.10369964 -1.3651956
1.1539743 0.094430074 -1.3633462
1.1447026 0.099648491 -1.3702328
1.1044809 0.098484278 -1.3666186
1.1627896 0.10552208 -1.3763336
1.1509644 0.10692821 -1.3765152
1.1280146 0.10339853 -1.3778224
1.1652932 0.099391177 -1.3757886
1.1498499 0.09697628 -1.376864
1.1216797 0.10021316 -1.3804448
1.1023631 0.091681525 -1.3720515
1.16002 0.10865071 -1.3923366
1.12207 0.10970818 -1.390461
1.1532193 0.10699737 -1.3877268
1.1435937 0.1043324 -1.3879887
1.1282485 0.10833479 -1.389117
1.1189513 0.096529946 -1.383316
1.0951986 0.098220855 -1.3875511
1.1622376 0.10955091 -1.3966238
1.1173774 0.11211495 -1.3963875
1.1038945 0.10917351 -1.3957567
1.1640638 0.10335732 -1.3941689
1.1492642 0.10024923 -1.3946909
1.1446295 0.099407688 -1.3942878
1.1249224 0.10034296 -1.3967609
1.1181223 0.09683004 -1.3979549
1.1563011 0.10999802 -1.4083086
1.1502047 0.11121742 -1.4046589
1.1377968 0.11357029 -1.4090774
1.1280991 0.11382863 -1.4036355
1.1093577 0.11330448 -1.4100159
1.1434624 0.10421723 -1.4108316
1.1308932 0.10415597 -1.4102061
1.1241515 0.10095043 -1.4111295
1.1120809 0.099911168 -1.4026769
1.1599122 0.11410733 -1.4139895
1.1346101 0.11163373 -1.4149511
1.1048495 0.1063938 -1.4179657
1.1763443 0.10480684 -1.4145933
1.1575867 0.11866373 -1.4313554
1.1526009 0.11860892 -1.4277593
1.1382127 0.11840948 -1.4270574
1.1148211 0.11743546 -1.4242752
1.1617367 0.11158289 -1.430622
1.1552186 0.11166576 -1.4261619
1.1503785 0.10701251 -1.430022
1.1423057 0.10839754 -1.4279617
1.1368643 0.10796897 -1.4236512
1.1186301 0.10551795 -1.4266282
1.105636 0.10543925 -1.4268409
1.157457 0.11789441 -1.442093
1.1374127 0.1157192 -1.4325091
1.1315851 0.11402284 -1.4375268
1.1144352 0.11355935 -1.4395984
1.1345057 0.10788578 -1.4331756
1.1102703 0.10702769 -1.4321668
1.1620904 0.12295963 -1.4512855
1.1264647 0.12103307 -1.4500581
1.1756637 0.11405084 -1.4512039
1.166983 0.1190466 -1.4488182
1.1530113 0.11352712 -1.4462514
1.1468633 0.11174998 -1.4461868
1.1266577 0.1122556 -1.4486151
1.121514 0.10760704 -1.4446204
1.1163291 0.10770604 -1.44542
1.1099193 0.10929017 -1.4427947
1.1578252 0.12456961 -1.4601191
1.1505646 0.11020638 -1.4526578
1.1312367 0.1154844 -1.4516354
1.1142026 0.11314109 -1.4587485
1.1102339 0.11416012 -1.4596726
1.1753231 0.11867282 -1.4695094
1.1674398 0.12115267 -1.4649671
1.1372268 0.11957821 -1.4647247
1.1308025 0.12494247 -1.4654075
1.119326 0.11865328 -1.4635875
1.1561697 0.11473365 -1.4662635
1.1500739 0.11194468 -1.4632698
1.1250241 0.11147504 -1.4614409
1.1648324 0.12466928 -1.4800906
1.1540444 0.12900053 -1.476244
1.1381704 0.12752403 -1.477765
1.1432171 0.12367198 -1.4778141
1.1170733 0.11762774 -1.4742693
1.1120017 0.12498049 -1.4783517
1.1524802 0.11485651 -1.4707096
1.1329709 0.13337052 -1.4911143
1.1782401 0.12878941 -1.490652
1.167828 0.12887433 -1.4853332
1.1607234 0.12534279 -1.4851177
1.1520313 0.13031934 -1.4874279
1.1321101 0.13017979 -1.4837486
1.1658959 0.12386709 -1.4829476
1.158096 0.11711603 -1.4861096
1.1526291 0.11950545 -1.4825457
1.1210874 0.12236679 -1.4880002
1.1631732 0.13179915 -1.4963903
1.1348917 0.13423492 -1.5011764
1.1289768 0.12682621 -1.494002
1.1687965 0.11724961 -1.4906309
1.1318214 0.11891527 -1.4973983
1.1227692 0.12084295 -1.490656
1.1827555 0.13175455 -1.5059488
1.1441941 0.13389699 -1.5046252
1.1338023 0.13091268 -1.5092093
1.1772065 0.12695114 -1.5028118
1.1707269 0.12193564 -1.5088218
1.162073 0.12256402 -1.5030438
1.1603858 0.12992936 -1.5032828
1.1381825 0.12422989 -1.5024568
1.1270525 0.12469387 -1.5066098
1.1583166 0.12033145 -1.5065629
1.1590389 0.13474888 -1.5135467
1.1501458 0.13796452 -1.5176305
1.143646 0.12836085 -1.5167161
1.1369272 0.12280695 -1.5117356
1.1143545 0.13927208 -1.5229156
1.1831813 0.13670655 -1.524348
1.1778674 0.13146505 -1.5224415
1.1743022 0.13253881 -1.5244253
1.1582273 0.12880696 -1.5248647
1.1407866 0.1278972 -1.5244671
1.131336 0.12854479 -1.5225636
1.1259447 0.12917335 -1.5273602
1.1716787 0.12566477 -1.5238516
1.1546724 0.12532462 -1.5230172
1.1462487 0.12525171 -1.5250283
1.1692456 0.13586047 -1.5359783
1.1676538 0.14165583 -1.536586
1.1404556 0.14234522 -1.5360316
1.1311707 0.14121377 -1.5387616
1.150655 0.13090552 -1.5345045
1.1356193 0.13239571 -1.5385174
1.1647909 0.14362669 -1.5495616
1.1836624 0.14230807 -1.5447999
1.1767331 0.13625734 -1.5406084
1.1739618 0.13716085 -1.5427306
1.1545727 0.13662282 -1.5452346
1.160143 0.13345711 -1.5429164
1.1425745 0.13081498 -1.5455432
1.1351628 0.12656593 -1.5411464
1.1267594 0.12699689 -1.5451849
1.1570308 0.14431758 -1.5554148
1.1482216 0.14288343 -1.5588193
1.1359628 0.14527212 -1.553864
1.1755989 0.14104967 -1.5587753
1.1661627 0.14017589 -1.553293
1.1399026 0.13624667 -1.5544711
1.1581525 0.13338676 -1.551039
1.1783433 0.14740136 -1.5626557
1.1531042 0.14725864 -1.5700383
1.1880821 0.13984813 -1.5643418
1.1641042 0.13745432 -1.5640442
1.1620588 0.13810724 -1.5609682
1.1329144 0.13685362 -1.5607588
1.1315517 0.13105521 -1.5602875
1.1743242 0.14620511 -1.5737522
1.163527 0.14362437 -1.5748138
1.159438 0.14594245 -1.5750923
1.1392138 0.14487076 -1.5748432
1.1315384 0.14221227 -1.5690925
1.1363438 0.13511352 -1.5753899
1.1804799 0.150282 -1.583158
1.1703194 0.15109725 -1.587044
1.1464834 0.1532564 -1.5851836
1.187739 0.14450604 -1.5827892
1.1484692 0.14394854 -1.5863786
1.1875817 0.13693218 -1.5831399
1.1701819 0.13700676 -1.5822247
1.1735305 0.14892775 -1.593913
1.162636 0.15248854 -1.5905306
1.1516162 0.14941905 -1.5944065
1.1431701 0.15133666 -1.5902911
1.1405101 0.14185287 -1.592325
1.1797695 0.1541224 -1.6084599
1.1923386 0.15331864 -1.6054833
1.187396 0.14916395 -1.6012368
1.1831999 0.15364172 -1.601146
1.1527525 0.14779946 -1.6023325
1.1839352 0.14184682 -1.5999094
1.166483 0.14207463 -1.5989249
1.1474179 0.14337683 -1.606379
1.1393468 0.1388645 -1.5975488
1.1859478 0.15756889 -1.6169076
1.1795886 0.15787067 -1.6184132
1.1543245 0.15776964 -1.6132975
1.1317114 0.15569404 -1.6149715
1.1802888 0.14676146 -1.616679
1.1706243 0.15156937 -1.6101632
1.1433687 0.14837401 -1.6108568
1.2043717 0.15640366 -1.6281521
1.2017173 0.15196805 -1.6234713
1.1675179 0.15591761 -1.6276094
1.1468536 0.15221418 -1.6275561
1.1795452 0.14483516 -1.6208375
1.1762654 0.14553078 -1.6209167
1.1507206 0.14728849 -1.6206975
1.1426742 0.1496567 -1.6201597
1.1871762 0.15805717 -1.6347041
1.1766422 0.15167615 -1.6334484
1.1697216 0.15670785 -1.6331749
1.1480296 0.15370601 -1.634137
1.1432904 0.15336676 -1.6342925
1.1359353 0.15949142 -1.6307033
1.2019558 0.16113716 -1.6461929
1.189832 0.16061133 -1.6411365
1.140159 0.16328876 -1.6464351
1.186201 0.14903881 -1.6432446
1.1799707 0.14978719 -1.6392367
1.1510961 0.15347558 -1.6449839
1.199136 0.16030505 -1.6522744
1.18628 0.16400513 -1.6575576
1.1782843 0.15875578 -1.6503242
1.1716373 0.16135794 -1.6512268
1.1533849 0.15775533 -1.6481144
1.1359482 0.15936483 -1.6477021
1.1729958 0.15659079 -1.6502179
1.1995398 0.16587071 -1.6642337
1.1451045 0.16972028 -1.6628995
1.1319346 0.1689814 -1.6602241
1.198882 0.16162436 -1.6586294
1.1406629 0.16262193 -1.6606247
1.1546354 0.15495203 -1.6631398
1.2090497 0.16346574 -1.6746844
1.1977298 0.16649173 -1.6770806
1.1827493 0.17210677 -1.67709
1.1715795 0.16951485 -1.6708678
1.1687546 0.17055744 -1.6702151
1.1336324 0.1701806 -1.6743462
1.1892118 0.1616383 -1.6733878
1.1818466 0.15985663 -1.6743156
1.1469913 0.17430025 -1.6806788
1.1912326 0.16956764 -1.6859827
1.145403 0.16737162 -1.6774982
1.178691 0.15932861 -1.6771524
1.1574172 0.15900718 -1.6805675
1.131433 0.15830073 -1.6816394
1.1965777 0.17135908 -1.6955317
1.178915 0.17339523 -1.6933349
1.171239 0.17413683 -1.6891731
1.1655649 0.17280421 -1.6958297
1.1501303 0.17137499 -1.6923963
1.1860574 0.16605359 -1.6911031
1.1812479 0.16464332 -1.6944344
1.1607928 0.1675747 -1.6943535
1.1464986 0.16498971 -1.6950068
1.1708986 0.17875884 -1.7074784
1.194708 0.17533772 -1.7003152
1.1488781 0.1788803 -1.6984584
1.2068148 0.16201371 -1.7012292
1.1481013 0.16012879 -1.6994628
1.2151027 0.17137709 -1.7145499
1.1698184 0.17662816 -1.7116718
1.1548575 0.17537838 -1.7072942
1.1501447 0.17116417 -1.7103471
1.192292 0.18007126 -1.718356
1.1649241 0.18172276 -1.7198082
1.1604314 0.18082865 -1.7236434
1.1544895 0.17712593 -1.7249675
1.2102612 0.17460331 -1.7190509
1.1989013 0.16666651 -1.7233629
1.1963826 0.16782786 -1.7168444
1.1793776 0.18346155 -1.7365454
1.2110904 0.17607932 -1.7316623
1.2293214 0.16902496 -1.7311153
1.1801147 0.16919413 -1.7341864
1.1657625 0.17117266 -1.7328504
1.1595212 0.16873954 -1.7318276
1.1558911 0.16654041 -1.7297275
1.1812159 0.1846087 -1.7414852
1.170218 0.18800285 -1.744089
1.2241365 0.17790213 -1.7429355
1.1712474 0.1790951 -1.7444514
1.1636713 0.17990808 -1.7449681
1.150166 0.17309268 -1.743127
1.1417592 0.17679696 -1.7430538
1.2134203 0.1706326 -1.7418054
1.2118071 0.17105664 -1.7396222
1.1687267 0.19095235 -1.7556375
1.2192119 0.18195058 -1.7478733
1.1931216 0.18596104 -1.7508854
1.1874602 0.18953829 -1.7544376
1.1690396 0.18738852 -1.7519884
1.1497144 0.18630743 -1.7529941
1.1331943 0.18768546 -1.7492262
1.2286396 0.17640577 -1.7535551
1.1907631 0.1779155 -1.7503651
1.1821603 0.17898616 -1.7480104
1.1351587 0.1783648 -1.7530122
1.1254473 0.1805914 -1.7531008
1.1741197 0.16955154 -1.7478209
1.1607724 0.17152089 -1.7466581
1.144806 0.17009282 -1.752581
1.1774406 0.19230755 -1.7639347
1.1260314 0.19376701 -1.7655584
1.1959947 0.18353269 -1.7583145
1.1734402 0.18371494 -1.7619649
1.15415 0.18768257 -1.7593384
1.1304947 0.18463916 -1.7573327
1.1092668 0.18633884 -1.7632103
1.1811972 0.1728088 -1.7569251
1.1646883 0.17336407 -1.7583249
1.1571406 0.17717372 -1.7620023
1.1398932 0.17898418 -1.7571402
1.1351489 0.17615446 -1.7580076
1.1176375 0.1752947 -1.7545708
1.0899673 0.17207691 -1.7587037
1.1782261 0.1891598 -1.7694106
1.1563733 0.18942653 -1.7733831
1.1472785 0.19346216 -1.7707114
1.1427256 0.19148545 -1.7723511
1.126611 0.19562112 -1.7687463
1.1069386 0.19199099 -1.7674705
1.0850962 0.19398555 -1.7725549
1.1645482 0.17899141 -1.7690668
1.1452237 0.1809867 -1.7684239
1.1277535 0.18066084 -1.7687879
1.1195903 0.18624371 -1.7673407
1.1115689 0.18254846 -1.77341
1.1074011 0.18110807 -1.7688155
1.0961322 0.18257481 -1.7648501
1.1411594 0.17500746 -1.7693504
1.1059759 0.17266372 -1.7676022
1.1030171 0.17390507 -1.7703688
1.0911371 0.17239344 -1.7640362
1.0890284 0.17853932 -1.7689897
1.1307017 0.19711295 -1.7779809
1.1260844 0.19627672 -1.7783839
1.1125132 0.19139986 -1.7809346
1.1049039 0.19088744 -1.7798439
1.0944009 0.18743128 -1.7821733
1.0871911 0.18797739 -1.7778159
1.1494906 0.18226594 -1.7794574
1.141951 0.18349284 -1.7747583
1.1343458 0.18645166 -1.7751577
1.1201223 0.17987855 -1.7801514
1.1110181 0.18614195 -1.779469
1.0817406 0.17981637 -1.7788022
1.0665551 0.18582125 -1.7787527
1.1365409 0.17527758 -1.774338
1.086159 0.17653997 -1.7749457
1.0988368 0.19723496 -1.7942536
1.0884888 0.19656858 -1.7899666
1.0805788 0.20019034 -1.7869322
1.0739557 0.19993827 -1.7857757
1.121444 0.18992941 -1.7876351
1.1184121 0.19239302 -1.7868816
1.1079761 0.18739071 -1.7899324
1.1038371 0.18549059 -1.791177
1.0784308 0.19329804 -1.7906193
1.0646883 0.18808451 -1.7897509
1.0568523 0.19128735 -1.7916988
1.1196585 0.18173465 -1.7845985
1.1123379 0.17616799 -1.7892939
1.0811126 0.18181477 -1.7916777
1.0687416 0.18461351 -1.7905928
1.0499233 0.18242082 -1.78958
1.1075125 0.17494605 -1.785248
1.1022071 0.17533962 -1.7863688
1.0845799 0.20378745 -1.8018345
1.1230015 0.20059215 -1.7956985
1.1160692 0.1969838 -1.8043783
1.1075749 0.19591641 -1.8005126
1.0579785 0.2001476 -1.800124
1.0560957 0.20122601 -1.8038729
1.1159596 0.18680251 -1.8012985
1.1074607 0.19030756 -1.7964778
1.0932562 0.19280672 -1.7998641
1.096693 0.18214144 -1.8008262
1.0885932 0.18138945 -1.7991635
1.0761387 0.17788617 -1.7996002
1.0398186 0.17820737 -1.7930191
1.0826744 0.20321053 -1.8073046
1.0495604 0.20528413 -1.8125142
1.0993645 0.19312508 -1.8112873
1.0846807 0.20103161 -1.8062085
1.0473349 0.19667117 -1.8044809
1.0391769 0.19999415 -1.810892
1.0345231 0.19801317 -1.8123579
1.100777 0.1897738 -1.8083621
1.0785428 0.18546608 -1.8074297
1.075194 0.18734847 -1.811775
1.06725 0.19016401 -1.8043982
1.0577573 0.19059573 -1.8035774
1.0415592 0.18767594 -1.8020406
1.0303912 0.1836566 -1.8056774
1.0855325 0.17781584 -1.8016834
1.0529593 0.17968585 -1.8072424
1.0400445 0.17706221 -1.8043687
1.100396 0.20280144 -1.8157977
1.0808725 0.2054947 -1.8224505
1.0408535 0.20460688 -1.8168285
1.1039034 0.19447318 -1.8134866
1.0881385 0.19825749 -1.8163768
1.0838964 0.19731155 -1.8201184
1.0647527 0.19325042 -1.8216043
1.0492198 0.19466273 -1.8191757
1.0385022 0.19178851 -1.8207654
1.0816277 0.18532388 -1.8151382
1.0635196 0.18414502 -1.8125246
1.0447879 0.1912338 -1.8175123
1.0348126 0.18656385 -1.8162743
1.0294197 0.18301317 -1.817073
1.064775 0.21102722 -1.8322061
1.0536106 0.21174176 -1.8304471
1.0442462 0.21181549 -1.8336687
1.0980705 0.20735785 -1.8331635
1.0874784 0.19981013 -1.8237611
1.084572 0.20306429 -1.8327781
1.0564151 0.20183364 -1.8232874
1.0430751 0.2034988 -1.8254111
1.0363917 0.20039751 -1.831369
1.0240537 0.20377015 -1.824931
1.0661268 0.19382085 -1.8233957
1.0278698 0.19167516 -1.8279223
1.081661 0.18357411 -1.8251253
1.075857 0.18671635 -1.8233752
1.0660235 0.18867113 -1.8278611
1.0329629 0.18740551 -1.8217889
1.0189859 0.18887517 -1.8296131
1.0689976 0.21132654 -1.839087
1.0137045 0.20945017 -1.8373207
1.0793829 0.20434646 -1.8375902
1.071309 0.20506732 -1.8338916
1.0638354 0.19831017 -1.8405057
1.0534223 0.20602275 -1.8400952
1.0469733 0.20700347 -1.8399302
1.0404273 0.20574209 -1.833172
1.0733348 0.18849683 -1.8395331
1.0655342 0.18895075 -1.8352457
1.0586812 0.19557376 -1.8334183
1.0480165 0.19479166 -1.8329841
1.0388972 0.19638342 -1.8378378
1.0355345 0.19115444 -1.8379004
1.0631733 0.18464783 -1.8314167
1.045239 0.18378665 -1.8367537
1.0609944 0.21545807 -1.8483312
1.0826569 0.21305448 -1.8442888
1.0632617 0.21045154 -1.8471473
1.0553263 0.2102519 -1.8438469
1.0311173 0.21095851 -1.8454872
1.0035487 0.21504581 -1.8495564
1.0276202 0.20192686 -1.8459841
1.0237079 0.20605451 -1.8433719
1.0145575 0.19801754 -1.8464029
1.0765977 0.19646963 -1.8446447
1.0624831 0.19344294 -1.844143
1.0572581 0.19471818 -1.8490762
1.0486144 0.19217905 -1.8435011
1.0317432 0.19515747 -1.8423491
1.0237069 0.18761423 -1.8466878
1.0086721 0.19465885 -1.8419701
1.0496216 0.21539599 -1.8585298
1.0103191 0.21751177 -1.8538235
1.0650699 0.21373603 -1.8587296
1.0203571 0.20650658 -1.853629
1.0671184 0.19885522 -1.8561554
1.0610238 0.20114186 -1.8581241
1.0414358 0.20084688 -1.8584919
1.0079697 0.20105335 -1.8584224
1.0438032 0.19126838 -1.8561786
1.0305809 0.18920657 -1.8519696
1.0215132 0.18705273 -1.8543518
1.0438046 0.22138649 -1.872792
1.0361431 0.21940383 -1.8701835
1.012839 0.22118506 -1.8696101
1.0052791 0.219246 -1.8658615
1.0629742 0.20912376 -1.8635523
1.0433062 0.20410478 -1.8698395
1.0357553 0.20904148 -1.8656033
1.0235225 0.20999452 -1.8687969
1.0149562 0.20827591 -1.8624243
1.0461147 0.19832772 -1.8618267
1.0179387 0.19494382 -1.8638246
1.0268931 0.19112524 -1.8619559
1.0007309 0.18892521 -1.8630897
1.0070094 0.22344616 -1.8821666
1.0615293 0.21850789 -1.8750117
1.0474371 0.21440101 -1.8737109
1.0350893 0.21404356 -1.8791593
1.0230759 0.21463647 -1.8773606
1.0154492 0.21386904 -1.8798362
1.0613545 0.20586628 -1.8736062
1.0426357 0.20240191 -1.8784621
1.0378445 0.20576745 -1.8747066
1.0278559 0.209914 -1.8790975
1.0121568 0.20311746 -1.8748063
1.0080448 0.20689178 -1.874243
1.0416493 0.19848287 -1.8754267
1.0188437 0.19622013 -1.8736969
1.0418706 0.19261447 -1.8708823
1.0219053 0.19161466 -1.8713017
1.0458744 0.22425178 -1.8843211
1.0216757 0.21973026 -1.8903432
1.044378 0.21574807 -1.8879422
1.0126579 0.21563762 -1.8882425
0.99910992 0.21199945 -1.8860278
1.0473392 0.20886648 -1.8817934
1.0109044 0.20124793 -1.8852866
0.99019647 0.21015811 -1.8823711
1.0360618 0.19529426 -1.8876978
1.0294563 0.19841635 -1.8823535
1.0176227 0.19923481 -1.880819
1.0100726 0.19759285 -1.8833635
1.0032507 0.19259846 -1.8788761
1.0448889 0.22247443 -1.8937533
1.02276 0.21892744 -1.8943549
1.0080551 0.22257251 -1.8966203
1.0435586 0.2132974 -1.8979183
1.0342535 0.21068808 -1.8909215
1.015735 0.21733502 -1.8960834
0.99191493 0.21432939 -1.8985636
0.99036479 0.21703047 -1.8976812
1.0391564 0.20647606 -1.8950975
1.0386566 0.20267197 -1.8922344
1.0237558 0.20280379 -1.8981864
1.0172389 0.2023533 -1.8960485
1.0030764 0.20620948 -1.896729
0.99568081 0.1959345 -1.8910158
1.0414096 0.22654858 -1.9103886
1.0417445 0.22007078 -1.9048386
1.027805 0.21873775 -1.9070425
0.9999491 0.22461471 -1.9032227
1.0306621 0.21560869 -1.9071363
0.99536049 0.21110579 -1.9080281
1.010462 0.20212242 -1.900193
0.9862929 0.20133385 -1.9027011
1.0374649 0.19784394 -1.8991305
1.0203984 0.23220488 -1.9169692
1.0030533 0.22803542 -1.9180983
1.0397629 0.22181869 -1.9193349
1.0216602 0.2212697 -1.9112723
1.0161245 0.22186455 -1.9129128
1.0041158 0.21929678 -1.9173893
0.98201227 0.21981934 -1.9102038
1.0356705 0.20870569 -1.9103876
1.0150226 0.20869684 -1.9105022
1.0108514 0.20665196 -1.9170225
1.0048825 0.20911664 -1.9092727
1.0336841 0.20227486 -1.9152555
1.024702 0.19998962 -1.9090509
1.0148367 0.20402196 -1.9128666
0.99077183 0.19759685 -1.9128337
0.99540126 0.23275954 -1.9291942
1.0381947 0.22879556 -1.9255793
1.0223238 0.22799009 -1.9269512
1.0099832 0.22866943 -1.9227126
1.0043839 0.22759035 -1.9245826
0.99533767 0.22427967 -1.9288355
0.98371905 0.22396216 -1.9262861
1.0296345 0.21757683 -1.9258596
1.0240515 0.22313684 -1.9230517
1.0332689 0.20855942 -1.9237634
1.0211107 0.20491019 -1.9252658
1.0139619 0.21317816 -1.9274898
0.99553329 0.21457925 -1.9217297
0.99935383 0.20509911 -1.9219912
0.98794764 0.20168009 -1.9216536
1.0096694 0.23292994 -1.939586
1.0292461 0.22305459 -1.934499
1.0202978 0.22753599 -1.939061
1.000757 0.21883407 -1.9382285
0.99084187 0.2193366 -1.9339693
0.98053426 0.22006562 -1.9316998
1.0299034 0.20670572 -1.9313805
1.023163 0.20764512 -1.9361824
0.99914819 0.21248531 -1.9286631
0.99060702 0.21017572 -1.9334073
0.97878951 0.20947334 -1.9308405
0.97519565 0.20498773 -1.9350855
1.0349588 0.23292717 -1.9423009
1.0184938 0.233174 -1.9413061
1.0047705 0.23208785 -1.941293
0.99848574 0.23615846 -1.9439752
1.0355527 0.2244578 -1.9470773
0.98601347 0.22865534 -1.9412359
1.0291986 0.21696898 -1.9438308
1.0142479 0.21219337 -1.9402646
0.99953485 0.21698281 -1.9453737
0.98190182 0.21519491 -1.944645
0.96903068 0.21496049 -1.9421786
1.031592 0.21052501 -1.9386612
0.99520469 0.20343068 -1.941377
0.98628247 0.20591375 -1.9387441
1.030972 0.23877111 -1.9602947
0.9908514 0.24080813 -1.9548153
1.0352139 0.23073152 -1.9533039
1.0324736 0.23534667 -1.9577501
1.0198883 0.23037037 -1.9557806
1.0165442 0.23193508 -1.9550705
1.0093558 0.23719046 -1.9564598
1.0052563 0.23868653 -1.9519459
0.99323344 0.23769793 -1.9526999
0.98810178 0.23252711 -1.9570144
1.0257312 0.22779211 -1.9506638
1.0145175 0.22043198 -1.952179
0.99970388 0.22328314 -1.9550945
0.99392635 0.22273561 -1.94875
0.99000657 0.22289565 -1.9554082
1.019648 0.21238258 -1.952347
1.016982 0.21607578 -1.9487698
1.0104944 0.21659249 -1.9562739
1.0295489 0.20872444 -1.9490062
0.97872585 0.21075594 -1.9496175
0.99361748 0.24216387 -1.9692937
1.0213969 0.23433244 -1.9650675
1.0252397 0.22277275 -1.9616392
1.0147239 0.22049978 -1.965631
0.99701083 0.22613457 -1.9635309
1.0259316 0.21368101 -1.9653397
0.99389583 0.20985892 -1.9632685
0.98328739 0.21827728 -1.9615622
0.99415159 0.20787978 -1.9582429
0.98660249 0.20790857 -1.9574738
1.0284868 0.24119049 -1.9757442
1.0109164 0.23889256 -1.9722067
0.99154121 0.23640689 -1.9710522
0.97731715 0.23758078 -1.969602
1.016297 0.23529094 -1.9719954
1.0036275 0.22615868 -1.9767672
0.99865091 0.2277323 -1.9719601
0.98841834 0.2271646 -1.9733456
1.0091436 0.22279117 -1.9705738
0.9868418 0.22239614 -1.9755937
0.97242105 0.22319004 -1.9741254
1.0161328 0.21712002 -1.9685119
0.9927749 0.21252033 -1.9717071
0.99536669 0.24668378 -1.9850254
1.0306648 0.23964426 -1.9872733
0.9940111 0.24000755 -1.9865265
0.97901237 0.24169552 -1.9855754
1.0217606 0.2268469 -1.9782745
0.97822082 0.2273019 -1.9864819
1.022314 0.21863765 -1.9816731
0.98321927 0.21216518 -1.9773977
1.0252509 0.24532211 -1.9924657
0.9853431 0.2447978 -1.9973428
1.0306184 0.23638937 -1.990682
1.0247002 0.23932761 -1.9960779
1.0207006 0.22780678 -1.9930816
1.0182813 0.23092115 -1.9949099
1.0033138 0.23041919 -1.9936408
0.99759775 0.2321814 -1.9888259
0.98880225 0.23163059 -1.9899393
0.97411615 0.22730476 -1.990099
1.0246297 0.22238109 -1.9909962
0.98901248 0.21657372 -1.9914786
0.97188765 0.2178773 -1.9884629
1.0028299 0.21294683 -1.9872534
1.002097 0.25203386 -2.0025432
1.0283905 0.24410066 -2.0042579
1.0234954 0.24791402 -2.0081737
1.0151861 0.24200445 -1.9991583
0.99642044 0.25096801 -2.0009179
0.98070753 0.24581036 -2.0015488
1.0328451 0.2390227 -2.0023332
0.99654472 0.23663056 -2.0056918
0.99011523 0.23594022 -2.0054302
0.9758113 0.23141956 -2.0060725
1.0246006 0.22590393 -2.0050769
1.0186963 0.22359425 -1.9980066
0.96076113 0.22350532 -1.9993987
1.012549 0.21492273 -1.9962542
1.0205345 0.25099364 -2.0102012
0.99543911 0.25538027 -2.018373
0.97099221 0.25101691 -2.012331
1.0210825 0.24428427 -2.0124114
1.0116711 0.24674189 -2.0153232
0.99895114 0.24720886 -2.0174751
1.0162549 0.23349559 -2.0107174
1.0150789 0.22855082 -2.0143404
0.99178183 0.22959739 -2.0065424
0.99099231 0.22122714 -2.0088403
0.98566788 0.22059977 -2.0077369
0.97600603 0.2169601 -2.0063663
1.0233094 0.25033006 -2.0231118
1.0170553 0.2550678 -2.0268364
0.9726761 0.25510406 -2.0281968
1.0411807 0.24264398 -2.0264871
0.99549162 0.24107963 -2.0225577
0.99073267 0.24001428 -2.0210819
0.97781307 0.24164212 -2.0173953
1.0188148 0.23160931 -2.0242631
0.98312837 0.23445597 -2.0172274
0.97750652 0.23553431 -2.0220459
1.0329965 0.2246688 -2.0166085
0.97845989 0.22053716 -2.021739
0.97265023 0.22674718 -2.021419
1.0296035 0.24841565 -2.0369837
1.0238415 0.25301346 -2.0382268
1.0081561 0.25147939 -2.0314879
1.0014211 0.25080955 -2.0329494
1.0113231 0.23906946 -2.0281806
1.0056921 0.23819581 -2.0330753
0.98558217 0.23803294 -2.0326004
0.97867823 0.2452704 -2.0315223
1.0147151 0.23618495 -2.0266972
1.0114613 0.23350748 -2.0306737
1.0349978 0.22696441 -2.0277171
1.0055907 0.22307107 -2.029525
0.98993927 0.2256763 -2.0257063
0.98535651 0.22483012 -2.0244911
0.97261029 0.22114363 -2.0265694
1.0175101 0.25629234 -2.0417895
1.0114318 0.25869867 -2.0455418
0.99270451 0.25552887 -2.0434613
1.0373447 0.24713963 -2.0428481
1.0117223 0.24037406 -2.043505
0.99443853 0.24552876 -2.0394232
0.98995411 0.24502876 -2.0397201
0.97920161 0.23964909 -2.0380194
1.0311618 0.23146015 -2.0440781
1.0138694 0.23518354 -2.0412238
0.98888618 0.23012543 -2.0425718
0.9849 0.22954494 -2.0425088
0.9809137 0.22411415 -2.0371122
0.97430545 0.22525835 -2.0425429
1.0259591 0.25340891 -2.0534377
0.99737275 0.2571049 -2.0549448
0.99010968 0.24847504 -2.0545905
0.97857565 0.250512 -2.0503514
1.019941 0.23993278 -2.0542426
0.98803598 0.24161008 -2.0479732
0.99758071 0.22698417 -2.0522611
0.9833675 0.22769117 -2.052485
1.0070297 0.26267937 -2.0644729
1.0284694 0.254724 -2.0641048
1.0267965 0.25976467 -2.0667369
0.99515831 0.25910595 -2.0588341
1.0335085 0.25163537 -2.0592089
1.0054765 0.24902827 -2.063391
0.99048984 0.2451871 -2.0633459
1.0273257 0.23595586 -2.0604391
1.0156707 0.24171972 -2.0575533
0.99244326 0.24261597 -2.0594993
0.97341269 0.23561707 -2.0543752
0.9847334 0.23329088 -2.0579998
1.0222405 0.26252723 -2.0685081
1.0108176 0.26021305 -2.0766826
0.99761212 0.26268294 -2.0742068
1.0223149 0.25840214 -2.0698922
0.98979813 0.2527054 -2.0713446
0.97895688 0.25494698 -2.0668292
1.0209661 0.24372897 -2.0684652
1.0163664 0.24448159 -2.0708485
1.0011762 0.24704379 -2.0667975
1.0222971 0.23908907 -2.0658128
0.99988401 0.23351353 -2.0665624
1.0106912 0.23029402 -2.0712166
0.99532282 0.23140824 -2.0691226
0.9875136 0.22812712 -2.0640538
0.98582125 0.23126826 -2.0678577
1.0249031 0.25953075 -2.0805058
1.0007862 0.26539057 -2.0871096
1.0419313 0.25537503 -2.0839753
1.0044158 0.25350943 -2.0803788
1.0234898 0.2404516 -2.0767999
1.0187308 0.24389589 -2.0822139
0.99414998 0.24675885 -2.0755818
0.99294358 0.2487641 -2.0787187
0.99882334 0.23799479 -2.08355
0.98922032 0.23226997 -2.0801361
0.98497242 0.2382414 -2.0758567
0.97726846 0.23608357 -2.0780759
1.0361712 0.26329166 -2.0920219
1.0309844 0.26596549 -2.0938821
1.017018 0.26638263 -2.0891807
0.99110597 0.25842685 -2.0895007
1.0302974 0.24713704 -2.0937631
1.0120413 0.25057369 -2.0890715
0.99585664 0.25090167 -2.0916641
0.98948663 0.25693581 -2.088099
0.98411041 0.24175164 -2.0915084
0.99306488 0.23583224 -2.0859833
0.97939086 0.23760265 -2.0904634
1.0147434 0.27083898 -2.1061652
1.0432436 0.26193753 -2.1038733
1.0380669 0.25990394 -2.100457
1.0334951 0.2636435 -2.1055806
1.0033551 0.25799069 -2.0973663
0.98917514 0.26116619 -2.1048532
1.0247666 0.24670509 -2.0969975
1.0318385 0.24410868 -2.101696
0.99777079 0.24241576 -2.100193
1.033134 0.26754305 -2.1090796
1.0142545 0.26855555 -2.1090677
1.0090691 0.25452811 -2.1110804
1.0028479 0.26221505 -2.1134162
1.0272686 0.24964073 -2.109061
1.0210952 0.25173533 -2.1135736
0.98379892 0.24598205 -2.1082628
1.0029508 0.23933893 -2.1108489
0.98108608 0.24171749 -2.1064365
1.0159729 0.27272683 -2.1252606
1.0465366 0.26373586 -2.1256795
1.0397086 0.26822993 -2.1201091
1.0299023 0.26848584 -2.1221032
1.0340116 0.25309697 -2.1210196
1.0236845 0.25273535 -2.1238239
0.99927008 0.25918734 -2.1238286
1.0279741 0.24863753 -2.1181779
0.9974339 0.24690503 -2.1170423
1.0248835 0.27462864 -2.131377
1.0037881 0.26645553 -2.129189
1.0189435 0.25876221 -2.1337361
0.9953894 0.24921095 -2.1320639
0.99434054 0.24469849 -2.1283834
1.0553803 0.2705029 -2.1437595
1.0489036 0.27299541 -2.1458027
1.0263095 0.27332804 -2.1386259
1.0176914 0.27689803 -2.141453
1.0131569 0.26486123 -2.1373754
1.0367219 0.25487825 -2.1366336
0.99709684 0.25139454 -2.1338913
1.030345 0.28251523 -2.1565938
1.0551465 0.2676242 -2.151288
1.0483701 0.27140337 -2.1464977
1.0395796 0.27543685 -2.1520643
1.012567 0.2678906 -2.1527281
1.0041747 0.27095297 -2.1458998
1.012728 0.26230985 -2.1460388
1.0459116 0.25405368 -2.1498668
1.0421854 0.25519559 -2.1484849
1.0076597 0.24582872 -2.1486833
0.9960472 0.24884135 -2.1444654
1.0304298 0.28556687 -2.1608386
1.0453194 0.27719244 -2.1629398
1.0332756 0.27931863 -2.1604495
1.0123622 0.27063656 -2.1561277
1.0463352 0.25842014 -2.1628418
1.0291399 0.26249319 -2.1593065
1.0446684 0.25607279 -2.1585407
1.0110301 0.25485289 -2.1567452
1.0071138 0.25248882 -2.1561866
1.0365198 0.27972001 -2.1692498
1.0166926 0.27459499 -2.1694648
1.0512244 0.27222088 -2.1680162
1.0264297 0.26547045 -2.1685865
1.0384588 0.26030174 -2.1653109
1.0306022 0.26344454 -2.1710036
1.0190815 0.25408369 -2.167274
1.009483 0.25189283 -2.1668172
1.0422368 0.28776088 -2.1837404
1.0331578 0.28436014 -2.180274
1.0236794 0.27437213 -2.1812928
1.0161648 0.27065226 -2.1784241
1.0575256 0.2554183 -2.1785567
1.0521262 0.25998405 -2.1737561
1.0236541 0.25840822 -2.1805382
1.0190413 0.2558113 -2.1806781
1.0584474 0.28175578 -2.1917188
1.0170821 0.27912459 -2.1862943
1.0369556 0.2704573 -2.1847508
1.0180053 0.25863054 -2.1845102
1.0112014 0.25606406 -2.1830096
1.0451046 0.28732139 -2.2017035
1.0613936 0.26350659 -2.2007318
1.0240463 0.26297012 -2.1974883
1.0419713 0.27291238 -2.2078166
1.0654441 0.2647709 -2.2031317
1.0479029 0.27739587 -2.2152474
1.062098 0.2730974 -2.2177393
1.0421444 0.26142037 -2.2185128
1.0377854 0.26447871 -2.2253253
