# .PCD v0.7 - Point Cloud Data file format
VERSION 0.7
FIELDS x y z
SIZE 4 4 4
TYPE F F F
COUNT 1 1 1
WIDTH 100
HEIGHT 1
VIEWPOINT 0 0 0 1 0 0 0
POINTS 100
DATA ascii
-0.94862646 -0.20798311 -0.22482884
-0.94295353 -0.20240311 -0.24827194
-0.95233518 -0.2048005 -0.24269088
-0.95410454 -0.19722131 -0.26587129
-0.9575507 -0.19889404 -0.26047978
-0.96687764 -0.19902644 -0.27420193
-0.97420806 -0.1925049 -0.28616312
-0.95917773 -0.19386777 -0.29622421
-0.96626884 -0.19083039 -0.29270971
-0.97200769 -0.18558976 -0.30403432
-0.98207504 -0.18781097 -0.29966393
-0.94900852 -0.19024056 -0.29809791
-0.98290902 -0.1907492 -0.30026335
-0.95175976 -0.189399 -0.3142176
-0.97429019 -0.18645938 -0.31140655
-0.98057383 -0.18590517 -0.31316426
-0.98754126 -0.18546949 -0.31251109
-1.0079635 -0.18604629 -0.31460252
-1.0112455 -0.19003896 -0.31351468
-0.97694087 -0.18077165 -0.31967449
-0.95786786 -0.18543112 -0.31998336
-0.98220462 -0.18247287 -0.32222325
-0.98889196 -0.18390486 -0.32282215
-0.95877296 -0.18308055 -0.33626071
-0.96507752 -0.17936851 -0.33249018
-0.98022723 -0.17731614 -0.33681118
-0.98704261 -0.1790138 -0.33162135
-1.0069803 -0.18304446 -0.33409289
-0.9542107 -0.1835995 -0.33033925
-0.96714282 -0.18546095 -0.32937783
-0.97205466 -0.18722987 -0.32671851
-0.97953069 -0.18580869 -0.33002412
-0.99312174 -0.18457969 -0.33078197
-0.99711555 -0.18464459 -0.33029547
-0.97470206 -0.18406709 -0.34298843
-0.97714669 -0.18290743 -0.34094912
-0.98581201 -0.17667511 -0.34301981
-0.99502963 -0.17954654 -0.34064651
-1.0053073 -0.17793095 -0.33874571
-1.0232788 -0.18393259 -0.3428455
-0.99183047 -0.18629441 -0.33682454
-1.0099007 -0.18523073 -0.33815524
-0.99373674 -0.17503059 -0.3553327
-0.98445934 -0.1803665 -0.34897128
-0.99379426 -0.17702188 -0.3466754
-0.99942315 -0.17731223 -0.34664786
-1.0058018 -0.18197355 -0.35046297
-1.0147512 -0.18119216 -0.35467133
-1.023797 -0.18313962 -0.34840229
-0.94755459 -0.17518836 -0.35814098
-0.96994424 -0.17857891 -0.36331254
-0.98777688 -0.17520195 -0.36296198
-0.99380821 -0.17499699 -0.35723975
-1.0123904 -0.17742139 -0.36439887
-0.9546144 -0.18098865 -0.36135411
-0.97941834 -0.17890608 -0.35899708
-1.004625 -0.17821118 -0.36139262
-1.0135763 -0.18114178 -0.35755023
-1.0318263 -0.18182401 -0.362279
-1.0400232 -0.18444324 -0.35705996
-0.99876219 -0.17354567 -0.36896709
-1.0082815 -0.174988 -0.36925328
-1.0134304 -0.17426567 -0.36833599
-1.0180737 -0.17335913 -0.37258512
-1.0356581 -0.17454144 -0.37323603
-1.0132501 -0.17061022 -0.38081783
-1.0067405 -0.17252722 -0.37709725
-1.0131131 -0.1765552 -0.38194311
-1.0197828 -0.17565793 -0.3790471
-1.0264673 -0.17932901 -0.3789016
-1.0343294 -0.17517377 -0.378649
-1.0477372 -0.17178681 -0.39229065
-1.0455632 -0.17463155 -0.38895971
-1.0540873 -0.17836508 -0.38677227
-1.0150424 -0.16964465 -0.3991037
-1.0308751 -0.17512241 -0.39563039
-1.0352829 -0.17091583 -0.41235918
-1.0411223 -0.17425016 -0.40401334
-1.052071 -0.17122224 -0.40756017
-1.061215 -0.17328742 -0.41102126
-1.0341513 -0.16839072 -0.42129657
-1.05361 -0.17094709 -0.42087942
-1.0600764 -0.17112648 -0.41632354
-1.0734347 -0.17064716 -0.41307124
-1.0925248 -0.17270854 -0.41700917
-1.0581081 -0.16815695 -0.4287948
-1.0614371 -0.17098127 -0.42797565
-1.0200852 -0.16581574 -0.43894941
-1.0595061 -0.16647518 -0.4361864
-1.0719163 -0.1677545 -0.43918657
-1.0299187 -0.16476476 -0.4450064
-1.0441215 -0.16353399 -0.447386
-1.0874003 -0.1680029 -0.44555295
-1.0952748 -0.16682124 -0.44327188
-1.0733018 -0.16512878 -0.45688742
-1.1046315 -0.16711518 -0.45394304
-1.0591884 -0.1626858 -0.46862575
-1.0829622 -0.16193946 -0.47009015
-1.0934486 -0.16177352 -0.47380909
-1.0984192 -0.16114639 -0.47638497
