# .PCD v0.7 - Point Cloud Data file format
VERSION 0.7
FIELDS x y z
SIZE 4 4 4
TYPE F F F
COUNT 1 1 1
WIDTH 171
HEIGHT 1
VIEWPOINT 0 0 0 1 0 0 0
POINTS 171
DATA ascii
0.84827 -0.14027239 0.69778275
0.85302323 -0.13599914 0.68007922
0.82892013 -0.084271789 0.66483718
0.79221249 -0.087773785 0.66517663
0.85747164 -0.10780831 0.66539735
0.86647511 -0.1204964 0.67301202
0.80917656 -0.083637074 0.65556288
0.81382829 -0.11914884 0.65925002
0.8211903 -0.1223175 0.66321284
0.79910958 -0.12056558 0.66224521
0.86622018 -0.13695252 0.66024506
0.85777628 -0.13172588 0.66237581
0.82394773 -0.08127965 0.64952791
0.80557108 -0.0812039 0.64643264
0.82845652 -0.10110079 0.65198308
0.79165381 -0.10407244 0.65309018
0.82664162 -0.13150893 0.65046549
0.83503819 -0.076589212 0.63714612
0.8284173 -0.081114478 0.63563031
0.81399709 -0.081560373 0.63810909
0.79957664 -0.082006261 0.64058799
0.82291782 -0.098336928 0.63675535
0.8081466 -0.10069435 0.64279032
0.85496974 -0.12116481 0.63996083
0.82799995 -0.1169152 0.63877434
0.86252934 -0.12745261 0.64467233
0.82696873 -0.12352652 0.64133424
0.82006234 -0.1474728 0.65080452
0.81236106 -0.14203803 0.64858335
0.79769975 -0.14249137 0.65110368
0.85725808 -0.080222726 0.63067257
0.8376891 -0.095979519 0.63072038
0.80511147 -0.09788844 0.63368887
0.79902261 -0.098170996 0.6286009
0.84253991 -0.11505342 0.63595426
0.80563492 -0.11992149 0.63850439
0.86988533 -0.12612802 0.63304496
0.8331567 -0.12658271 0.63346118
0.85720783 -0.14382844 0.63810951
0.79235709 -0.14483687 0.63592559
0.84430927 -0.071171701 0.61461169
0.82966566 -0.073508754 0.6205945
0.85670394 -0.096387476 0.61868548
0.84931219 -0.090966411 0.61975908
0.83457863 -0.093273759 0.62440228
0.7847141 -0.097429678 0.62588072
0.86229819 -0.11461214 0.61839318
0.82188797 -0.1153942 0.62398279
0.8046518 -0.11457294 0.62094522
0.79147458 -0.11211213 0.62137997
0.86728239 -0.12317935 0.62696898
0.83451819 -0.11695524 0.61975574
0.85673565 -0.1303187 0.62113142
0.84229666 -0.13179868 0.62259424
0.82766986 -0.13201301 0.62606251
0.80559504 -0.12978798 0.62424523
0.85557973 -0.13631432 0.62767035
0.8415792 -0.13749518 0.62835699
0.82755399 -0.13671744 0.62765932
0.81058556 -0.14321586 0.62556821
0.85568428 -0.066763915 0.60538369
0.84107578 -0.069051661 0.6099875
0.87834179 -0.074126102 0.60412592
0.86403883 -0.074568331 0.60658461
0.86354214 -0.10791118 0.60915357
0.85143036 -0.11067937 0.61191279
0.84912854 -0.10875136 0.61159885
0.83919436 -0.11301742 0.61356252
0.83411902 -0.10995826 0.61165857
0.81288892 -0.11388984 0.61413497
0.78369313 -0.11433949 0.61321855
0.8720355 -0.11890608 0.60926551
0.86397827 -0.12416834 0.61236471
0.83967185 -0.12165648 0.61645699
0.87777525 -0.13397226 0.61392099
0.86196083 -0.13955514 0.62040609
0.84829968 -0.14020655 0.61501396
0.85793179 -0.08574447 0.59596682
0.8432883 -0.088081516 0.60194951
0.87036967 -0.10119054 0.59999269
0.85317326 -0.10191581 0.60213423
0.84885257 -0.10765092 0.60701531
0.87057018 -0.1121063 0.60421956
0.85614985 -0.1125522 0.60669839
0.76519674 -0.1140443 0.6065799
0.86671394 -0.13528191 0.60270268
0.84062618 -0.13712233 0.60975528
0.83562922 -0.13009408 0.60517526
0.820858 -0.13245147 0.61121023
0.80419225 -0.13125747 0.60820144
0.7911402 -0.12809217 0.60912424
0.82650459 -0.13767156 0.61113524
0.81849456 -0.14144649 0.60871023
0.87779224 -0.090159193 0.59223646
0.86348933 -0.090601444 0.59469515
0.8552286 -0.083306782 0.59274811
0.86484683 -0.098378606 0.59381109
0.89376193 -0.11473114 0.58931273
0.88312829 -0.11611478 0.5984813
0.87678856 -0.11463281 0.59156203
0.86449826 -0.11642112 0.598957
0.86320764 -0.12389123 0.59689778
0.8529982 -0.12822679 0.59692585
0.84839296 -0.12433545 0.5942716
0.84117544 -0.12916279 0.59719014
0.82675511 -0.12960866 0.59966898
0.81233484 -0.13005456 0.60214788
0.7601518 -0.12956905 0.60035819
0.89363736 -0.092640176 0.57877266
0.879242 -0.095509388 0.58629191
0.85584182 -0.10125198 0.58170855
0.90870231 -0.11074091 0.58052117
0.88974977 -0.11110817 0.58119941
0.87146699 -0.13100863 0.5849992
0.8783344 -0.13291317 0.59013617
0.84780461 -0.13100317 0.58748138
0.75510675 -0.14509377 0.59413642
0.86103839 -0.075772002 0.56617469
0.86329406 -0.077992901 0.56770331
0.8764134 -0.094507992 0.57548648
0.87155432 -0.10031725 0.57732183
0.8985526 -0.11042409 0.57146925
0.88495576 -0.12790656 0.57285428
0.87680101 -0.1307743 0.57864702
0.85932189 -0.13087231 0.5802778
0.89000934 -0.071235061 0.55704451
0.87552387 -0.073503539 0.56160963
0.91537809 -0.10569318 0.56309748
0.87616676 -0.11042315 0.5631392
0.86181092 -0.11180497 0.56606048
0.87053329 -0.11722706 0.56465966
0.85510343 -0.11797832 0.56905973
0.89318901 -0.1269294 0.56485456
0.89817876 -0.084348485 0.54928404
0.875072 -0.089907043 0.54908049
0.86058652 -0.092175499 0.55364561
0.90334332 -0.106117 0.55362582
0.91054487 -0.12262949 0.55468386
0.88235611 -0.12607002 0.56114072
0.86156434 -0.12772012 0.5537132
0.88955736 -0.087638564 0.54451543
0.8541792 -0.091261789 0.54322314
0.93291718 -0.10891064 0.54294598
0.92205387 -0.10064545 0.54567385
0.89797968 -0.12262235 0.54701108
0.88791102 -0.12136576 0.54363441
0.94933832 -0.10900219 0.53953081
0.90813392 -0.10180993 0.53578234
0.87578732 -0.10920517 0.53666502
0.8601346 -0.10857901 0.54111654
0.91722071 -0.11758176 0.53726017
0.94817328 -0.095103145 0.52714264
0.92872977 -0.095597729 0.52825016
0.95312345 -0.1048312 0.52139282
0.85385275 -0.10685717 0.5312624
0.9113338 -0.11643944 0.52401811
0.90277028 -0.11831527 0.52916759
0.893466 -0.11666149 0.52612811
0.94792598 -0.09740331 0.5121004
0.93029916 -0.097457886 0.51505828
0.91292465 -0.09750288 0.51793885
0.92389649 -0.11253405 0.51983654
0.93057239 -0.10748633 0.5024128
0.94208145 -0.085502289 0.49340275
0.94418424 -0.096494809 0.48895416
0.93724817 -0.10243859 0.48498911
0.94875729 -0.080454566 0.47597903
0.93995678 -0.088775195 0.47908729
0.94478559 -0.084433846 0.46110183
0.94392407 -0.097390868 0.46756542
0.93937922 -0.10107055 0.45443442
