# .PCD v0.7 - Point Cloud Data file format
VERSION 0.7
FIELDS x y z
SIZE 4 4 4
TYPE F F F
COUNT 1 1 1
WIDTH 514
HEIGHT 1
VIEWPOINT 0 0 0 1 0 0 0
POINTS 514
DATA ascii
-0.21245575 -0.31845954 0.23089486
-0.082816392 -0.32235536 0.22293535
-0.21610716 -0.32454604 0.22879367
-0.19840178 -0.31592241 0.21041889
-0.21165742 -0.3170349 0.21454599
-0.2221664 -0.31964403 0.21790829
-0.080433093 -0.3345595 0.21188135
-0.090083227 -0.33069167 0.21264762
-0.094719373 -0.317312 0.20262787
-0.1022862 -0.31440479 0.20317976
-0.19363843 -0.31642133 0.20885551
-0.20470029 -0.31297541 0.20021127
-0.20784275 -0.31736419 0.20857839
-0.099577643 -0.33251092 0.20934537
-0.078230336 -0.31156909 0.19574991
-0.091060668 -0.3073175 0.19164956
-0.096366763 -0.30795172 0.19554959
-0.10224346 -0.30647874 0.19155422
-0.096919924 -0.31623027 0.19585449
-0.10767459 -0.3225891 0.19395535
-0.11210591 -0.32150915 0.19198428
-0.18411671 -0.31406945 0.19349279
-0.088479102 -0.32576245 0.1950939
-0.091816835 -0.32886571 0.19382583
-0.10194963 -0.32449609 0.19498909
-0.096416891 -0.34986597 0.19597298
-0.10192793 -0.34504315 0.19594306
-0.09345305 -0.36284173 0.20200729
-0.090986796 -0.31189138 0.18617211
-0.096031494 -0.30971426 0.18557778
-0.10069709 -0.31154066 0.18192723
-0.1609143 -0.31024548 0.18552683
-0.17230977 -0.30983141 0.18146428
-0.1824051 -0.31058633 0.18345904
-0.19080178 -0.30814451 0.18081868
-0.19446242 -0.30943328 0.18675384
-0.087835625 -0.32040048 0.1826755
-0.10306226 -0.3198778 0.18466322
-0.096545003 -0.32954451 0.18337266
-0.10372741 -0.32870337 0.19074899
-0.1083852 -0.32967398 0.18270913
-0.11434256 -0.33348006 0.18346117
-0.16101517 -0.32840714 0.18893601
-0.078312032 -0.34184134 0.18596788
-0.087719478 -0.33674222 0.18701825
-0.10153051 -0.33839726 0.18727177
-0.11050817 -0.34064797 0.18362893
-0.094822675 -0.35072109 0.19365728
-0.10198825 -0.34722075 0.19063729
-0.086693406 -0.35538667 0.18839653
-0.098495342 -0.35938725 0.18754114
-0.084900431 -0.3045375 0.17537645
-0.10380197 -0.30359167 0.17382032
-0.10840216 -0.30461577 0.17277265
-0.095380664 -0.30948007 0.17676352
-0.099174999 -0.31476611 0.1734658
-0.10842285 -0.31177852 0.17460692
-0.11636738 -0.31381047 0.1720047
-0.11909617 -0.31480184 0.17522793
-0.16201654 -0.30936626 0.17409098
-0.1705222 -0.30702275 0.17775626
-0.19484602 -0.30907434 0.1789493
-0.087277569 -0.32290426 0.17805515
-0.094725057 -0.32161382 0.17351031
-0.10916708 -0.322905 0.17568228
-0.12116572 -0.31874311 0.17461577
-0.098219879 -0.32663703 0.17361231
-0.083176687 -0.33801013 0.18189986
-0.090222612 -0.34167904 0.18289103
-0.094780393 -0.33943495 0.17565614
-0.10213318 -0.34151673 0.17981419
-0.094021171 -0.35028839 0.18020421
-0.10347451 -0.35376194 0.1799835
-0.076639563 -0.3044914 0.16040252
-0.095993772 -0.30509886 0.1653236
-0.10150164 -0.30101997 0.16487734
-0.10969481 -0.30543461 0.16740592
-0.11521918 -0.30394918 0.16657527
-0.12505545 -0.30826899 0.16264173
-0.1493964 -0.30315992 0.15989304
-0.15915571 -0.30488613 0.16074316
-0.16987084 -0.30371264 0.16587657
-0.18033613 -0.30555412 0.16287288
-0.089785673 -0.31242159 0.1678752
-0.10246271 -0.31624749 0.16378355
-0.10650837 -0.30817422 0.16770896
-0.1213446 -0.31607962 0.1646938
-0.14176564 -0.30934489 0.16532668
-0.15379168 -0.31002301 0.16408692
-0.16713741 -0.31354597 0.17074947
-0.17482059 -0.30882192 0.16838652
-0.095038362 -0.32104567 0.1688236
-0.10101227 -0.32052737 0.16963096
-0.10577313 -0.32494164 0.16597064
-0.11340715 -0.3223471 0.16191567
-0.12082515 -0.3266767 0.16633251
-0.15787214 -0.32091153 0.17004611
-0.083568349 -0.33391714 0.16993822
-0.092471875 -0.32892758 0.16531539
-0.095031351 -0.33995324 0.1715273
-0.10763747 -0.3426713 0.16762444
-0.09568087 -0.35123205 0.17155446
-0.097956233 -0.30626735 0.15898101
-0.11306359 -0.30670977 0.15014194
-0.12268538 -0.30070046 0.15569231
-0.12833604 -0.30281103 0.15181048
-0.14533345 -0.30254531 0.15408489
-0.15640812 -0.30387178 0.1531295
-0.16282342 -0.30523679 0.15190363
-0.16757581 -0.30297276 0.15566739
-0.19070654 -0.30359557 0.15256023
-0.10764399 -0.31195727 0.15377846
-0.11240294 -0.31474271 0.15733404
-0.12104735 -0.314363 0.15496358
-0.13165605 -0.31818533 0.15443021
-0.1453312 -0.3141382 0.15265226
-0.15447809 -0.31357628 0.1558215
-0.16818495 -0.3161101 0.15656433
-0.19375825 -0.31467691 0.16055787
-0.088390715 -0.32752398 0.15820807
-0.099688545 -0.32785386 0.15505694
-0.11138541 -0.32409412 0.15901174
-0.1143802 -0.32159233 0.15532163
-0.12121423 -0.32047749 0.15262903
-0.12725161 -0.32002306 0.15427297
-0.16120946 -0.32205862 0.15458663
-0.085310042 -0.33695748 0.15971547
-0.097650968 -0.33735663 0.15924171
-0.10159612 -0.3353869 0.15957272
-0.11159784 -0.33155304 0.16094749
-0.11319203 -0.33493534 0.16170552
-0.12014525 -0.33735204 0.15779832
-0.077625789 -0.34381199 0.16024187
-0.1020956 -0.34083664 0.16088822
-0.1092741 -0.34221527 0.1598511
-0.11215241 -0.34126097 0.16293104
-0.12255413 -0.33855146 0.15743709
-0.12538409 -0.3418825 0.15879637
-0.13248517 -0.33783197 0.15900418
-0.088572197 -0.35072541 0.16033211
-0.10994197 -0.35064194 0.15995483
-0.17904311 -0.30004901 0.1429638
-0.096719272 -0.30606887 0.14807659
-0.10938691 -0.30647406 0.14575002
-0.12064995 -0.30649889 0.14737067
-0.12895785 -0.30616143 0.14357011
-0.13716935 -0.3094126 0.14538918
-0.14229545 -0.30646652 0.14469995
-0.14938138 -0.30979019 0.14748843
-0.15236041 -0.30634597 0.14552583
-0.16247559 -0.3081809 0.14679267
-0.17499845 -0.30801702 0.14766622
-0.20404524 -0.3069278 0.14458123
-0.083881751 -0.31456885 0.14413925
-0.096069701 -0.3189998 0.15073369
-0.12138516 -0.31391656 0.14615285
-0.13744064 -0.31706282 0.14999326
-0.14360003 -0.31114045 0.15080582
-0.14766371 -0.31497887 0.14746168
-0.15720247 -0.31702799 0.14327808
-0.16459195 -0.3122918 0.14927489
-0.19357532 -0.31101674 0.14584503
-0.10194568 -0.32151154 0.15169096
-0.10826371 -0.32524115 0.14744201
-0.11637061 -0.3238019 0.14860608
-0.12275562 -0.32875684 0.14439175
-0.12928283 -0.32460895 0.14821644
-0.15489176 -0.32862037 0.14982185
-0.10900187 -0.33340245 0.14996149
-0.11641634 -0.33253002 0.14523134
-0.12070656 -0.33421296 0.14959994
-0.12944774 -0.33177713 0.14590421
-0.13442732 -0.33473095 0.15144095
-0.14395213 -0.33202425 0.14501363
-0.082497455 -0.34824848 0.14949451
-0.097422689 -0.34641927 0.14854054
-0.098137386 -0.34637386 0.15487158
-0.10898043 -0.34355578 0.14857356
-0.11677284 -0.34114432 0.15176892
-0.13027932 -0.34154186 0.14711477
-0.11671651 -0.30020797 0.13571665
-0.12222916 -0.29841697 0.13916528
-0.13636672 -0.30155846 0.1338976
-0.14124893 -0.29864547 0.13765036
-0.15103278 -0.29742536 0.13398074
-0.15839395 -0.29666272 0.13343753
-0.16253982 -0.29903534 0.13356997
-0.16993904 -0.29755825 0.13590333
-0.17643641 -0.29878402 0.13607787
-0.10392021 -0.31242713 0.1317963
-0.12139017 -0.30737188 0.14052519
-0.13107911 -0.30576363 0.13581426
-0.13390042 -0.30894011 0.13505991
-0.14127417 -0.3048026 0.13614278
-0.1490117 -0.30744982 0.13730696
-0.15639968 -0.3092095 0.13923554
-0.16341364 -0.3061038 0.14042419
-0.1673145 -0.30827987 0.13744731
-0.17699863 -0.30558819 0.13342208
-0.18616456 -0.3058874 0.13889502
-0.09950418 -0.31373268 0.13440745
-0.11097439 -0.31556326 0.13909374
-0.1167637 -0.3168191 0.13356793
-0.12033644 -0.32134607 0.13596044
-0.12669991 -0.3168608 0.13742505
-0.13455065 -0.31610039 0.1349044
-0.14156824 -0.31625625 0.13794869
-0.14552063 -0.31584191 0.13817075
-0.15392721 -0.31381175 0.13807894
-0.093275011 -0.33021891 0.14057778
-0.1033579 -0.32914129 0.13436709
-0.11595766 -0.32673749 0.13775501
-0.12041629 -0.3247731 0.13988729
-0.13526472 -0.32746315 0.13867949
-0.14063136 -0.32595289 0.14088696
-0.14758769 -0.32704073 0.13887537
-0.084299594 -0.33658236 0.1400865
-0.10162064 -0.33316252 0.14090244
-0.10789669 -0.33669969 0.14002845
-0.11649005 -0.33709747 0.13979203
-0.12853917 -0.33901286 0.14211825
-0.13646322 -0.33475581 0.14424191
-0.094152883 -0.34375653 0.14377211
-0.10442711 -0.34431994 0.1386047
-0.10594447 -0.34450421 0.14558494
-0.11375154 -0.34263459 0.13629831
-0.12087619 -0.34391534 0.14232767
-0.1044801 -0.29593381 0.12928401
-0.11505126 -0.30366427 0.12260272
-0.12631164 -0.30032554 0.12863226
-0.14409487 -0.30469155 0.12191038
-0.16892071 -0.30368197 0.12676172
-0.17233329 -0.2985948 0.12179251
-0.18486711 -0.29925954 0.12419773
-0.11393946 -0.31135628 0.12562482
-0.13495006 -0.30934426 0.12662841
-0.14224248 -0.30876544 0.12984018
-0.1495107 -0.31095141 0.12403695
-0.15775786 -0.30964416 0.13174413
-0.16186862 -0.31145176 0.13245302
-0.17160653 -0.30901083 0.12732422
-0.11437366 -0.32016468 0.1254435
-0.12855613 -0.31672552 0.12703574
-0.13467334 -0.31679687 0.12707099
-0.14225882 -0.31792432 0.12579349
-0.14900738 -0.31915912 0.13243374
-0.15430981 -0.31837183 0.12586714
-0.16140518 -0.31777182 0.12452769
-0.11344078 -0.32806361 0.12815642
-0.12279057 -0.32990989 0.13008142
-0.12570746 -0.32543844 0.13164514
-0.13429269 -0.33178923 0.12796272
-0.14374007 -0.32806632 0.13412385
-0.14694825 -0.3280724 0.12938072
-0.15518668 -0.32584515 0.12910984
-0.12144402 -0.33696628 0.12708905
-0.13136896 -0.33719736 0.12912691
-0.1329532 -0.33839956 0.13094826
-0.17271519 -0.29397693 0.11799283
-0.12395886 -0.30195394 0.11472902
-0.1674578 -0.30177942 0.11515306
-0.1804747 -0.29856649 0.11409557
-0.12296197 -0.31256193 0.11928061
-0.14160307 -0.30989429 0.11343412
-0.15520632 -0.30881149 0.11888734
-0.16912346 -0.30736968 0.11940286
-0.13265705 -0.31770694 0.1219117
-0.13929796 -0.3176128 0.11885241
-0.16133192 -0.31715024 0.12004142
-0.11118599 -0.33141991 0.11632082
-0.12294797 -0.32580516 0.12286304
-0.13521086 -0.32654765 0.12411717
-0.14177053 -0.32920519 0.11903977
-0.14619482 -0.33045009 0.12221278
-0.15833433 -0.32431364 0.11911841
-0.16577676 -0.32371449 0.12438439
-0.10056321 -0.3403604 0.12421116
-0.13905673 -0.33479291 0.12140732
-0.16083387 -0.29516429 0.10308792
-0.19594152 -0.29226819 0.10738949
-0.20674844 -0.29312271 0.10893498
-0.13286647 -0.30024356 0.10685533
-0.14091967 -0.29836091 0.11062787
-0.15058421 -0.30040854 0.11138615
-0.16049448 -0.29897293 0.10593835
-0.16989511 -0.30123842 0.10984024
-0.17482685 -0.29798391 0.11040166
-0.18114734 -0.3026253 0.11008894
-0.18981744 -0.29892936 0.10752548
-0.12079061 -0.31314066 0.10566185
-0.14069408 -0.3154628 0.11323097
-0.14725089 -0.31194177 0.10406144
-0.15441552 -0.3161943 0.10695657
-0.16038777 -0.3159157 0.10837658
-0.16830079 -0.30891553 0.10516299
-0.11858459 -0.32554603 0.1104798
-0.13013308 -0.32276574 0.11454875
-0.13648155 -0.32286742 0.11450393
-0.14984286 -0.31676427 0.11361449
-0.12014813 -0.3296991 0.10839891
-0.14230697 -0.33209577 0.11517733
-0.11866307 -0.33563718 0.11566338
-0.14177407 -0.29853326 0.098981649
-0.14931442 -0.29743835 0.10184775
-0.1767647 -0.29685014 0.098912895
-0.18171334 -0.2945931 0.096133262
-0.18873554 -0.29741308 0.094709173
-0.15557054 -0.30662498 0.097954959
-0.16012861 -0.3016611 0.096959427
-0.17414385 -0.30534738 0.096862152
-0.19182836 -0.29969779 0.10059328
-0.12969822 -0.31143034 0.097788155
-0.15683879 -0.31042877 0.099871889
-0.16452135 -0.31114471 0.098917685
-0.16778757 -0.31462193 0.099379689
-0.13729328 -0.32623401 0.10455158
-0.14335005 -0.32288256 0.096493475
-0.14565465 -0.31904858 0.096085593
-0.15396613 -0.32427746 0.10421258
-0.16371663 -0.32424825 0.1018791
-0.15448666 -0.29029492 0.082076669
-0.22065695 -0.29004058 0.083429858
-0.15068167 -0.29682288 0.091107957
-0.16636626 -0.29415855 0.088130638
-0.17905585 -0.29185876 0.082873777
-0.18688294 -0.29550755 0.085651159
-0.19292635 -0.29214224 0.088246882
-0.20024784 -0.2972562 0.091735214
-0.23233452 -0.29102552 0.084002599
-0.1461222 -0.30562976 0.093117759
-0.15392324 -0.30591506 0.084590308
-0.16393624 -0.30224416 0.091087177
-0.1691076 -0.30357572 0.089507669
-0.17634709 -0.30913082 0.089816064
-0.18116045 -0.30466884 0.085053548
-0.19330776 -0.30205971 0.090797327
-0.14828931 -0.31502873 0.087929428
-0.15425532 -0.30984247 0.094125606
-0.16417007 -0.3101117 0.09008795
-0.17646506 -0.3134461 0.087192133
-0.12652995 -0.32261705 0.088720977
-0.1503545 -0.32078326 0.086557642
-0.17266145 -0.28687802 0.074572206
-0.18412422 -0.2885046 0.077807248
-0.18946692 -0.29102096 0.077702351
-0.20294672 -0.28815234 0.075251423
-0.20964628 -0.29137602 0.075165674
-0.17297371 -0.29757029 0.079622164
-0.18162945 -0.2967816 0.077918351
-0.18724859 -0.29604641 0.076005228
-0.20315421 -0.29708081 0.075790614
-0.13597229 -0.30447897 0.078243017
-0.16044275 -0.30628991 0.081036597
-0.16687134 -0.30398607 0.076619029
-0.17494518 -0.30575037 0.083009779
-0.18221627 -0.30385405 0.081127144
-0.18913604 -0.30684415 0.082066774
-0.19270507 -0.30690914 0.077346414
-0.14255306 -0.31885344 0.084591642
-0.15033826 -0.31221378 0.075769916
-0.15720139 -0.31559011 0.080213442
-0.16107763 -0.31861606 0.082802102
-0.16805175 -0.31671548 0.079248533
-0.1568283 -0.28996027 0.071603388
-0.16671112 -0.28830099 0.067801714
-0.17759152 -0.29054686 0.071923636
-0.1791694 -0.29260373 0.071886055
-0.19343024 -0.29052311 0.068603352
-0.19994 -0.28954718 0.071121462
-0.21028908 -0.28934538 0.067359485
-0.22856833 -0.2905964 0.064711593
-0.15864784 -0.29460001 0.063768998
-0.16945529 -0.29757094 0.065484911
-0.17358699 -0.30016899 0.067930527
-0.18731104 -0.29910484 0.070549093
-0.19527212 -0.29759586 0.073472492
-0.20807205 -0.29496935 0.074041352
-0.22129881 -0.29927051 0.066158205
-0.16120651 -0.30993524 0.066968575
-0.16769697 -0.30654618 0.071549244
-0.17569363 -0.31127918 0.070916042
-0.18021993 -0.30662709 0.070244521
-0.18932629 -0.30852509 0.06666778
-0.19431223 -0.30532578 0.069796115
-0.15054257 -0.31662256 0.075962253
-0.17453529 -0.28656036 0.055951662
-0.1812937 -0.2907047 0.059801474
-0.19082405 -0.2935805 0.056281358
-0.20109917 -0.28965423 0.058573611
-0.20512356 -0.28987151 0.06068144
-0.21285884 -0.29213062 0.06089117
-0.21870874 -0.28614396 0.056461774
-0.14215933 -0.2975896 0.058885045
-0.15367928 -0.30107903 0.062591285
-0.16826834 -0.29689029 0.056849662
-0.17717019 -0.29572335 0.05630793
-0.18111835 -0.29839221 0.059717096
-0.18601087 -0.29789808 0.062709868
-0.19519034 -0.29867688 0.060892384
-0.20206742 -0.2992647 0.063765347
-0.20693561 -0.29599816 0.058882337
-0.21853605 -0.2969766 0.059451304
-0.13022959 -0.3103306 0.057705995
-0.16614482 -0.31033972 0.058059715
-0.17409877 -0.30745861 0.062477201
-0.18619476 -0.30573511 0.060765203
-0.19619024 -0.3060337 0.062584519
-0.19881167 -0.30508953 0.059614632
-0.1833888 -0.2848604 0.048125803
-0.19016117 -0.28583726 0.050998282
-0.20243022 -0.28526151 0.047306255
-0.21696554 -0.28389907 0.04937423
-0.23391484 -0.28209975 0.049557123
-0.17495403 -0.2942864 0.04776239
-0.18799999 -0.29189318 0.049482569
-0.19540089 -0.2907061 0.049137451
-0.2002794 -0.28981784 0.04938186
-0.20847346 -0.29082242 0.04936783
-0.21420842 -0.29251036 0.049780574
-0.21977958 -0.28909478 0.053955242
-0.22846986 -0.29232478 0.046472296
-0.17367738 -0.30095309 0.04755757
-0.18114702 -0.30034581 0.054446518
-0.18641895 -0.30101597 0.048594665
-0.20147853 -0.30093539 0.052805826
-0.20922567 -0.30190286 0.052369464
-0.21419148 -0.29608694 0.051681966
-0.13902941 -0.30864096 0.049927585
-0.15053028 -0.31219783 0.053579181
-0.16101912 -0.31176737 0.056065202
-0.19224228 -0.28316039 0.040299937
-0.20400213 -0.27923289 0.036845949
-0.20587556 -0.28374138 0.040933959
-0.21303488 -0.28485039 0.035992131
-0.22466379 -0.28612256 0.04141745
-0.23800369 -0.27975681 0.039178293
-0.23883352 -0.28305689 0.04012695
-0.24761313 -0.28319731 0.035782248
-0.25211924 -0.2836588 0.03789857
-0.15975896 -0.29421031 0.043328218
-0.18023977 -0.29597917 0.039113697
-0.19323534 -0.29339448 0.039698672
-0.20138556 -0.29452837 0.039677933
-0.20652562 -0.29367867 0.038539525
-0.2166806 -0.28785124 0.040286589
-0.21935678 -0.29160768 0.042548127
-0.17159313 -0.30493131 0.03918482
-0.18310036 -0.30058336 0.040120859
-0.18764941 -0.30086991 0.041833818
-0.21951117 -0.29877028 0.045249354
-0.2035235 -0.27861971 0.026597435
-0.19663182 -0.28166324 0.031599745
-0.20109579 -0.28146046 0.032474078
-0.21316938 -0.28910589 0.027567757
-0.22189847 -0.28190997 0.027490685
-0.22855125 -0.28383309 0.029695742
-0.23539704 -0.2813094 0.029773815
-0.24077265 -0.28257006 0.030918639
-0.1857895 -0.29462808 0.033953957
-0.19259068 -0.29453686 0.033585429
-0.2023057 -0.29289657 0.031177143
-0.20809421 -0.29546595 0.027255878
-0.21430984 -0.29516834 0.032340866
-0.2189765 -0.29059806 0.033641946
-0.22688013 -0.29236653 0.02757364
-0.20359583 -0.279576 0.021721229
-0.20884418 -0.27615738 0.015438274
-0.21886174 -0.27866197 0.01954856
-0.22835299 -0.27542138 0.018010339
-0.25625074 -0.27671471 0.020888023
-0.1861584 -0.28914133 0.019992983
-0.19878227 -0.28763303 0.022025691
-0.20783371 -0.28717285 0.021494245
-0.22390267 -0.28729138 0.020781592
-0.22532012 -0.28613824 0.019262409
-0.23500702 -0.28205115 0.020163892
-0.23914832 -0.28649738 0.020720154
-0.19349994 -0.29405367 0.021195548
-0.19794674 -0.29257926 0.02346197
-0.20923123 -0.29314587 0.02092539
-0.21531208 -0.29200885 0.0255851
-0.21055984 -0.27748883 0.011842715
-0.21848257 -0.27783278 0.013639312
-0.22603208 -0.27855632 0.011285588
-0.24789234 -0.2780115 0.0098928772
-0.19971752 -0.29045367 0.014196927
-0.20672503 -0.2854152 0.013446791
-0.21432498 -0.28732944 0.010773595
-0.22924002 -0.28733268 0.011118356
-0.21233605 -0.28174269 -9.3970448e-05
-0.22103101 -0.27855149 0.00080856308
-0.22988312 -0.28242984 0.0028007068
-0.23380251 -0.27827933 0.0013247654
-0.24159864 -0.28077817 0.0012257397
-0.24590881 -0.28012258 0.0049063638
-0.25654277 -0.27807418 -7.3567033e-05
-0.25990704 -0.27594101 8.3196908e-05
-0.20668153 -0.28836647 0.0043184161
-0.22918417 -0.27288029 -0.0088053159
-0.23328739 -0.2696417 -0.0099416226
-0.23811562 -0.27381855 -0.012189228
-0.24756907 -0.27136567 -0.0078141019
-0.21152318 -0.27836791 -0.0057288371
-0.22235678 -0.28053281 -0.0075995885
-0.23055327 -0.2787618 -0.012289908
-0.23357211 -0.28000778 -0.009958066
-0.21658136 -0.27521405 -0.01959192
-0.22080761 -0.26876026 -0.018074691
-0.23453493 -0.27040404 -0.020027634
-0.24035263 -0.27512687 -0.019202657
-0.25486264 -0.27042067 -0.01756132
-0.26059872 -0.27201703 -0.019139539
-0.26543322 -0.27129585 -0.015111607
-0.24974579 -0.26955691 -0.033344854
