# .PCD v0.7 - Point Cloud Data file format
VERSION 0.7
FIELDS x y z
SIZE 4 4 4
TYPE F F F
COUNT 1 1 1
WIDTH 1457
HEIGHT 1
VIEWPOINT 0 0 0 1 0 0 0
POINTS 1457
DATA ascii
-1.0720416 0.15559654 -1.7077934
-1.0729228 0.16142361 -1.7051837
-1.0477905 0.14869265 -1.7059201
-1.0694686 0.14904624 -1.708124
-1.0316895 0.14038618 -1.7074091
-1.0433961 0.13751312 -1.7041129
-1.0485408 0.13868503 -1.7040644
-1.058989 0.14270045 -1.7066115
-1.0689758 0.14348337 -1.7059199
-1.0757214 0.13599212 -1.7002909
-1.0431168 0.12894882 -1.7049959
-1.0642015 0.13036112 -1.7071431
-1.0686647 0.13300687 -1.7025886
-1.0253292 0.11882694 -1.7017905
-1.0591334 0.11653896 -1.7059487
-1.0717443 0.11778663 -1.7016014
-1.0643493 0.11515112 -1.7044721
-1.0641049 0.16735904 -1.719923
-1.0726869 0.16757928 -1.7141651
-1.0406504 0.15300263 -1.717098
-1.0502601 0.15946397 -1.7206293
-1.0679252 0.15331541 -1.7189608
-1.0741249 0.16016842 -1.7145442
-1.0498552 0.14742877 -1.7161367
-1.0651085 0.15036492 -1.7129217
-1.0428058 0.13572931 -1.7113326
-1.0547553 0.13951108 -1.7182471
-1.0704376 0.13931592 -1.7177635
-1.0276103 0.12792784 -1.7115592
-1.0437535 0.13361625 -1.7114565
-1.0469029 0.13053608 -1.7113233
-1.0536675 0.12684317 -1.7108011
-1.0661957 0.13074358 -1.7097995
-1.0417913 0.12198552 -1.7141206
-1.0472997 0.12123923 -1.7157261
-1.0600761 0.11600922 -1.7082965
-1.0756438 0.17068841 -1.7295841
-1.1031873 0.1718504 -1.7273331
-1.0485948 0.16115646 -1.7243741
-1.0544721 0.16942744 -1.7271425
-1.0599961 0.16707757 -1.7282485
-1.0748696 0.16535798 -1.7236872
-1.0797852 0.16374972 -1.7280872
-1.0972593 0.1672468 -1.732089
-1.0497032 0.15472396 -1.7220834
-1.0539954 0.15549473 -1.7304313
-1.0609225 0.15863255 -1.7306387
-1.0820135 0.15219834 -1.7243768
-1.0879856 0.15637116 -1.7224623
-1.0441281 0.1474966 -1.7293527
-1.057677 0.14248081 -1.7277778
-1.0717164 0.14546278 -1.7280813
-1.0732453 0.14542478 -1.7242899
-1.0426666 0.13620718 -1.7209945
-1.0487394 0.14007618 -1.722101
-1.0571924 0.13573137 -1.7248251
-1.0696036 0.14179085 -1.7235587
-1.0780785 0.1351791 -1.7257942
-1.0822861 0.14184275 -1.7224479
-1.0578144 0.12715772 -1.7232356
-1.0638468 0.12663649 -1.7211462
-1.0872719 0.13048846 -1.7269634
-1.0524292 0.11920919 -1.7225256
-1.0618691 0.11926702 -1.7239465
-1.0739107 0.11751153 -1.7244663
-1.079969 0.11967549 -1.7251036
-1.0678132 0.1741211 -1.7357038
-1.0727342 0.16998135 -1.7395347
-1.0865129 0.17341614 -1.7423028
-1.0627235 0.16262922 -1.7408162
-1.0769858 0.165888 -1.7413708
-1.081845 0.16254663 -1.7380638
-1.0861058 0.16287395 -1.7372254
-1.0496198 0.15475 -1.7320805
-1.0685235 0.15428919 -1.7348976
-1.0828882 0.15100136 -1.7338392
-1.0447673 0.14007258 -1.7370186
-1.059808 0.14084218 -1.7373854
-1.0681812 0.14139166 -1.7384124
-1.0891881 0.1446176 -1.7353444
-1.0503597 0.13205753 -1.7361583
-1.0687618 0.13566038 -1.732862
-1.0766115 0.13288255 -1.7329631
-1.0327002 0.12586135 -1.7297651
-1.0513299 0.12459481 -1.7294493
-1.0584021 0.12478767 -1.7285522
-1.0651057 0.12527615 -1.7350065
-1.0695813 0.12870356 -1.7298588
-1.0827354 0.12585321 -1.7318484
-1.0736762 0.11748146 -1.7303635
-1.0815724 0.17795706 -1.7524306
-1.1004901 0.17706817 -1.7450044
-1.0809166 0.17093042 -1.7471817
-1.0977532 0.17094906 -1.7434692
-1.1019151 0.17067078 -1.7495999
-1.086051 0.16337012 -1.7417402
-1.058228 0.14888114 -1.745827
-1.071625 0.14991352 -1.7455915
-1.0768377 0.15321375 -1.7436376
-1.0885105 0.15745407 -1.7444351
-1.0939881 0.155402 -1.7410332
-1.0661207 0.14216067 -1.7391756
-1.0786521 0.14137316 -1.7413923
-1.0944213 0.1444287 -1.7453632
-1.0723529 0.13704799 -1.7426654
-1.0622174 0.12517305 -1.7396691
-1.0657191 0.12600072 -1.7444298
-1.1171155 0.18615039 -1.7605387
-1.1303765 0.1861005 -1.7612834
-1.0824423 0.17746533 -1.7568662
-1.103915 0.18310851 -1.7571137
-1.1183053 0.1823387 -1.7555592
-1.0830003 0.17031904 -1.7544678
-1.0872583 0.17167312 -1.7545789
-1.1010354 0.16975686 -1.7529656
-1.1245332 0.17133583 -1.7569311
-1.0881513 0.16251217 -1.7594799
-1.1001706 0.16510271 -1.7548356
-1.063509 0.15677492 -1.7512743
-1.0766315 0.15476817 -1.7513376
-1.0816578 0.15094362 -1.7516296
-1.0971348 0.15265447 -1.7527671
-1.1074426 0.15437366 -1.7549781
-1.0702759 0.14251705 -1.7521884
-1.0751801 0.14149174 -1.7546692
-1.096082 0.1433553 -1.752718
-1.0646034 0.13334878 -1.7527859
-1.0726087 0.13758053 -1.7511761
-1.0814931 0.13181852 -1.751537
-1.0876261 0.13738669 -1.7493576
-1.093045 0.13274859 -1.7496219
-1.0633999 0.12124051 -1.74823
-1.0671462 0.12424779 -1.7514331
-1.0820436 0.12541868 -1.7512467
-1.0892035 0.12740596 -1.7487149
-1.1137321 0.1876068 -1.7726313
-1.0885751 0.17826751 -1.7689646
-1.0945514 0.17892328 -1.7681456
-1.1043935 0.18119064 -1.7711501
-1.1219867 0.18213485 -1.7678567
-1.0824199 0.1737241 -1.7657038
-1.0996914 0.16930197 -1.7613388
-1.1391538 0.16684972 -1.7684987
-1.0767962 0.16264281 -1.7652178
-1.090632 0.15903895 -1.7618955
-1.0946962 0.15658174 -1.7629157
-1.0893186 0.15197453 -1.7619162
-1.0939375 0.14773045 -1.7651144
-1.1119568 0.15530512 -1.7617196
-1.1199274 0.15007897 -1.7651753
-1.0704499 0.14004143 -1.7594703
-1.0922631 0.14175627 -1.7593215
-1.0697747 0.12937742 -1.7582393
-1.0768088 0.12771372 -1.7632678
-1.0904585 0.12799965 -1.7597563
-1.105327 0.13446414 -1.7599388
-1.0824164 0.12535281 -1.7643605
-1.0744365 0.18164557 -1.7792317
-1.1276611 0.18519272 -1.7797596
-1.0953224 0.17652114 -1.7754176
-1.1218047 0.17674839 -1.7755756
-1.0915681 0.16562802 -1.774352
-1.093565 0.16442513 -1.7771236
-1.1104032 0.16572332 -1.7767762
-1.1172012 0.16789451 -1.7729151
-1.1207467 0.17106423 -1.778181
-1.0759176 0.15337743 -1.7772927
-1.0895927 0.15698421 -1.7740722
-1.0974845 0.16032742 -1.7756772
-1.1028008 0.16087937 -1.7728715
-1.11589 0.15661797 -1.7772847
-1.0830643 0.14710911 -1.7758368
-1.1110228 0.14946394 -1.7764888
-1.0820744 0.14004956 -1.7688146
-1.0855194 0.14197585 -1.7683916
-1.0992388 0.14280583 -1.7687117
-1.0824605 0.12926903 -1.7725188
-1.1015848 0.13100465 -1.7738621
-1.115041 0.13206294 -1.7674103
-1.1000316 0.1829825 -1.7864316
-1.1218934 0.18668617 -1.7857627
-1.125632 0.18537076 -1.7882857
-1.1373315 0.18884163 -1.785344
-1.1409521 0.18875875 -1.7850113
-1.1478827 0.18647221 -1.7891808
-1.0965047 0.17701322 -1.7867893
-1.0908934 0.1654536 -1.7880211
-1.0949851 0.16874385 -1.7892239
-1.105738 0.17156257 -1.7830173
-1.1171082 0.17148332 -1.7817183
-1.1344403 0.16736683 -1.7875007
-1.0880916 0.16116382 -1.7796834
-1.0925628 0.16137208 -1.7793698
-1.1011766 0.15492508 -1.7826357
-1.1131496 0.15412685 -1.7815167
-1.0884945 0.14762631 -1.7833128
-1.1146039 0.14354157 -1.7845974
-1.1192044 0.14782095 -1.783731
-1.0835488 0.13988474 -1.7818096
-1.109242 0.13936746 -1.7793363
-1.1150572 0.14087602 -1.7785147
-1.0861971 0.12896104 -1.7787098
-1.1158305 0.19340487 -1.7994338
-1.1349412 0.1961942 -1.7979069
-1.1344128 0.1865918 -1.7989794
-1.1440011 0.1830126 -1.7907147
-1.1120384 0.17891453 -1.7936006
-1.1228505 0.17859545 -1.7991469
-1.0939703 0.16632976 -1.7937044
-1.1215279 0.16671668 -1.7890512
-1.130031 0.1688244 -1.7947853
-1.1386607 0.16559009 -1.7941451
-1.0904305 0.15481555 -1.7943006
-1.0917376 0.16093089 -1.7904332
-1.1109294 0.15401526 -1.7943947
-1.1159176 0.15276818 -1.7878233
-1.1290585 0.15581831 -1.7902224
-1.0944759 0.14601626 -1.7872685
-1.1306025 0.14500718 -1.7929637
-1.0976793 0.13838506 -1.788144
-1.1261764 0.13428053 -1.7917695
-1.0831493 0.13104728 -1.7901297
-1.090589 0.12953602 -1.7840496
-1.0969139 0.13163763 -1.7895929
-1.0992199 0.13227451 -1.7889597
-1.1145877 0.12838899 -1.7848135
-1.1190778 0.13131933 -1.7854409
-1.1389678 0.19700092 -1.8084804
-1.1371993 0.18809059 -1.8043647
-1.1417561 0.19074088 -1.80668
-1.1523546 0.1914511 -1.8096949
-1.1030507 0.18677834 -1.80506
-1.11431 0.18431234 -1.8013139
-1.1221478 0.17853662 -1.8063555
-1.1321986 0.1808928 -1.8006831
-1.1589943 0.18669891 -1.8053175
-1.1097254 0.17029211 -1.8064239
-1.1236608 0.17639473 -1.8090098
-1.1304528 0.17762259 -1.799866
-1.1352886 0.17194459 -1.8046908
-1.1172464 0.16471604 -1.8045886
-1.1198412 0.1616596 -1.8023479
-1.0916605 0.15252843 -1.7982202
-1.1164016 0.15725833 -1.8055661
-1.1287184 0.15660205 -1.8028307
-1.0858761 0.14088726 -1.7993771
-1.0982567 0.14962444 -1.8016176
-1.1087101 0.14802083 -1.7988474
-1.122123 0.14454103 -1.7958555
-1.1315469 0.14699593 -1.7970196
-1.1333205 0.14816758 -1.7975754
-1.11594 0.13577238 -1.7957993
-1.1009549 0.13066968 -1.7949543
-1.1193126 0.19718188 -1.8129451
-1.1271085 0.19441646 -1.8141061
-1.1493301 0.18848139 -1.8133618
-1.1677055 0.19415352 -1.812833
-1.1148145 0.18373483 -1.8187355
-1.121997 0.1780825 -1.8187073
-1.1269853 0.18133366 -1.8134834
-1.1379842 0.18024144 -1.8176856
-1.1426228 0.18116066 -1.8168933
-1.1570262 0.18600363 -1.8149004
-1.1109294 0.16963893 -1.8129406
-1.1214874 0.17365575 -1.8122631
-1.1476469 0.16806465 -1.8129053
-1.1176205 0.16500211 -1.8121835
-1.118636 0.16119555 -1.8141234
-1.1382748 0.16417167 -1.815797
-1.0941877 0.15601394 -1.8145643
-1.1051408 0.15627185 -1.8115339
-1.1119682 0.15225342 -1.8110343
-1.1291536 0.15303066 -1.8097463
-1.1424252 0.1548416 -1.8142363
-1.1112902 0.1409243 -1.8101673
-1.1251612 0.14773557 -1.811698
-1.1289222 0.14651239 -1.8095371
-1.1021097 0.13472456 -1.8077247
-1.1351622 0.13723558 -1.8086038
-1.1554605 0.2060813 -1.8292528
-1.1609968 0.20786512 -1.8302615
-1.1669556 0.2064662 -1.8274772
-1.134648 0.20096096 -1.8262372
-1.1547736 0.19739974 -1.8274791
-1.1619999 0.20050278 -1.8286276
-1.117937 0.18863958 -1.8246145
-1.1435794 0.19396392 -1.8242751
-1.1507626 0.18894583 -1.8288596
-1.1622126 0.18646088 -1.8278185
-1.1223663 0.16923562 -1.8234181
-1.1437643 0.17189577 -1.8177439
-1.1516438 0.16844332 -1.8183578
-1.1539862 0.1720874 -1.8176438
-1.1771674 0.17067492 -1.8241647
-1.1037135 0.16351143 -1.8187989
-1.1349875 0.16396636 -1.8224467
-1.1426829 0.16534385 -1.822681
-1.1574762 0.15960604 -1.8160883
-1.113093 0.15146756 -1.8180114
-1.1244131 0.15695074 -1.817176
-1.1290153 0.1557321 -1.81991
-1.1462611 0.15088302 -1.8218154
-1.1119716 0.14047638 -1.8190713
-1.1188896 0.14049113 -1.8215247
-1.1262058 0.14400896 -1.8230132
-1.145909 0.1461018 -1.8231231
-1.1247239 0.20403579 -1.8385077
-1.1364996 0.20530212 -1.8412114
-1.14896 0.20042056 -1.8371696
-1.1713221 0.19673228 -1.835019
-1.1753869 0.20077375 -1.8391151
-1.1185952 0.18734309 -1.8330846
-1.1291206 0.18528461 -1.830346
-1.1352268 0.18495637 -1.8303401
-1.1443709 0.18766779 -1.8363199
-1.1492354 0.19310242 -1.8315419
-1.1556141 0.19030482 -1.833719
-1.1618171 0.19001788 -1.8361431
-1.1714623 0.18600416 -1.8340582
-1.1765801 0.18875346 -1.8359859
-1.1514274 0.17950058 -1.8320935
-1.1539351 0.1740706 -1.8352838
-1.1280906 0.17020452 -1.8337743
-1.1357014 0.1705322 -1.834965
-1.1580081 0.16735053 -1.8286027
-1.1724688 0.17072764 -1.8357766
-1.1200491 0.15774715 -1.8289971
-1.1334579 0.1633482 -1.8345754
-1.1284612 0.15109095 -1.8274361
-1.1538036 0.14824021 -1.8293868
-1.1117743 0.14541444 -1.8279101
-1.1499064 0.20305064 -1.8445625
-1.1525021 0.20505336 -1.8463116
-1.1759471 0.20993528 -1.8439512
-1.1587238 0.1963636 -1.8449588
-1.1790098 0.19311979 -1.8410813
-1.1443976 0.18719733 -1.8431052
-1.1458218 0.18887451 -1.8478819
-1.1716722 0.19167095 -1.8437794
-1.1281263 0.17501786 -1.8389227
-1.1705333 0.17795467 -1.8378702
-1.1739641 0.17451632 -1.843389
-1.136325 0.16969624 -1.8408742
-1.1503129 0.16631302 -1.8428262
-1.1648079 0.17134455 -1.8429464
-1.1726084 0.16967863 -1.8450737
-1.1791748 0.16873604 -1.8402749
-1.1235114 0.16090441 -1.8440667
-1.1312377 0.15412471 -1.8433831
-1.1448489 0.15518421 -1.8406339
-1.1659341 0.158925 -1.8398776
-1.128397 0.14804032 -1.8397255
-1.1341871 0.15388921 -1.8408949
-1.1870092 0.216553 -1.8518031
-1.1397797 0.20584247 -1.8571914
-1.154785 0.20571396 -1.8556198
-1.1682347 0.20178899 -1.8519399
-1.1481938 0.19074261 -1.8543354
-1.1632178 0.19638526 -1.8549595
-1.1678981 0.19229081 -1.8504496
-1.1792417 0.1933049 -1.854321
-1.1443157 0.18736926 -1.8498729
-1.1572971 0.18456811 -1.8509436
-1.1398351 0.17397413 -1.8490407
-1.1635803 0.17592996 -1.8504745
-1.1693186 0.17633706 -1.8502312
-1.1864563 0.18033162 -1.8479706
-1.1535207 0.15366408 -1.8447697
-1.1613991 0.15569067 -1.8467336
-1.1676072 0.15628019 -1.8482049
-1.1821799 0.16075709 -1.8493795
-1.181425 0.21302536 -1.867903
-1.1853948 0.20808834 -1.868737
-1.1572275 0.2073043 -1.8653212
-1.1635295 0.20345965 -1.8634055
-1.1659442 0.20661119 -1.8632911
-1.1894566 0.20384744 -1.8662428
-1.1513418 0.19402429 -1.8666599
-1.160942 0.19742641 -1.8672605
-1.1688101 0.19338 -1.8584299
-1.1718668 0.19302839 -1.8618234
-1.1910164 0.19591367 -1.866838
-1.2088064 0.19202203 -1.8663709
-1.1585814 0.18157604 -1.8641725
-1.1766479 0.18397194 -1.8610201
-1.1852915 0.1883834 -1.8612041
-1.1432106 0.17663872 -1.8566682
-1.1537362 0.17324173 -1.8605385
-1.1633847 0.17567992 -1.8619149
-1.1674982 0.17372295 -1.8638749
-1.1718518 0.17818385 -1.864725
-1.1385649 0.16243145 -1.8618464
-1.1500245 0.1679444 -1.8563712
-1.1659997 0.16664669 -1.8594074
-1.1811982 0.16972584 -1.861509
-1.1367686 0.15744957 -1.8575902
-1.1465026 0.15728408 -1.8596795
-1.1565442 0.1571596 -1.854596
-1.1682352 0.21990311 -1.8734376
-1.1830604 0.21656343 -1.8742871
-1.1969026 0.21840262 -1.8766669
-1.1469928 0.2101275 -1.8716748
-1.1550293 0.20767528 -1.8761283
-1.1619624 0.2114307 -1.8786498
-1.1828206 0.21028006 -1.8773344
-1.2048955 0.21555454 -1.8767377
-1.1631377 0.20448467 -1.8786249
-1.1695803 0.20573509 -1.8695502
-1.1890322 0.20010504 -1.869135
-1.2003812 0.19791555 -1.8755993
-1.2173408 0.19781542 -1.8757315
-1.1526653 0.19408107 -1.8712567
-1.1619458 0.19292438 -1.8741999
-1.1725662 0.18862313 -1.8731204
-1.1814394 0.19584501 -1.8714176
-1.1612206 0.18022987 -1.8717639
-1.1689122 0.18327314 -1.871155
-1.1719878 0.18683812 -1.871606
-1.1968626 0.18294337 -1.87266
-1.1556745 0.17629564 -1.8748138
-1.1757833 0.1730302 -1.8679326
-1.1859293 0.17715737 -1.8691646
-1.2048582 0.17245999 -1.8670813
-1.1688334 0.16451094 -1.8674018
-1.1751029 0.16195512 -1.866068
-1.1507425 0.158564 -1.8666456
-1.1897205 0.22450435 -1.8872869
-1.1553168 0.21689868 -1.888243
-1.1731137 0.21650329 -1.8833679
-1.1864966 0.21555546 -1.8858676
-1.1375095 0.21268949 -1.8833551
-1.1524096 0.2117222 -1.8873141
-1.1731874 0.20712495 -1.8848965
-1.1804662 0.20743039 -1.8832037
-1.1888468 0.21356192 -1.881253
-1.1965504 0.2089175 -1.8870757
-1.1289524 0.20351434 -1.8851242
-1.1335287 0.19625211 -1.8807795
-1.1483712 0.20480469 -1.8813201
-1.1691989 0.20079258 -1.8827484
-1.177408 0.19972005 -1.8787374
-1.1878771 0.20227304 -1.8870755
-1.1580404 0.18906626 -1.8838122
-1.1694455 0.19065526 -1.8818867
-1.2050774 0.19358516 -1.8853087
-1.1447194 0.17713463 -1.8807713
-1.1569248 0.18362468 -1.8817306
-1.1707051 0.17751926 -1.8815337
-1.1717554 0.18287668 -1.8831877
-1.1964139 0.18405804 -1.8770306
-1.2014295 0.18569624 -1.8792955
-1.1527152 0.17466164 -1.8824401
-1.1684738 0.17257723 -1.8766754
-1.1826637 0.1742186 -1.8820753
-1.2076162 0.17572725 -1.8788458
-1.1410041 0.16078189 -1.8777829
-1.1506721 0.16115353 -1.8795911
-1.1618959 0.16063732 -1.8732877
-1.1726518 0.16367561 -1.8786403
-1.1929375 0.16552475 -1.8749368
-1.1743686 0.22287902 -1.8954607
-1.1819646 0.22673717 -1.8980334
-1.2023896 0.22681263 -1.8997316
-1.2178681 0.22987789 -1.8941085
-1.1427749 0.21509349 -1.8978572
-1.1679633 0.21792063 -1.8990309
-1.175808 0.21479645 -1.8961179
-1.1812199 0.21636775 -1.8971846
-1.1903989 0.21843031 -1.8901529
-1.1959743 0.21894836 -1.8907578
-1.2080146 0.22221562 -1.899402
-1.2176189 0.22125104 -1.8931693
-1.2241219 0.21677107 -1.8975854
-1.1364391 0.21000302 -1.8898402
-1.1424115 0.21205786 -1.8978853
-1.1474864 0.20582655 -1.8979121
-1.1551707 0.21097016 -1.8963311
-1.1703862 0.20700848 -1.8946171
-1.1898906 0.21153125 -1.8918383
-1.1391804 0.19748336 -1.8945634
-1.1622725 0.19826999 -1.8928696
-1.1684042 0.19788316 -1.8918197
-1.1914601 0.20130947 -1.8896194
-1.1972591 0.1952765 -1.8897635
-1.2144902 0.19836283 -1.8936572
-1.1320262 0.19276014 -1.8887274
-1.1377409 0.18487692 -1.8936316
-1.1450282 0.19088948 -1.8939356
-1.1551734 0.18959868 -1.8864167
-1.1596375 0.19288898 -1.8931037
-1.1666522 0.19013557 -1.8905171
-1.1750683 0.19007713 -1.887669
-1.1784197 0.18514237 -1.8921874
-1.1936655 0.19112921 -1.8873249
-1.1996604 0.19039154 -1.8921789
-1.1200644 0.18237674 -1.8898842
-1.1409671 0.17905799 -1.8873336
-1.1566316 0.18139541 -1.8901217
-1.1595497 0.18055147 -1.8878999
-1.1755221 0.17963222 -1.8912367
-1.1802051 0.17620271 -1.8910277
-1.1869458 0.18367052 -1.8884811
-1.1946298 0.17726907 -1.8911687
-1.1334447 0.16759756 -1.8869745
-1.1609286 0.17036429 -1.8920717
-1.1771433 0.17344183 -1.8882794
-1.1817195 0.17109823 -1.8845093
-1.1879594 0.17071542 -1.8881222
-1.2006996 0.17488131 -1.8851328
-1.1312656 0.16299978 -1.8889201
-1.1824315 0.16603154 -1.8873429
-1.2296815 0.23390248 -1.9027214
-1.1621542 0.22386572 -1.9042652
-1.1894568 0.2234472 -1.900991
-1.1185427 0.2178134 -1.9067156
-1.1277183 0.2133207 -1.9035455
-1.1342825 0.21553144 -1.9071789
-1.1429379 0.21316844 -1.9047426
-1.1813438 0.21963367 -1.9048258
-1.2013259 0.21766806 -1.9054971
-1.2244327 0.2180261 -1.9080628
-1.2355679 0.21425641 -1.9002414
-1.141999 0.20356974 -1.9019301
-1.1444802 0.21030217 -1.9081882
-1.1755078 0.20908865 -1.9014895
-1.1841879 0.20660913 -1.9057343
-1.186754 0.20447165 -1.9053184
-1.1948118 0.20807523 -1.9044943
-1.2124125 0.20520934 -1.9015893
-1.1233054 0.19607782 -1.9024329
-1.1297705 0.20075071 -1.9042068
-1.1345949 0.19889784 -1.9015934
-1.142041 0.19510007 -1.9043567
-1.160494 0.20157242 -1.8986598
-1.170267 0.1989738 -1.9000002
-1.1715337 0.19536963 -1.896915
-1.2135373 0.19407082 -1.9029291
-1.1162268 0.19077665 -1.899639
-1.1266603 0.18491876 -1.9005791
-1.1372296 0.18617389 -1.9015311
-1.1530275 0.18752122 -1.9016263
-1.1632375 0.19023111 -1.8979331
-1.1694123 0.19105291 -1.9043305
-1.173358 0.19145316 -1.9050653
-1.1842146 0.1882022 -1.9022195
-1.1953502 0.18613029 -1.8952037
-1.2062961 0.18548885 -1.9014761
-1.2178217 0.18764594 -1.9004177
-1.2205925 0.18805683 -1.8951099
-1.146378 0.18077397 -1.9007394
-1.1518629 0.17549363 -1.899157
-1.1585552 0.18122628 -1.8963211
-1.1737161 0.17889699 -1.8947397
-1.1889598 0.1796076 -1.9010546
-1.1965251 0.17744341 -1.8963184
-1.1538942 0.16794828 -1.8958707
-1.1757776 0.17407987 -1.8985962
-1.2120955 0.17525983 -1.8928033
-1.1090593 0.22037545 -1.918396
-1.1312503 0.2210575 -1.9156054
-1.1380215 0.22340769 -1.9176477
-1.1482506 0.22533694 -1.9177482
-1.1600957 0.22253168 -1.9136698
-1.1699655 0.22408631 -1.9118496
-1.173527 0.22823757 -1.9147831
-1.1858495 0.22660369 -1.9115704
-1.2050314 0.22435576 -1.9100808
-1.111881 0.21372864 -1.9122481
-1.1229864 0.21807188 -1.9178115
-1.1274867 0.21777016 -1.9153308
-1.1348958 0.21738532 -1.91673
-1.1403402 0.21466726 -1.9148362
-1.1522959 0.21412238 -1.913624
-1.1601986 0.21895975 -1.9174618
-1.169221 0.21823063 -1.9156104
-1.1807152 0.21107334 -1.9167955
-1.1861897 0.21141478 -1.9147992
-1.2120423 0.21831462 -1.9084994
-1.1198763 0.20223987 -1.914184
-1.1249152 0.20120522 -1.9128015
-1.1334503 0.20763662 -1.9160167
-1.146962 0.20658979 -1.9168669
-1.1521828 0.20505032 -1.914125
-1.1617976 0.20355901 -1.9121698
-1.167822 0.20491838 -1.9124582
-1.1756185 0.20654359 -1.9123342
-1.1999791 0.20265779 -1.9125699
-1.1076416 0.19264689 -1.9136227
-1.1362971 0.19581655 -1.9152579
-1.1400211 0.19735643 -1.9155378
-1.148609 0.19553795 -1.9150362
-1.1547173 0.19633785 -1.9133359
-1.164655 0.19886276 -1.9147704
-1.1941507 0.19944131 -1.9117637
-1.2080611 0.19858903 -1.9092157
-1.2349291 0.19663218 -1.9069918
-1.1218632 0.18421906 -1.9108632
-1.1295543 0.18874198 -1.9084333
-1.1424903 0.18524736 -1.906951
-1.1478742 0.18664151 -1.9139519
-1.1671532 0.1919423 -1.9087529
-1.1776682 0.18314859 -1.9082882
-1.1794699 0.18490317 -1.9079289
-1.1880903 0.18726775 -1.9093697
-1.2071532 0.18867123 -1.9062679
-1.2117763 0.19225109 -1.9096376
-1.1309634 0.1779744 -1.9105378
-1.1488924 0.17975473 -1.9106491
-1.1529385 0.17570329 -1.9092684
-1.1615846 0.18009755 -1.906723
-1.1680101 0.17855126 -1.909076
-1.1751584 0.18040022 -1.9106245
-1.1824193 0.17506239 -1.9061332
-1.1881278 0.17789099 -1.9080256
-1.1988772 0.17879948 -1.912192
-1.2077723 0.17601836 -1.9075085
-1.224146 0.18106443 -1.9046545
-1.1249477 0.17038837 -1.907886
-1.1360745 0.16951892 -1.9051775
-1.1946834 0.17269972 -1.9081128
-1.1477911 0.22746712 -1.9291062
-1.2187228 0.22904482 -1.9208643
-1.0980021 0.22135451 -1.9243083
-1.1130923 0.21956101 -1.9277887
-1.1300126 0.22135732 -1.9205624
-1.1340859 0.22397688 -1.9232957
-1.1597557 0.22324747 -1.9256396
-1.1665907 0.22555786 -1.9235306
-1.1880951 0.22308201 -1.9268477
-1.2016673 0.221457 -1.9227057
-1.1310694 0.21606284 -1.9265887
-1.140934 0.21446496 -1.9244462
-1.1475408 0.21160176 -1.9258876
-1.1533476 0.21068749 -1.926366
-1.1585288 0.20980471 -1.9189097
-1.1846869 0.21123785 -1.9240245
-1.1996357 0.21521115 -1.9231371
-1.0955949 0.20650008 -1.9275007
-1.1099821 0.20372906 -1.924161
-1.1163208 0.20335558 -1.925222
-1.1287632 0.20043731 -1.9233241
-1.1304427 0.20892408 -1.9204977
-1.1388897 0.20441419 -1.9251649
-1.1469907 0.2039777 -1.9250238
-1.1555281 0.2048513 -1.9187144
-1.1653397 0.20855033 -1.9186643
-1.1823698 0.19995308 -1.9226377
-1.1217982 0.19222909 -1.9250079
-1.1266233 0.19869 -1.9254677
-1.1423422 0.1897938 -1.924135
-1.1451771 0.19553655 -1.9227087
-1.1534867 0.19407874 -1.919499
-1.1624542 0.1971873 -1.9174781
-1.1712286 0.19587475 -1.9161078
-1.220499 0.19133854 -1.917733
-1.1277119 0.18806732 -1.9179393
-1.1309663 0.18486792 -1.918559
-1.1383122 0.18135968 -1.917576
-1.1493112 0.18991908 -1.922721
-1.1535472 0.1866537 -1.9184314
-1.1595366 0.18573824 -1.9195925
-1.1646256 0.1857174 -1.9235171
-1.193187 0.18814355 -1.9158748
-1.1162655 0.17392567 -1.9223499
-1.1409458 0.17618358 -1.9182848
-1.1475062 0.18019137 -1.9221735
-1.1511146 0.1752665 -1.9218451
-1.1333174 0.22978339 -1.934762
-1.1410221 0.23094285 -1.9375843
-1.1454514 0.23070139 -1.9353878
-1.1544136 0.22997311 -1.9345905
-1.0878078 0.22423112 -1.9375318
-1.0927016 0.22132674 -1.9327831
-1.1032624 0.2208516 -1.9379712
-1.1118308 0.21769416 -1.9335726
-1.128198 0.21941364 -1.9357002
-1.1341267 0.22233874 -1.9337094
-1.1397257 0.21715507 -1.9369949
-1.1481998 0.2230424 -1.9358039
-1.1620501 0.22178271 -1.9318285
-1.1763446 0.22095549 -1.9305546
-1.1021302 0.21163914 -1.9354005
-1.1158063 0.21351475 -1.937232
-1.1355349 0.21047702 -1.9320414
-1.1422203 0.21082228 -1.9326619
-1.1483198 0.21252328 -1.9289724
-1.1509281 0.21540499 -1.9310753
-1.2021023 0.21332332 -1.9345425
-1.1043432 0.205704 -1.9334474
-1.1274285 0.20137763 -1.9296238
-1.1447514 0.20597053 -1.9272864
-1.1582526 0.20451608 -1.9319919
-1.1664208 0.20482668 -1.9293367
-1.1008927 0.1927686 -1.9311842
-1.1301872 0.19826716 -1.9283594
-1.1326774 0.19455764 -1.9302084
-1.1415033 0.19294351 -1.9309115
-1.1495116 0.19686222 -1.9323556
-1.1618171 0.191818 -1.9310887
-1.1691923 0.19800383 -1.9337208
-1.1794177 0.19439977 -1.9287679
-1.2227584 0.19107461 -1.9294121
-1.11678 0.1873934 -1.9303071
-1.125692 0.18452749 -1.92831
-1.1318256 0.18126845 -1.9265078
-1.1376294 0.18303627 -1.9312066
-1.1483551 0.18510175 -1.9256805
-1.1235135 0.17803958 -1.9282712
-1.1681784 0.17771587 -1.9259043
-1.1754831 0.17858469 -1.9241379
-1.0900923 0.22549942 -1.9417568
-1.1279285 0.23126131 -1.9430223
-1.1354798 0.23126939 -1.945899
-1.1408535 0.22824317 -1.9419717
-1.146481 0.22938216 -1.9468368
-1.1507205 0.23106867 -1.9407665
-1.1014328 0.22210914 -1.9443644
-1.1126777 0.21974272 -1.9432011
-1.127648 0.22081098 -1.942788
-1.1326636 0.21827814 -1.9416304
-1.0861114 0.20906204 -1.9391811
-1.0945361 0.20773834 -1.9440984
-1.1054313 0.21547246 -1.9418871
-1.1201465 0.21237496 -1.9406831
-1.1264572 0.21154997 -1.9399695
-1.1334639 0.21340778 -1.9430044
-1.1397345 0.21234939 -1.9409633
-1.1551577 0.20765513 -1.9413825
-1.0915473 0.20087919 -1.9441174
-1.0997422 0.20457664 -1.9394463
-1.1112486 0.20137912 -1.9438131
-1.1204821 0.20086652 -1.9407132
-1.1285936 0.20005965 -1.9417551
-1.141984 0.2005311 -1.9422483
-1.1519911 0.20207143 -1.9359444
-1.1601019 0.20278183 -1.9420531
-1.0960268 0.1882239 -1.9364579
-1.1088133 0.19575733 -1.9439204
-1.1120994 0.19371077 -1.9397585
-1.1237545 0.18905202 -1.9434696
-1.1328834 0.19377479 -1.9404507
-1.1384588 0.19418439 -1.937025
-1.1470584 0.18990061 -1.9390795
-1.1526506 0.19242236 -1.9373271
-1.1141263 0.18451217 -1.9396856
-1.1208375 0.18306556 -1.9334857
-1.1261773 0.18337455 -1.9380139
-1.1333334 0.18362325 -1.9371592
-1.1378614 0.1811344 -1.9372404
-1.145969 0.18437317 -1.9386735
-1.0882579 0.2259075 -1.9579346
-1.1133653 0.23042074 -1.9513317
-1.1199226 0.2300691 -1.9545842
-1.1276432 0.22565782 -1.9510387
-1.1334671 0.22935253 -1.9543469
-1.1473184 0.22420421 -1.9531056
-1.0938314 0.21986485 -1.9535428
-1.1000463 0.21392193 -1.9536672
-1.1056591 0.21927348 -1.9544075
-1.1122994 0.21887383 -1.9541829
-1.1196415 0.22033331 -1.9529771
-1.1289043 0.21514761 -1.9535004
-1.1313 0.21526489 -1.9495931
-1.1381519 0.22141191 -1.9564041
-1.0847287 0.20977271 -1.9547493
-1.0900037 0.20679453 -1.9505836
-1.0999861 0.20633423 -1.9540528
-1.1090502 0.2053754 -1.9530847
-1.1148745 0.21183264 -1.9546276
-1.1314089 0.21408489 -1.9480233
-1.1448113 0.20897144 -1.9490503
-1.1508973 0.20584902 -1.9504812
-1.101225 0.20272505 -1.9506204
-1.1076536 0.20349485 -1.952063
-1.1127859 0.19854873 -1.9523209
-1.1202363 0.20291498 -1.947489
-1.1291006 0.20107397 -1.9472858
-1.1353564 0.20328993 -1.9516003
-1.1399037 0.19859323 -1.9514908
-1.1466352 0.20152792 -1.9456403
-1.0862883 0.19044176 -1.9475952
-1.0932075 0.19196048 -1.9461575
-1.0990783 0.18949246 -1.9509404
-1.1046041 0.18800247 -1.9519638
-1.1109318 0.18997574 -1.9499429
-1.1167169 0.18839654 -1.9502571
-1.1281947 0.19444099 -1.9496031
-1.132532 0.19185719 -1.949755
-1.1466231 0.1864222 -1.9512782
-1.1199428 0.18228918 -1.9486254
-1.1124703 0.23390037 -1.9674213
-1.1181847 0.23604831 -1.968164
-1.1306736 0.23724285 -1.9646355
-1.1378123 0.23326066 -1.959486
-1.0723203 0.22807056 -1.9664074
-1.0784507 0.22794184 -1.9685856
-1.0838475 0.22563526 -1.9656509
-1.0938305 0.22565392 -1.9642575
-1.1070865 0.22827321 -1.9662737
-1.1143378 0.22612974 -1.9657539
-1.1300597 0.22455916 -1.9613236
-1.0867169 0.2216492 -1.9617246
-1.0930353 0.2194598 -1.9634782
-1.0980563 0.2208184 -1.9638023
-1.1062003 0.2164889 -1.9602604
-1.1099988 0.21849617 -1.9635386
-1.1201431 0.21832794 -1.9631155
-1.1261355 0.21776363 -1.9626763
-1.1320871 0.21943149 -1.9613563
-1.0726634 0.21074641 -1.9647349
-1.0802652 0.20901239 -1.9617208
-1.0867548 0.20919955 -1.9599398
-1.0920796 0.20535886 -1.961567
-1.1057615 0.20436865 -1.9590602
-1.1122062 0.20646429 -1.9636043
-1.1182659 0.20794365 -1.9593098
-1.1262332 0.20616663 -1.9606338
-1.1344652 0.21028775 -1.9567181
-1.0596069 0.19865277 -1.9572822
-1.0836556 0.19454098 -1.957922
-1.1059134 0.20067099 -1.95953
-1.1100886 0.1949771 -1.9555478
-1.1229409 0.19707531 -1.9603467
-1.1273898 0.20147553 -1.9632238
-1.1360511 0.19718033 -1.9576254
-1.1394414 0.19624212 -1.9563143
-1.1441199 0.20165619 -1.9561263
-1.0814557 0.19058046 -1.9622635
-1.0914613 0.19306257 -1.9614629
-1.1064368 0.18721008 -1.9582999
-1.1131479 0.18645328 -1.9598739
-1.1219594 0.18891269 -1.9544101
-1.1395353 0.18763593 -1.9612364
-1.1517949 0.19338831 -1.9547561
-1.0735115 0.23293561 -1.9764391
-1.0998027 0.23289955 -1.9727834
-1.126246 0.23833644 -1.9715074
-1.1334895 0.23181596 -1.9709481
-1.074242 0.22758293 -1.9758465
-1.0998828 0.22390911 -1.9728653
-1.1067034 0.22286212 -1.9773412
-1.1136205 0.22414541 -1.9716148
-1.1212521 0.22263333 -1.9759495
-1.1359471 0.22558266 -1.9695318
-1.0705268 0.21123019 -1.9728582
-1.0781132 0.21367756 -1.972281
-1.0831267 0.21985894 -1.9728262
-1.0974693 0.21374881 -1.9724188
-1.1081594 0.21386483 -1.9697551
-1.1142942 0.2178497 -1.9709343
-1.1298777 0.21698219 -1.9671323
-1.0929568 0.20744112 -1.970919
-1.1002637 0.20871812 -1.9668936
-1.1030612 0.20587268 -1.9656755
-1.110636 0.20935377 -1.974112
-1.133847 0.20615208 -1.9693086
-1.0668114 0.19487748 -1.9698699
-1.0741037 0.19712153 -1.9696867
-1.0815849 0.19511124 -1.9721891
-1.0955517 0.19994876 -1.9690708
-1.1014302 0.20101163 -1.9663569
-1.103874 0.19484022 -1.9691187
-1.1106308 0.1986081 -1.9707258
-1.1213833 0.19830942 -1.9669776
-1.1277521 0.20162648 -1.9684352
-1.086661 0.19114363 -1.9706553
-1.0925274 0.18710023 -1.9665848
-1.0986919 0.18943757 -1.9685388
-1.1081628 0.18761352 -1.9640263
-1.1115711 0.18858886 -1.9673468
-1.0537269 0.22849602 -1.9876516
-1.0665734 0.22988853 -1.9831102
-1.0725709 0.23281416 -1.9866399
-1.0778958 0.23652989 -1.9886996
-1.0880859 0.23127368 -1.9835266
-1.0917677 0.23429853 -1.9835662
-1.100702 0.23178327 -1.9824735
-1.1057249 0.23298329 -1.9844457
-1.1208659 0.23675072 -1.9827272
-1.0732292 0.22677454 -1.9878445
-1.0873388 0.22755346 -1.9878149
-1.0903019 0.22335476 -1.979861
-1.0980446 0.22280848 -1.9824059
-1.1064354 0.22500801 -1.9814881
-1.1176149 0.22603205 -1.979175
-1.1257669 0.22835603 -1.9801842
-1.0685614 0.21625808 -1.9840456
-1.0707725 0.21442029 -1.9839538
-1.0871505 0.21790448 -1.9770212
-1.0928104 0.21332625 -1.9799235
-1.1034267 0.21423683 -1.9797213
-1.0774 0.20821673 -1.9829241
-1.0870564 0.20625409 -1.9781562
-1.0919805 0.20544237 -1.9792175
-1.1004676 0.20328087 -1.9770454
-1.1070681 0.20610371 -1.9791255
-1.1103384 0.2090323 -1.9815663
-1.1197193 0.20788985 -1.9793776
-1.0657586 0.19729644 -1.9809953
-1.0734801 0.1965766 -1.9799507
-1.0795097 0.19271225 -1.9810673
-1.0874301 0.19470644 -1.9813722
-1.0915626 0.19343421 -1.9761062
-1.1005261 0.19508338 -1.9779041
-1.1057031 0.19452387 -1.9774761
-1.085151 0.23855788 -1.99386
-1.0547651 0.23201862 -1.9981213
-1.0643134 0.23591182 -1.9953524
-1.0731727 0.22907221 -1.9978139
-1.0810784 0.22766405 -1.9950869
-1.0872035 0.23263314 -1.9952407
-1.0936457 0.23115292 -1.9925768
-1.105489 0.22819629 -1.9939047
-1.1209704 0.22994259 -1.996768
-1.0590094 0.2188386 -1.9958105
-1.0618809 0.22321501 -1.9948338
-1.0785438 0.22400442 -1.9921528
-1.0946252 0.22526503 -1.9906132
-1.0967613 0.22022226 -1.9895881
-1.1126152 0.22408402 -1.987397
-1.0601344 0.21233222 -1.9942383
-1.0722938 0.21373963 -1.9926054
-1.0851668 0.2133553 -1.986313
-1.0933394 0.21326211 -1.9891616
-1.0979533 0.2118488 -1.9887282
-1.1041622 0.21180418 -1.9913785
-1.0549998 0.20228252 -1.9932162
-1.0618323 0.19920856 -1.993641
-1.066628 0.20343041 -1.9886206
-1.0924982 0.20502633 -1.9878024
-1.0965395 0.20533034 -1.9852186
-1.1151978 0.20474941 -1.9881065
-1.0676221 0.19652283 -1.9910469
-1.0901858 0.19747519 -1.9892284
-1.0976377 0.19559133 -1.9868484
-1.0781362 0.2397716 -2.007967
-1.0909699 0.24120468 -2.0038922
-1.0982963 0.24092367 -2.0045025
-1.0490291 0.23404485 -2.0005388
-1.0600283 0.23159629 -1.9999485
-1.0689403 0.23170564 -2.0000563
-1.0784442 0.22862101 -2.0052876
-1.0845535 0.23142588 -2.0040267
-1.0893711 0.23447129 -2.0027289
-1.0990626 0.23231891 -2.0056396
-1.1055701 0.228993 -1.9992117
-1.1214743 0.23215294 -1.9990445
-1.0739628 0.22005528 -2.0033135
-1.0804752 0.21982464 -1.9974056
-1.0844774 0.22059873 -1.9976736
-1.0910416 0.22330603 -1.999863
-1.1011454 0.22558641 -2.0008545
-1.0615557 0.21522623 -2.0052738
-1.0653862 0.21545711 -1.9968489
-1.0778607 0.21075606 -2.0024543
-1.0849384 0.20791286 -1.9970441
-1.0922704 0.21206707 -2.000746
-1.0973607 0.20920333 -1.9988419
-1.1044165 0.21608678 -1.99711
-1.1169124 0.21327826 -2.0010355
-1.0655137 0.20074865 -1.9996147
-1.0707029 0.20621228 -2.0011652
-1.0820347 0.20419678 -1.9944783
-1.0879275 0.20434898 -1.9965214
-1.0997202 0.20001376 -1.99335
-1.1045759 0.20602703 -1.9979463
-1.0450267 0.23423648 -2.0092587
-1.053467 0.23797515 -2.0101695
-1.0642564 0.24103159 -2.0142431
-1.0715735 0.23775691 -2.0158222
-1.0864396 0.23732898 -2.014998
-1.0904634 0.24246335 -2.011112
-1.1001275 0.23785102 -2.0119951
-1.1027024 0.23662564 -2.009901
-1.0533032 0.22977355 -2.0079374
-1.0640452 0.22842517 -2.0121651
-1.0725807 0.22734526 -2.0127244
-1.0785648 0.22643599 -2.0145845
-1.0862433 0.22824576 -2.0142205
-1.090659 0.22982872 -2.0094538
-1.09665 0.23081914 -2.0143306
-1.0356927 0.21994433 -2.0080044
-1.0494574 0.22141907 -2.007575
-1.0555098 0.21750575 -2.0075748
-1.0626248 0.21759993 -2.0063901
-1.0704707 0.22208571 -2.0098395
-1.081414 0.21799797 -2.0128698
-1.0845385 0.21688083 -2.0118508
-1.0948123 0.22091106 -2.0087676
-1.098 0.21960762 -2.0100946
-1.1061862 0.21596718 -2.0091405
-1.0595248 0.21086803 -2.0112419
-1.0644301 0.21196291 -2.008656
-1.0690436 0.20883581 -2.0092065
-1.0770793 0.21002397 -2.0103099
-1.0845609 0.21109214 -2.0084612
-1.0895984 0.21154034 -2.0071919
-1.0964519 0.21306998 -2.0059645
-1.0454479 0.20486298 -2.0049808
-1.0519559 0.2012572 -2.0043671
-1.0792445 0.20055163 -2.007993
-1.0893131 0.20174196 -2.0066717
-1.0600512 0.24178371 -2.02806
-1.0765829 0.24506161 -2.0250628
-1.0339745 0.23841819 -2.0273154
-1.0511067 0.23435119 -2.0221236
-1.0612561 0.24102727 -2.0237792
-1.0640049 0.23476538 -2.0256498
-1.0735224 0.23465708 -2.0246706
-1.0772907 0.23628017 -2.0236795
-1.0843805 0.24092036 -2.0233986
-1.089391 0.2365112 -2.020535
-1.0399057 0.22399959 -2.0193398
-1.0433406 0.23127306 -2.0179839
-1.0532657 0.22855616 -2.020148
-1.0582644 0.22957429 -2.0211301
-1.0736545 0.22576135 -2.0212419
-1.0781095 0.22441015 -2.0234354
-1.0858419 0.22833344 -2.0253358
-1.0302459 0.2168307 -2.0243773
-1.0462772 0.21767411 -2.0246692
-1.0517477 0.21745998 -2.0164907
-1.0596032 0.21671283 -2.0238051
-1.0646144 0.2203787 -2.021512
-1.0722908 0.21798295 -2.0193188
-1.0812055 0.21914199 -2.0238254
-1.0512093 0.21176881 -2.0183251
-1.0644444 0.20904261 -2.0153301
-1.0707326 0.21151006 -2.0190897
-1.0808051 0.21263471 -2.0190845
-1.0876769 0.20522428 -2.0198393
-1.0923526 0.21182829 -2.0163488
-1.0581114 0.24430001 -2.0377162
-1.0648885 0.24482769 -2.0338609
-1.0693537 0.24255991 -2.0323088
-1.0758343 0.24580324 -2.0335009
-1.0318885 0.2324 -2.0317521
-1.0384361 0.23706192 -2.0335798
-1.0449313 0.2368021 -2.0322971
-1.0508562 0.23537487 -2.0305691
-1.0638982 0.23547372 -2.0319347
-1.0727214 0.23307851 -2.0279033
-1.0813562 0.23905519 -2.0334666
-1.100086 0.23809254 -2.031147
-1.0430276 0.23117563 -2.0273998
-1.0579327 0.22627583 -2.0325694
-1.0643706 0.22704166 -2.030416
-1.0730523 0.22848228 -2.0283797
-1.0772916 0.22553772 -2.031899
-1.0976381 0.22283313 -2.0271194
-1.0140435 0.21628982 -2.0346003
-1.0253752 0.21427435 -2.0279133
-1.0353714 0.22068909 -2.030405
-1.0419395 0.21969369 -2.0277078
-1.0506967 0.21671882 -2.0282953
-1.0668175 0.21579549 -2.029875
-1.0705947 0.21405998 -2.0273638
-1.0803337 0.22171915 -2.0275755
-1.0831085 0.22001266 -2.0320935
-1.0939195 0.22167 -2.0305836
-1.0977354 0.21760944 -2.0286822
-1.0330362 0.20406553 -2.0274332
-1.0466821 0.20688409 -2.0269175
-1.0513006 0.20734394 -2.0275578
-1.0588281 0.20992148 -2.0282092
-1.0669622 0.21214727 -2.0308287
-1.0783862 0.20662838 -2.0288007
-1.0860003 0.20750958 -2.0279543
-1.09519 0.20757362 -2.0230918
-1.0294349 0.23990029 -2.0429606
-1.0375293 0.24489173 -2.0448692
-1.0451384 0.24283561 -2.0439935
-1.0508132 0.24608606 -2.0432899
-1.0577413 0.24562225 -2.0410686
-1.0723808 0.23939222 -2.04285
-1.0111257 0.23736066 -2.0472515
-1.016486 0.23269176 -2.0377955
-1.0234147 0.23427203 -2.0380764
-1.0381107 0.23216429 -2.0443499
-1.0443549 0.23335332 -2.0445619
-1.0520571 0.23451859 -2.0386546
-1.0602601 0.23163021 -2.0392406
-1.0644755 0.23652902 -2.0432467
-1.0717139 0.23581943 -2.0415344
-1.0087296 0.221073 -2.0440285
-1.040207 0.22288764 -2.0376961
-1.0410997 0.22615948 -2.0413804
-1.0517431 0.22684297 -2.0423954
-1.0568713 0.22653311 -2.0365975
-1.072414 0.22220677 -2.0382638
-1.0399909 0.21759486 -2.0417788
-1.0438206 0.21743345 -2.0390284
-1.0506214 0.21473283 -2.0366201
-1.0597843 0.21646312 -2.0424266
-1.0675038 0.21663895 -2.0410299
-1.0702347 0.21301296 -2.0346634
-1.0873258 0.21580678 -2.0348437
-1.0363836 0.20904922 -2.0402942
-1.0739572 0.21070775 -2.0367365
-1.0535445 0.24774361 -2.0568147
-1.0593708 0.24824813 -2.0538247
-0.99998558 0.23918256 -2.0543261
-1.0099696 0.24252033 -2.0551417
-1.0149782 0.24047405 -2.0491533
-1.0261121 0.24381715 -2.0543621
-1.0285807 0.24314779 -2.0539532
-1.0354604 0.24107054 -2.0530787
-1.0450416 0.23988622 -2.0502472
-1.0509574 0.24258992 -2.0514703
-1.0571668 0.2464506 -2.0513687
-1.0112498 0.23174101 -2.0546341
-1.0313326 0.23229441 -2.0526893
-1.0460615 0.23042771 -2.0487845
-1.0510229 0.2320267 -2.0528533
-1.05748 0.23004892 -2.0502687
-1.0632797 0.23318383 -2.0503323
-0.99758929 0.22289497 -2.0511031
-1.0049736 0.22736141 -2.0543032
-1.0307392 0.22078615 -2.0501351
-1.0349751 0.2233595 -2.0488865
-1.0424242 0.22453851 -2.05217
-1.0490681 0.22458684 -2.0510833
-1.0633062 0.21976429 -2.0482366
-1.0767238 0.22275364 -2.0475228
-1.0028261 0.21099859 -2.0511098
-1.0266228 0.21377397 -2.0523567
-1.0285112 0.21506023 -2.0477982
-1.0393634 0.21469846 -2.0486693
-1.0506127 0.21507582 -2.0496368
-1.0553101 0.21272835 -2.0469668
-1.0695153 0.21523815 -2.0446877
-1.0348907 0.2483587 -2.0624654
-1.0449526 0.24877289 -2.0649154
-1.0024779 0.24087772 -2.0618155
-1.0172124 0.24473986 -2.0606148
-1.0241953 0.24325517 -2.0619256
-1.0307945 0.23957446 -2.0615282
-1.0367846 0.2415832 -2.0619316
-1.0415077 0.24141157 -2.0648112
-1.0492412 0.24470943 -2.0634003
-1.0654973 0.24127597 -2.0590534
-0.9935388 0.22914776 -2.0603456
-1.0137705 0.23517048 -2.0571806
-1.0230392 0.23196247 -2.0590088
-1.0386741 0.23465839 -2.0614872
-1.0438752 0.23078912 -2.0588562
-1.0535909 0.23494631 -2.064132
-1.0575646 0.23227161 -2.056567
-0.99768817 0.21776554 -2.0638044
-1.0185684 0.21921089 -2.058908
-1.0251199 0.22343513 -2.061327
-1.0327271 0.22377846 -2.0607815
-1.036126 0.21844223 -2.0577669
-1.04337 0.22142825 -2.0592232
-1.0519546 0.22171539 -2.0584188
-1.0573585 0.21980876 -2.059993
-1.063132 0.22450149 -2.0631969
-1.0681016 0.22164461 -2.0569651
-1.082299 0.21978533 -2.0533385
-1.0178186 0.21468177 -2.0624676
-1.0462502 0.21769679 -2.0545809
-1.0532619 0.21675223 -2.0540767
-1.0179288 0.24869484 -2.073849
-1.0227739 0.24848241 -2.07358
-1.0301839 0.24953064 -2.0699306
-1.0379013 0.24993378 -2.0715244
-1.0538733 0.2517063 -2.0720036
-0.98956347 0.23961911 -2.0737433
-0.99625701 0.24167392 -2.0750978
-1.0125563 0.2429876 -2.0688598
-1.0168877 0.23958594 -2.0700152
-1.0243838 0.24097034 -2.0734136
-1.0332915 0.23869917 -2.071995
-1.0346459 0.23497674 -2.0705678
-1.0480386 0.24071035 -2.0688848
-0.99859232 0.22849005 -2.0728598
-1.0016979 0.23432162 -2.0663986
-1.0099632 0.22637424 -2.0656958
-1.014552 0.22720343 -2.0733776
-1.0239714 0.22897637 -2.0732012
-1.030093 0.22653112 -2.0689561
-1.0444072 0.22978252 -2.0705585
-1.0500257 0.23220971 -2.0737224
-1.0583498 0.23206696 -2.0714681
-0.98848784 0.22271281 -2.0674305
-0.99512142 0.22493345 -2.0702732
-1.0090945 0.22248223 -2.0690804
-1.0192128 0.21830866 -2.0656655
-1.0229851 0.22015554 -2.0644741
-1.0291545 0.21989581 -2.0727665
-1.0452815 0.22385329 -2.0684412
-1.0352744 0.21673501 -2.0636196
-0.98972785 0.24741682 -2.0846453
-0.99664062 0.24733201 -2.0868025
-1.0095971 0.24583811 -2.0860226
-1.0167775 0.24876359 -2.0845134
-1.028625 0.24960846 -2.0797834
-0.9921459 0.23690209 -2.0781634
-0.99550515 0.24112633 -2.0862627
-1.0030428 0.24091551 -2.0780427
-1.0103568 0.23923507 -2.0808606
-1.014989 0.23561656 -2.0828733
-1.0239064 0.2353254 -2.0811474
-1.0327116 0.23738807 -2.0809271
-1.036539 0.23532754 -2.0804379
-1.0418289 0.23644701 -2.0819819
-0.9894436 0.23002422 -2.0801125
-1.0060178 0.22947383 -2.082792
-1.012969 0.22827819 -2.0833776
-1.0161072 0.22927749 -2.0790169
-1.025395 0.22896516 -2.0822799
-1.0312035 0.22900784 -2.0823834
-1.0349495 0.22776833 -2.0754061
-1.0431638 0.22872174 -2.0763457
-1.0559937 0.23130885 -2.0764129
-1.0099016 0.22217089 -2.0751636
-1.019431 0.22215229 -2.0826104
-1.0519912 0.22361311 -2.0741794
-1.0189613 0.25118497 -2.0946407
-1.0241917 0.25337276 -2.0921333
-1.0297287 0.25303724 -2.0898228
-0.98801458 0.24177104 -2.0903745
-0.99541181 0.24524015 -2.0921476
-1.0049915 0.24141544 -2.095185
-1.0091665 0.24391603 -2.0893521
-1.0180261 0.24297184 -2.089838
-1.0266334 0.24208024 -2.0892775
-1.0319201 0.24614617 -2.0929008
-1.0343964 0.24921587 -2.0898514
-0.98277867 0.23231864 -2.0913618
-0.99607104 0.23153707 -2.0935948
-1.0013013 0.23628736 -2.0910046
-1.0106032 0.23916522 -2.090441
-1.0207405 0.23781329 -2.0905788
-1.0295608 0.2355341 -2.0858157
-1.0428504 0.23562282 -2.0897686
-0.98553735 0.22513783 -2.0871341
-0.99614191 0.22981399 -2.0930126
-1.007172 0.22593522 -2.086417
-1.0140867 0.22728771 -2.0896976
-1.0354629 0.22861663 -2.0891061
-0.98815477 0.25092345 -2.1000826
-1.0062923 0.25340807 -2.1027863
-1.016302 0.25186852 -2.1034405
-1.0250772 0.25612575 -2.098572
-0.97533387 0.24369627 -2.1014936
-0.98426729 0.24712268 -2.0997779
-0.98819816 0.24658385 -2.1048923
-0.99784029 0.24473384 -2.09918
-1.0028898 0.24192825 -2.1028745
-1.012399 0.24214512 -2.10498
-1.0175487 0.24311054 -2.0987411
-1.0251045 0.24020192 -2.100405
-0.98214346 0.23286915 -2.1020007
-0.98612452 0.23360038 -2.1043971
-0.9943167 0.23871791 -2.1004214
-1.0021186 0.23467427 -2.0994897
-1.0161933 0.23439947 -2.0961237
-1.0208824 0.23758826 -2.1005418
-1.0298404 0.23549569 -2.1037037
-1.0379574 0.23859894 -2.095041
-0.99047381 0.22537991 -2.0973935
-1.0019265 0.22731066 -2.0981135
-1.0218613 0.2267842 -2.0950539
-1.0201705 0.26000926 -2.1166253
-0.97622108 0.25194958 -2.109375
-0.98934412 0.25203457 -2.1107438
-0.99598855 0.2499679 -2.1122189
-1.0013443 0.25159761 -2.1140051
-1.0109022 0.25382245 -2.1094966
-1.025317 0.25565934 -2.1070571
-0.98342627 0.24385196 -2.114486
-0.98959208 0.24260101 -2.1120203
-0.9940604 0.242722 -2.1107855
-0.99998283 0.24030328 -2.1085746
-1.0139016 0.24661994 -2.1079593
-1.0202348 0.24285462 -2.108979
-0.97010446 0.23731804 -2.1138897
-0.9731642 0.23519912 -2.1073501
-0.99013799 0.22909796 -2.1095021
-0.99404037 0.23388577 -2.1091993
-1.0033066 0.2324318 -2.1115499
-1.0066606 0.23569986 -2.1093264
-1.0190822 0.23708361 -2.1106172
-1.027217 0.23206729 -2.1044497
-1.0025445 0.26034713 -2.1252489
-0.95322192 0.24686262 -2.1168821
-0.96192247 0.24846727 -2.1240861
-0.97814757 0.25331119 -2.1224005
-0.98100412 0.25142211 -2.1206374
-0.98643327 0.24988276 -2.1246629
-0.99674112 0.25080428 -2.1175747
-1.010805 0.25413468 -2.1216121
-0.97094727 0.24201518 -2.1242402
-0.97324425 0.24542484 -2.1210787
-0.98365694 0.2439006 -2.1191106
-0.98634261 0.24508435 -2.1187077
-0.99437207 0.23974857 -2.1216147
-1.0036124 0.24548778 -2.1187885
-1.0087645 0.24211967 -2.1196425
-1.0159756 0.2414718 -2.1185951
-1.0196513 0.24363232 -2.118438
-0.97747016 0.23331112 -2.1159627
-0.98346716 0.23462576 -2.1182826
-1.0154926 0.23435181 -2.1135931
-0.9730463 0.25456259 -2.1309752
-0.98898429 0.25807545 -2.135051
-0.99555111 0.25516272 -2.1332085
-1.0000468 0.25572258 -2.1285255
-0.95845807 0.25131157 -2.1344652
-0.97709894 0.24947917 -2.1306744
-0.98988867 0.24907357 -2.1286871
-0.99417698 0.25064236 -2.1318929
-1.0006728 0.24938202 -2.1269734
-0.97107583 0.2410273 -2.1293442
-0.97587138 0.23997584 -2.1288972
-0.98623896 0.23862728 -2.1316767
-0.99802232 0.23969167 -2.1244974
-0.95601106 0.23467955 -2.1311743
-0.96734285 0.25611618 -2.1428993
-0.97592431 0.25756836 -2.1399553
-0.97943068 0.25393951 -2.1405518
-0.98949784 0.25564897 -2.1415193
-0.95060372 0.24883091 -2.1359744
-0.96175581 0.24926466 -2.1415806
-0.96816641 0.24700883 -2.1436868
-0.97863221 0.24757865 -2.1405985
-0.98247087 0.24966902 -2.1364174
-0.99036849 0.24993116 -2.1399689
-0.9705202 0.23966187 -2.1423092
-0.97593796 0.24044684 -2.1377847
-0.98723525 0.24148753 -2.1360905
-0.97620171 0.26109436 -2.1519358
-0.98339355 0.26370308 -2.1517196
-0.95513266 0.25277671 -2.1509275
-0.95865136 0.25947309 -2.1535661
-0.97045743 0.25655767 -2.1510265
-0.97687143 0.2548123 -2.153995
-0.9829728 0.25609308 -2.1532075
-0.98855609 0.25804394 -2.1535361
-0.94240749 0.25045651 -2.1531434
-0.95536375 0.24592346 -2.1491873
-0.98144919 0.24557316 -2.1524894
-0.99548435 0.25092271 -2.144923
-0.96792746 0.24053451 -2.1462908
-0.97553295 0.26110706 -2.1585066
-0.98912418 0.2633203 -2.1613009
-0.93543404 0.25525802 -2.1582448
-0.94425261 0.25547072 -2.1619825
-0.94794077 0.25082594 -2.1553154
-0.95939517 0.25809556 -2.1623116
-0.97032303 0.2577095 -2.1633348
-0.99719679 0.25186321 -2.1575592
-0.94455075 0.24453324 -2.1598241
-0.96219015 0.24630997 -2.1620915
-0.96953487 0.24465984 -2.1581211
-0.973656 0.24649093 -2.1587605
-0.98180526 0.24419016 -2.1566682
-0.93486691 0.26122004 -2.1708295
-0.94706774 0.26155695 -2.1663845
-0.95546198 0.26349995 -2.1719701
-0.96347058 0.26377755 -2.1663942
-0.96638966 0.26113006 -2.1702828
-0.97696757 0.26732633 -2.1692128
-0.98063809 0.26166016 -2.17032
-0.93816417 0.25270465 -2.1722131
-0.9555487 0.2537955 -2.1652222
-0.96254069 0.25179455 -2.1681533
-0.96884376 0.25807124 -2.1689303
-0.97387433 0.25447857 -2.1696117
-0.98834354 0.25523132 -2.1714725
-0.95400345 0.26794502 -2.1850531
-0.96336251 0.26914474 -2.1820581
-0.93375742 0.26005375 -2.1811342
-0.94270921 0.26244345 -2.1814163
-0.96791464 0.2632508 -2.1805894
-0.97371233 0.26251677 -2.1826241
-0.98627287 0.26318723 -2.1802068
-0.95033067 0.25630844 -2.1755481
-0.96077013 0.25339282 -2.1778648
-0.93259197 0.26679394 -2.1917813
-0.95464063 0.26882303 -2.1900432
-0.97765881 0.26728535 -2.194401
-0.98037112 0.26528364 -2.1894977
-0.92032707 0.26006004 -2.1860068
-0.9393726 0.25611517 -2.193723
-0.9501884 0.26205915 -2.1925471
-0.96030867 0.26152551 -2.1874561
-0.96642727 0.2611948 -2.1891475
-0.97373414 0.26222792 -2.186456
-0.97949022 0.25859934 -2.1853864
-0.95368958 0.25320563 -2.1875176
-0.93661147 0.26554927 -2.1984243
-0.93996149 0.26723871 -2.1986365
-0.95097858 0.26850718 -2.2021677
-0.96171141 0.27026275 -2.1978889
-0.96710718 0.26587087 -2.1997693
-0.97155172 0.26537779 -2.2004993
-0.92867374 0.25747645 -2.2016523
-0.93876892 0.2599372 -2.2033126
-0.94791067 0.26220241 -2.1992364
-0.95680672 0.25831866 -2.1998923
-0.97063708 0.26196742 -2.1993001
-0.97918123 0.25974888 -2.1941166
-0.92749882 0.2654956 -2.2102387
-0.938766 0.26425049 -2.2068582
-0.94751126 0.26493967 -2.2116542
-0.95455921 0.27015123 -2.2073345
-0.9609195 0.26578006 -2.2083795
-0.96904469 0.27138335 -2.2085953
-0.97121471 0.2632699 -2.2101042
-0.92882156 0.27322742 -2.2226837
-0.94269526 0.27502596 -2.2219884
-0.94812399 0.27499536 -2.2203372
-0.95344895 0.27593473 -2.2202966
-0.96045923 0.27379143 -2.2212255
-0.93418229 0.2679871 -2.2181649
-0.94145852 0.26913443 -2.2161965
-0.94750553 0.26766324 -2.2150245
-0.95091331 0.26848403 -2.2213104
-0.96050191 0.26922506 -2.2169144
-0.92883623 0.27478263 -2.2256868
-0.93111879 0.27495363 -2.2264709
-0.93942451 0.27295548 -2.231045
-0.94654739 0.26959378 -2.231945
-0.95575869 0.26938039 -2.2255363
-0.96545547 0.27750018 -2.2279968
-0.95556986 0.26822779 -2.2242165
-0.95776135 0.28095928 -2.2444382
-0.92617017 0.27211016 -2.2382891
-0.93158519 0.27236491 -2.2425194
-0.94713992 0.27183789 -2.241503
-0.95336902 0.27203149 -2.239815
-0.92823696 0.27718878 -2.2469864
-0.9345957 0.27804226 -2.2496145
-0.95925951 0.27728066 -2.2461352
-0.91948128 0.27425593 -2.2489154
-0.90112782 0.2785612 -2.2581587
-0.90477651 0.28048274 -2.2631848
-0.91172719 0.27968067 -2.2585845
-0.92262638 0.27716601 -2.2576368
-0.92678785 0.27790424 -2.2584903
-0.93118143 0.28202215 -2.2576752
-0.94224453 0.28204575 -2.2556212
-0.95094264 0.28050137 -2.2582767
-0.93931812 0.28707179 -2.2712836
-0.87492251 0.27597409 -2.2687438
-0.89225376 0.28040311 -2.2724481
-0.8988778 0.27867109 -2.2663603
-0.91413254 0.28402838 -2.2758982
-0.93152434 0.28847709 -2.2803395
-0.94182122 0.28436288 -2.2780843
-0.94522429 0.28832 -2.2792027
-0.89904141 0.27944058 -2.2754986
-0.93360996 0.29153794 -2.2912543
-0.88363826 0.28391346 -2.2868011
-0.89817458 0.28560022 -2.284492
