# .PCD v0.7 - Point Cloud Data file format
VERSION 0.7
FIELDS x y z
SIZE 4 4 4
TYPE F F F
COUNT 1 1 1
WIDTH 148
HEIGHT 1
VIEWPOINT 0 0 0 1 0 0 0
POINTS 148
DATA ascii
0.7907958 0.16382587 -2.4034407
0.79175884 0.15494284 -2.4075389
0.80728912 0.16487762 -2.420943
0.78452408 0.16801989 -2.4210813
0.77212954 0.16379786 -2.4147797
0.76382184 0.15794066 -2.4190624
0.78446269 0.15052485 -2.4184771
0.79723388 0.16789338 -2.4218736
0.73979479 0.16418231 -2.4228301
0.72725683 0.1699453 -2.4278531
0.78886873 0.15762359 -2.4212368
0.75181419 0.16964078 -2.4362471
0.73901218 0.16976812 -2.4354491
0.7946412 0.15623233 -2.4312913
0.80295992 0.15150952 -2.4368155
0.78601557 0.1723507 -2.4416268
0.80707335 0.15855452 -2.4395831
0.7898308 0.15594876 -2.4389958
0.78608531 0.15431777 -2.4390764
0.79461938 0.1737847 -2.458467
0.78311545 0.17064664 -2.4556911
0.7613849 0.17576069 -2.4512265
0.74937904 0.17792597 -2.454459
0.74829811 0.17587346 -2.451009
0.73667485 0.17808679 -2.453356
0.73314828 0.17314041 -2.4533963
0.76203591 0.16030589 -2.4527285
0.74933177 0.16046667 -2.4516256
0.73860532 0.16445819 -2.4541886
0.82174015 0.152511 -2.4554601
0.80512357 0.15564749 -2.4574308
0.78744572 0.15750343 -2.4490988
0.77435899 0.15761617 -2.4488811
0.76127213 0.15772891 -2.4486637
0.72982484 0.17761943 -2.4686794
0.70832306 0.18446931 -2.462955
0.70019782 0.18496326 -2.4636321
0.75232232 0.17317429 -2.4595656
0.7391395 0.1730141 -2.4594567
0.68681073 0.17720643 -2.4626105
0.74070871 0.17730215 -2.4691172
0.68877345 0.1816245 -2.4716659
0.68348521 0.18176293 -2.4776258
0.78453588 0.17481846 -2.4783351
0.77591598 0.1720573 -2.4730239
0.7665993 0.17164007 -2.4736433
0.75439012 0.17136797 -2.4703803
0.73694319 0.17244503 -2.4705944
0.72509277 0.18842599 -2.4866683
0.72071767 0.18806112 -2.4880476
0.70803279 0.18753377 -2.4865098
0.69534802 0.18700635 -2.4849718
0.69080812 0.19213629 -2.4842422
0.65957844 0.19312933 -2.4865344
0.73445719 0.18077961 -2.4879897
0.73389661 0.17115206 -2.4867167
0.710105 0.19363046 -2.4991221
0.68015963 0.1863195 -2.492641
0.74734288 0.18256074 -2.4901481
0.73694253 0.17551196 -2.4967346
0.72355938 0.17534927 -2.4966238
0.7293247 0.17387429 -2.4880929
0.73423773 0.19120055 -2.5035033
0.70847684 0.19360685 -2.5077534
0.68210661 0.19386917 -2.5061095
0.65022463 0.19526958 -2.5026536
0.72684592 0.18224159 -2.5051758
0.71847379 0.18651903 -2.501148
0.71136761 0.18635359 -2.5021296
0.68742776 0.18768522 -2.5012636
0.7473622 0.17417744 -2.5024891
0.73857903 0.18011156 -2.5064135
0.73468053 0.17372781 -2.5008428
0.72900516 0.19529295 -2.5183775
0.70088947 0.19085282 -2.5163605
0.68854845 0.19480115 -2.5180438
0.68811584 0.19040006 -2.5147023
0.66481805 0.19653982 -2.5119061
0.67396975 0.19548383 -2.5241728
0.73219168 0.18352386 -2.5195656
0.67940176 0.18837655 -2.5178318
0.71129358 0.20333418 -2.5431306
0.69692016 0.20279366 -2.5444152
0.68024683 0.19615459 -2.5373626
0.66618419 0.19655657 -2.5398839
0.71124446 0.18522182 -2.5401912
0.60571849 0.21414196 -2.5524476
0.65490818 0.21011791 -2.5566499
0.67390639 0.19591215 -2.5468774
0.6319797 0.21566716 -2.5667639
0.60266405 0.21771884 -2.5670524
0.66003919 0.20401013 -2.5659451
0.64634204 0.20412809 -2.5657175
0.62987846 0.20325762 -2.5598176
0.65811759 0.19736156 -2.5568552
0.64538068 0.20034441 -2.5575376
0.59175652 0.22215664 -2.5710945
0.67579472 0.21055427 -2.5690928
0.63332868 0.21625319 -2.5769
0.61467534 0.21230662 -2.5699768
0.59686083 0.21969193 -2.5839026
0.62176114 0.21743956 -2.5792093
0.61143684 0.2167438 -2.5845985
0.60795885 0.21727178 -2.5790954
0.59655499 0.22487271 -2.5962627
0.69363976 0.21220759 -2.5896728
0.63309288 0.20908037 -2.5931339
0.61591959 0.21361411 -2.5909245
0.6790055 0.20548677 -2.5862432
0.58286166 0.2289609 -2.6019406
0.63978475 0.21920228 -2.6010623
0.61282843 0.2213209 -2.6003332
0.59372962 0.22391206 -2.5983024
0.70050305 0.20822719 -2.5989861
0.64548123 0.21153688 -2.6019726
0.60496002 0.22561803 -2.6138422
0.65150708 0.21048138 -2.6142428
0.63580608 0.21197236 -2.6080329
0.59044594 0.23202646 -2.6254723
0.64523625 0.22279888 -2.6223891
0.63143158 0.22293627 -2.6215284
0.60382211 0.22321087 -2.6198075
0.60142612 0.22762269 -2.6217699
0.58721858 0.22807249 -2.6237094
0.6245991 0.21932292 -2.6216297
0.63848555 0.22588381 -2.6298265
0.62760317 0.22975147 -2.6286061
0.61982286 0.22868785 -2.6290255
0.62297666 0.22105947 -2.6271484
0.55176985 0.24117056 -2.6433573
0.64069235 0.23204812 -2.6422043
0.62723422 0.23157102 -2.6404569
0.61377603 0.23109391 -2.6387098
0.60031784 0.23061681 -2.6369627
0.57798356 0.22911194 -2.6421068
0.5396018 0.23858294 -2.6420035
0.61064863 0.23064044 -2.6498382
0.59651226 0.23076227 -2.6496031
0.58237582 0.23088405 -2.6493683
0.54339743 0.24681363 -2.6600418
0.59131181 0.2402845 -2.661664
0.57818896 0.23988143 -2.6593637
0.56506604 0.23947844 -2.6570632
0.54195976 0.2429648 -2.6646278
0.53654921 0.24269718 -2.6560421
0.54078925 0.24610943 -2.6810858
0.53361648 0.24895251 -2.6804543
0.5555554 0.24042726 -2.6741748
