# .PCD v0.7 - Point Cloud Data file format
VERSION 0.7
FIELDS x y z
SIZE 4 4 4
TYPE F F F
COUNT 1 1 1
WIDTH 676
HEIGHT 1
VIEWPOINT 0 0 0 1 0 0 0
POINTS 676
DATA ascii
1.3771988 -0.096206561 -0.80351704
1.373345 -0.10472339 -0.81562489
1.358398 -0.08173465 -0.82373244
1.3293362 -0.077920675 -0.82340163
1.4069974 -0.10770507 -0.83126539
1.3809968 -0.1041208 -0.8340171
1.3692565 -0.10253403 -0.82682389
1.3611991 -0.099790968 -0.83386898
1.3712597 -0.10919873 -0.82898206
1.3803039 -0.12368308 -0.82996422
1.3660129 -0.076530427 -0.8403722
1.3348525 -0.079651058 -0.84214646
1.3929991 -0.081194878 -0.84341311
1.398002 -0.11440438 -0.84174532
1.3386724 -0.11322413 -0.83781213
1.3896402 -0.075639188 -0.85083568
1.3328464 -0.073485292 -0.84948558
1.313706 -0.078975908 -0.85327637
1.3741908 -0.083694771 -0.84820902
1.3453922 -0.088382095 -0.85596585
1.3881737 -0.098347694 -0.8531549
1.3717332 -0.10369013 -0.84944922
1.3456217 -0.1006186 -0.84565181
1.3890588 -0.071435668 -0.86749059
1.3429822 -0.069942653 -0.86018652
1.4289944 -0.082800724 -0.86580569
1.3311141 -0.074991159 -0.86212081
1.3235201 -0.075324953 -0.86536938
1.3967385 -0.083825566 -0.86199611
1.3683885 -0.088901669 -0.85914624
1.3594155 -0.084665291 -0.85905701
1.4176338 -0.096000001 -0.85749191
1.4064567 -0.09867093 -0.8574487
1.3700985 -0.097262219 -0.85727549
1.3947213 -0.10981203 -0.86017102
1.3522419 -0.11217168 -0.85505557
1.3655914 -0.074477524 -0.87046158
1.3531182 -0.066399992 -0.8708874
1.3406471 -0.070947044 -0.87558061
1.4311655 -0.095036566 -0.87540573
1.4223475 -0.10124075 -0.8695749
1.4061321 -0.10125653 -0.86768973
1.3902699 -0.10248765 -0.86703771
1.3767189 -0.095579863 -0.87422556
1.350363 -0.10314457 -0.8727935
1.3660506 -0.11137147 -0.86930525
1.4277339 -0.077474497 -0.88599646
1.3496423 -0.07602755 -0.88589203
1.338272 -0.071410738 -0.88649935
1.3156636 -0.075657472 -0.88383335
1.3972163 -0.07826893 -0.88264179
1.3762569 -0.082387432 -0.88311672
1.373417 -0.08155942 -0.88447452
1.3612235 -0.084284753 -0.88026631
1.3505032 -0.08074294 -0.88069302
1.4122864 -0.094820298 -0.87810576
1.406075 -0.09348952 -0.87796956
1.3948658 -0.099162355 -0.87925786
1.3605731 -0.099575989 -0.8835727
1.4079303 -0.108962 -0.87796271
1.3501801 -0.066902921 -0.88904041
1.3071133 -0.063099861 -0.89117122
1.3836271 -0.077990822 -0.89525378
1.4110191 -0.08674103 -0.89464134
1.3225591 -0.081845 -0.89188498
1.4210868 -0.095914528 -0.88976568
1.4207366 -0.10007634 -0.88575
1.3907475 -0.09693104 -0.88768333
1.3712708 -0.098652869 -0.89258182
1.356268 -0.10164921 -0.88889259
1.3167828 -0.059502676 -0.90308613
1.3597133 -0.06285879 -0.90250015
1.3471694 -0.067040198 -0.9010852
1.3938372 -0.074422233 -0.90603298
1.3680598 -0.076003 -0.90180451
1.3593676 -0.072167344 -0.89870363
1.3320187 -0.077832043 -0.90524101
1.3038192 -0.07754498 -0.90088475
1.4056937 -0.088308111 -0.89849037
1.3656323 -0.084871478 -0.90050495
1.3340734 -0.087010354 -0.89618999
1.4393378 -0.097117916 -0.89570737
1.4103689 -0.090566069 -0.89540422
1.3911067 -0.094096042 -0.89654481
1.3703932 -0.093840018 -0.89819634
1.3460255 -0.09100312 -0.89587009
1.4038521 -0.10709225 -0.89670044
1.3798409 -0.10119379 -0.90206754
1.3692462 -0.058814667 -0.91595989
1.3711959 -0.066976525 -0.90963566
1.3749127 -0.073934101 -0.91599464
1.3559806 -0.078222275 -0.91235566
1.3265421 -0.078281164 -0.90616018
1.4019977 -0.086581036 -0.91134292
1.3918278 -0.085931502 -0.90824676
1.3873477 -0.089029729 -0.91383177
1.342971 -0.082639799 -0.9107759
1.4354929 -0.092615455 -0.91409147
1.4010222 -0.091244847 -0.90584695
1.3912255 -0.091374412 -0.90832901
1.3799394 -0.092943713 -0.90717638
1.3910468 -0.066572323 -0.9234966
1.35495 -0.063987851 -0.91803622
1.3905712 -0.079366297 -0.91808593
1.3730536 -0.079799503 -0.91692972
1.4053121 -0.083126709 -0.91901118
1.3782959 -0.084457941 -0.92260134
1.366964 -0.082700297 -0.91940349
1.3851174 -0.097571917 -0.92012393
1.3597971 -0.09824954 -0.91467869
1.3522481 -0.093585745 -0.92221111
1.350288 -0.055009156 -0.93658555
1.3599298 -0.063546091 -0.92749643
1.3817573 -0.068758771 -0.93385881
1.4068121 -0.076872669 -0.93470937
1.3830128 -0.076408461 -0.92955995
1.3655137 -0.074178144 -0.9258154
1.3513606 -0.078849629 -0.92793846
1.438143 -0.084634438 -0.93137646
1.4185655 -0.085262075 -0.93014729
1.4153322 -0.087263912 -0.92831206
1.3991854 -0.087398671 -0.93118143
1.3865008 -0.088244423 -0.9258613
1.3957658 -0.097615264 -0.93118918
1.3740574 -0.055127338 -0.94415385
1.3831574 -0.062572904 -0.93848729
1.4261374 -0.0705605 -0.94209874
1.3780594 -0.070139244 -0.94161969
1.360889 -0.074458733 -0.94030017
1.423182 -0.082033582 -0.93782324
1.3756645 -0.076601252 -0.93980581
1.4303977 -0.088699207 -0.94290656
1.3951697 -0.089924298 -0.93667597
1.361781 -0.089541636 -0.93567091
1.4175881 -0.096368372 -0.93810493
1.3934547 -0.095462911 -0.93244112
1.3839037 -0.052495249 -0.95617902
1.388602 -0.063583449 -0.95172292
1.390576 -0.071911342 -0.94687682
1.3849007 -0.073889628 -0.94880748
1.3827187 -0.073022351 -0.9470672
1.3706632 -0.071187899 -0.95336694
1.4177496 -0.078593552 -0.94949323
1.4142852 -0.080007821 -0.95048773
1.378212 -0.078705899 -0.9478752
1.4272918 -0.089250438 -0.94900614
1.4177277 -0.090198807 -0.95181239
1.4019103 -0.092992425 -0.95127392
1.3917227 -0.092876777 -0.94843352
1.3715841 -0.094398111 -0.94428307
1.359396 -0.04927367 -0.96539086
1.3787065 -0.068320133 -0.96417952
1.4227973 -0.076806992 -0.95852309
1.4011552 -0.069850728 -0.95750731
1.4278003 -0.083609715 -0.96230406
1.4027282 -0.083982438 -0.95427227
1.3566936 -0.081038266 -0.95508862
1.4133812 -0.08805003 -0.95699459
1.3960847 -0.0941616 -0.95284748
1.3808697 -0.046355888 -0.97577024
1.3960682 -0.057503052 -0.96932358
1.3793166 -0.057767317 -0.97202116
1.3752488 -0.060161866 -0.96617615
1.3802679 -0.065127917 -0.96778041
1.370008 -0.069308326 -0.9695496
1.4328089 -0.07689108 -0.96938789
1.4300756 -0.076700971 -0.96754146
1.4074516 -0.075613454 -0.9688741
1.4234437 -0.084064133 -0.96670246
1.4094646 -0.088168234 -0.96828449
1.405125 -0.089720994 -0.9676671
1.4032061 -0.044833511 -0.9816075
1.3715065 -0.052364647 -0.98428905
1.4145343 -0.057001323 -0.97928125
1.3890675 -0.055938885 -0.98512536
1.4224123 -0.071580395 -0.97922283
1.3933181 -0.068382218 -0.98088378
1.3900592 -0.065199867 -0.98021066
1.407654 -0.077578202 -0.97803241
1.3932644 -0.074894004 -0.97945541
1.3903803 -0.077409267 -0.97605026
1.4024823 -0.052381858 -0.98768389
1.3722945 -0.056555077 -0.98912275
1.4329265 -0.073186629 -0.99000472
1.4270997 -0.070913993 -0.9866609
1.4147987 -0.073760547 -0.99231172
1.3999134 -0.073365152 -0.98951006
1.3874587 -0.067750923 -0.9866026
1.400913 -0.078388125 -0.98714906
1.4047111 -0.084767923 -0.98967576
1.3836362 -0.083399795 -0.98292226
1.3742594 -0.039115787 -0.99786925
1.3677657 -0.044665106 -1.0021607
1.4119582 -0.051954024 -0.99851799
1.4222071 -0.065919869 -1.0030683
1.4117392 -0.060335159 -0.99692869
1.385484 -0.058892295 -0.99951309
1.4223163 -0.06989228 -1.0005109
1.399739 -0.070301779 -1.0014749
1.3943744 -0.069031805 -0.99802291
1.3795933 -0.078661293 -1.0001665
1.3973891 -0.037945978 -1.0093493
1.4282849 -0.042367369 -1.01641
1.392296 -0.043819256 -1.0091044
1.3908455 -0.045170248 -1.0081187
1.3690054 -0.041494235 -1.0097243
1.4383593 -0.049214534 -1.0065684
1.3949289 -0.051671512 -1.0099967
1.3807406 -0.049252719 -1.0056705
1.3661758 -0.048100315 -1.0087969
1.4246962 -0.065811984 -1.006897
1.4316548 -0.067814276 -1.0103704
1.3998235 -0.066680804 -1.0053473
1.3918461 -0.069814876 -1.0104661
1.4058145 -0.078567713 -1.0042357
1.401377 -0.080100626 -1.0084021
1.4048808 -0.032825962 -1.0257199
1.3783212 -0.037542269 -1.0228773
1.4005152 -0.041573077 -1.0200337
1.4267414 -0.050353684 -1.017822
1.3990442 -0.05127266 -1.0197809
1.3924834 -0.053948261 -1.0186613
1.4216425 -0.061127216 -1.0206224
1.4159098 -0.062217012 -1.0190845
1.4033445 -0.064793877 -1.0163805
1.389459 -0.063018292 -1.0188283
1.3798358 -0.060715348 -1.0139745
1.4281039 -0.071901679 -1.0205615
1.3800862 -0.075070575 -1.0116026
1.3769567 -0.06769602 -1.0132087
1.4006845 -0.03815484 -1.0287983
1.3972058 -0.037242725 -1.0289307
1.3601364 -0.03977178 -1.0281732
1.3903162 -0.043769225 -1.0282049
1.3722869 -0.040531211 -1.026127
1.412262 -0.058630951 -1.0311011
1.389223 -0.056733102 -1.0272282
1.4384723 -0.064574093 -1.026347
1.4124235 -0.065600738 -1.0243962
1.3832074 -0.060849465 -1.031056
1.4117436 -0.077640116 -1.0229294
1.3931707 -0.06934756 -1.0270246
1.387578 -0.069950558 -1.0279732
1.3761604 -0.075843707 -1.0236793
1.3978356 -0.078394689 -1.0217569
1.4279 -0.037140757 -1.0371096
1.379599 -0.035861857 -1.0425918
1.3688282 -0.035502374 -1.0424217
1.4241438 -0.045264199 -1.0372195
1.4042906 -0.046556011 -1.0393212
1.3842568 -0.044831805 -1.039585
1.4212577 -0.055900611 -1.0413221
1.4143388 -0.055138759 -1.0385952
1.3929572 -0.055374615 -1.036128
1.3836931 -0.051862657 -1.035458
1.3708017 -0.059154809 -1.0326961
1.4255668 -0.062394716 -1.0356175
1.4174097 -0.063251764 -1.039894
1.4080515 -0.063318923 -1.0374879
1.4009451 -0.062619232 -1.0324426
1.3855475 -0.071861461 -1.0369329
1.3810217 -0.020120956 -1.0510025
1.3875663 -0.028823018 -1.0493422
1.382455 -0.025696695 -1.0542581
1.3857819 -0.035987176 -1.0461389
1.3799136 -0.044229671 -1.0528176
1.3839897 -0.048603714 -1.0456614
1.4350828 -0.059829488 -1.0453835
1.4291117 -0.05706957 -1.0511017
1.4178694 -0.055071265 -1.0496701
1.4085785 -0.061098292 -1.0427804
1.3962872 -0.054635048 -1.0504829
1.3905785 -0.056142315 -1.0476538
1.379476 -0.057778955 -1.0479387
1.398417 -0.064630926 -1.0465649
1.3804232 -0.066201814 -1.0451002
1.4078094 -0.072249562 -1.0406929
1.3892553 -0.073125854 -1.0439277
1.3959292 -0.024382778 -1.0655345
1.3813291 -0.028323956 -1.063803
1.371255 -0.027324617 -1.0625839
1.3628049 -0.027331255 -1.0613955
1.3916886 -0.039752863 -1.0558242
1.4276154 -0.046061836 -1.0560608
1.4208729 -0.050674021 -1.062022
1.3883202 -0.050549611 -1.0614144
1.3805195 -0.045625411 -1.0586026
1.4432998 -0.056384198 -1.0586636
1.4208872 -0.059495263 -1.0547531
1.4148122 -0.058162279 -1.0592915
1.380342 -0.063617103 -1.0552921
1.3754277 -0.070209302 -1.0565953
1.3862116 -0.026963502 -1.0709186
1.3762159 -0.036715113 -1.0699155
1.4077442 -0.045642354 -1.070803
1.3788348 -0.040596873 -1.0638164
1.42784 -0.051697224 -1.0714673
1.4146112 -0.051695138 -1.0635374
1.3917086 -0.046772324 -1.0682514
1.3820459 -0.047365561 -1.0677735
1.4215354 -0.062131971 -1.0628299
1.3868223 -0.05562675 -1.0650613
1.3766674 -0.058464602 -1.0623897
1.394397 -0.068634085 -1.0609398
1.3630116 -0.018914327 -1.0822681
1.4271302 -0.026687562 -1.0785092
1.3768867 -0.020757452 -1.0812292
1.4147831 -0.037122704 -1.0784018
1.3880805 -0.036674708 -1.0768703
1.383567 -0.030830167 -1.0762765
1.4227369 -0.047602355 -1.0754064
1.4036102 -0.044794612 -1.0742751
1.3821102 -0.04220219 -1.080385
1.4335779 -0.055965468 -1.071981
1.4169861 -0.055824652 -1.0774497
1.374104 -0.05317229 -1.0763967
1.4475652 -0.060187474 -1.0798618
1.4161553 -0.064850129 -1.077521
1.4029621 -0.064640112 -1.0773047
1.3771809 -0.063538656 -1.0764905
1.3693172 -0.06171035 -1.0756031
1.3861846 -0.017066747 -1.0934781
1.4065521 -0.029594965 -1.0883026
1.3949033 -0.022694051 -1.0851669
1.43613 -0.034023933 -1.0884365
1.3973261 -0.032752551 -1.0899242
1.3872122 -0.039029747 -1.0857528
1.3736827 -0.038736984 -1.0875658
1.420488 -0.045447439 -1.0827217
1.4112496 -0.046989508 -1.0824175
1.3787396 -0.04657799 -1.0854404
1.429406 -0.051076159 -1.0897743
1.3844604 -0.051574893 -1.0864285
1.3743618 -0.057171442 -1.0830239
1.4269824 -0.059536576 -1.0830784
1.3702081 -0.0143186 -1.0984731
1.4200294 -0.032406062 -1.0979421
1.4095428 -0.039770558 -1.0929716
1.3908019 -0.037932776 -1.0946335
1.3813251 -0.032299295 -1.094602
1.435304 -0.045428902 -1.0947647
1.4265685 -0.046324871 -1.091833
1.3937061 -0.047652736 -1.0994825
1.4271247 -0.051468469 -1.0988315
1.4125892 -0.050991364 -1.0919104
1.3837286 -0.05345349 -1.0953634
1.3780088 -0.057440907 -1.0898515
1.3688562 -0.054781601 -1.0962135
1.3756962 -0.010298386 -1.1114124
1.3983123 -0.020752966 -1.1084971
1.3778834 -0.021081597 -1.1121708
1.4504218 -0.025874168 -1.1087031
1.4319582 -0.029134616 -1.1062298
1.3880011 -0.027251579 -1.1120257
1.3827267 -0.031384729 -1.103018
1.3861122 -0.041539386 -1.1015508
1.3809367 -0.03410469 -1.1038997
1.4250741 -0.045891263 -1.1050303
1.4141556 -0.050480992 -1.105186
1.3719153 -0.049101882 -1.1084625
1.4304324 -0.054235131 -1.1008071
1.403211 -0.058639988 -1.1042393
1.3929138 -0.053446472 -1.1000693
1.358649 -0.058286294 -1.0986148
1.4073423 -0.02365388 -1.1197363
1.4012917 -0.02103284 -1.1205666
1.3981674 -0.030680232 -1.1142192
1.3846105 -0.029743068 -1.1132077
1.4313065 -0.03995125 -1.1128153
1.4252968 -0.040952496 -1.1121985
1.4253386 -0.04833103 -1.116376
1.3996449 -0.048356928 -1.1176373
1.3792685 -0.045702681 -1.1125579
1.3761103 -0.050149322 -1.1125474
1.3508561 -0.049343519 -1.1184269
1.4082237 -0.05398272 -1.1133323
1.3833363 -0.055925213 -1.1107185
1.3685807 -0.0022602081 -1.1300727
1.3901712 -0.012042835 -1.1283809
1.4278426 -0.026589096 -1.1273499
1.3939562 -0.023855075 -1.1283982
1.3726166 -0.02564083 -1.1232575
1.4273086 -0.034473591 -1.1308658
1.3780673 -0.032665171 -1.1214894
1.4388151 -0.04418011 -1.1229049
1.4210693 -0.042513229 -1.1272914
1.3833641 -0.04551705 -1.1288815
1.3743173 -0.035760507 -1.1215872
1.3659092 -0.040888175 -1.1267921
1.4194019 -0.045764334 -1.1247262
1.3927525 -0.048131965 -1.122104
1.3961 -0.013353735 -1.1378909
1.4125435 -0.018977746 -1.1391088
1.4040499 -0.025698513 -1.1327579
1.3853818 -0.02766633 -1.1374724
1.3834255 -0.031896591 -1.1344473
1.4423763 -0.039216921 -1.1330814
1.4396397 -0.044659503 -1.1390432
1.406376 -0.043267384 -1.1352053
1.3581131 -0.044383943 -1.1342845
1.3472478 -0.04075332 -1.1381212
1.404258 -0.048549011 -1.1312379
1.3875141 -0.051321477 -1.1307385
1.2961617 -0.047874555 -1.1348609
1.3670657 5.0500035e-05 -1.1514871
1.3870676 -0.017471924 -1.1455333
1.3850104 -0.013278767 -1.1494118
1.3643999 -0.017303079 -1.1423169
1.3196477 -0.013745651 -1.1507859
1.4233108 -0.028995946 -1.1489164
1.4164515 -0.034498632 -1.1428711
1.4067203 -0.036897466 -1.1462904
1.3849633 -0.032201111 -1.1436663
1.3744688 -0.036683619 -1.140824
1.4353973 -0.039395861 -1.1421005
1.3986351 -0.043150231 -1.1406428
1.3842039 -0.039906271 -1.1472737
1.4396491 -0.048408724 -1.1399612
1.3783035 -0.049070604 -1.1455091
1.3094654 0.002410233 -1.1603938
1.3826914 -0.0066105127 -1.1622124
1.3247268 -0.0057339817 -1.1552515
1.4194427 -0.014466643 -1.1596094
1.4085581 -0.01472728 -1.1536044
1.3928087 -0.016800135 -1.1534964
1.364455 -0.020404682 -1.1557218
1.3435082 -0.013977289 -1.1571966
1.4227537 -0.030207828 -1.1529298
1.3802165 -0.030077159 -1.1577568
1.3512347 -0.022979662 -1.1526955
1.3126664 -0.027589321 -1.1526152
1.2811111 -0.027703375 -1.1507058
1.4147457 -0.031361923 -1.1596029
1.401999 -0.037273452 -1.1549634
1.3830286 -0.032479063 -1.154856
1.3596492 -0.033096127 -1.1508291
1.3132302 -0.030020714 -1.1520627
1.376651 -0.040989198 -1.1488007
1.3653702 -0.03942433 -1.1501422
1.29221 -0.043243274 -1.1517152
1.3523948 -0.0023115724 -1.1710268
1.3227816 0.0054111481 -1.1664512
1.312142 0.0014861375 -1.1688664
1.3475392 -0.011748731 -1.1638451
1.3178314 -0.0047994554 -1.168362
1.3007784 -0.0075824261 -1.1668942
1.2984685 -0.0055556148 -1.166485
1.3652215 -0.013948321 -1.1647543
1.3185244 -0.017484978 -1.1636884
1.2772207 -0.019646406 -1.1666816
1.3706441 -0.03011097 -1.1634139
1.3335726 -0.02756007 -1.1596533
1.3222973 -0.026859581 -1.1653651
1.3104937 -0.02821213 -1.1652271
1.2889266 0.015900522 -1.1823038
1.3285512 0.0064866543 -1.1759146
1.3360329 -0.0033174157 -1.174477
1.3327292 0.0030127764 -1.1797287
1.3244737 -0.00060382485 -1.1747584
1.2931817 0.0014854074 -1.1778799
1.2830915 0.002315104 -1.1743087
1.326656 -0.012724459 -1.1744689
1.3196567 -0.0057033598 -1.1792001
1.293268 -0.010285497 -1.1795793
1.344946 -0.023008674 -1.1785811
1.3114575 -0.022481918 -1.1719764
1.3240931 -0.028293148 -1.1708142
1.2941474 -0.025986448 -1.1702996
1.2930174 -0.03806217 -1.1667428
1.2889189 -0.036731616 -1.1747576
1.2722952 -0.039888784 -1.1715581
1.2712358 -0.038310237 -1.1730355
1.3209376 0.012471855 -1.1877373
1.3113889 0.0034535974 -1.1890291
1.2905763 0.012641266 -1.1892269
1.3475523 -0.0054876506 -1.1845096
1.3166225 0.0003079325 -1.1877233
1.3116843 -0.0044126809 -1.1847506
1.2792653 0.001065284 -1.190351
1.3234699 -0.0082569271 -1.187737
1.314312 -0.010046571 -1.1845671
1.3205115 -0.023190483 -1.1823786
1.3183293 -0.018663511 -1.1804354
1.3021089 -0.01865904 -1.1852887
1.2968091 -0.019861296 -1.1858981
1.2855946 -0.027576357 -1.180847
1.3057911 0.015550524 -1.1988604
1.3985519 0.0071694106 -1.1990998
1.3757322 0.0062595606 -1.2018067
1.3266011 0.0045600384 -1.1948043
1.3242491 0.010826349 -1.1996521
1.2870311 0.0066561997 -1.1931864
1.3272235 0.0002117902 -1.1974566
1.3153992 -0.0045717359 -1.1945678
1.2860388 -0.0024429411 -1.1973569
1.265916 0.00073173642 -1.1944139
1.341134 -0.023615107 -1.1885802
1.3267387 -0.020678401 -1.1923159
1.3351184 -0.02653785 -1.1898544
1.2877198 -0.031665787 -1.1939613
1.2743404 -0.033784613 -1.1924851
1.3121848 -0.036723226 -1.1861122
1.2653259 -0.040171675 -1.1900789
1.3043236 0.0115266 -1.2072692
1.3776166 0.004465431 -1.2089298
1.3010885 0.0017908365 -1.2062275
1.410309 -0.0019798726 -1.2086481
1.3748121 -0.0070607066 -1.2066494
1.3213823 -0.0049849153 -1.2082992
1.2343197 0.00017483532 -1.2026329
1.4448081 -0.018704593 -1.2078258
1.4181788 -0.014087871 -1.2069204
1.4054372 -0.022651225 -1.2011423
1.3883948 -0.026814207 -1.2028606
1.3739743 -0.020576209 -1.2082375
1.3556205 -0.020861387 -1.1996876
1.3260595 -0.025423929 -1.199932
1.3168074 -0.019008294 -1.2047818
1.27591 -0.019154906 -1.20006
1.3729395 -0.030694798 -1.2025722
1.3807989 0.023046002 -1.217417
1.4003077 0.010659769 -1.2225533
1.3791 0.014011547 -1.2223955
1.4390985 0.0043257028 -1.216843
1.3980321 0.0071816742 -1.2193512
1.323539 0.0018607825 -1.2177502
1.285988 8.033216e-05 -1.2187541
1.271384 0.0053622574 -1.2116457
1.2521958 0.0020236671 -1.2095593
1.4398321 -0.0055876821 -1.2174329
1.4181985 -0.0025350004 -1.2135003
1.3832477 -0.0073658973 -1.2116333
1.4049394 -0.019285753 -1.216467
1.3729029 -0.011205047 -1.2173758
1.2638943 -0.009893924 -1.2099373
1.4114078 -0.020674184 -1.2161973
1.3766575 -0.025649384 -1.2153705
1.4115366 -0.032847717 -1.2111328
1.4042251 -0.032906502 -1.2108184
1.3611041 -0.031399772 -1.2098688
1.3316666 -0.035358265 -1.2058139
1.2708371 -0.03550455 -1.2074469
1.3991096 0.0066480488 -1.2285856
1.3911538 0.0043543279 -1.2233754
1.4109643 -0.0077612549 -1.228402
1.392307 -0.010436252 -1.2264117
1.3735527 -0.0046517104 -1.2212998
1.2719063 -0.005958423 -1.2230713
1.4578612 -0.016235799 -1.2287617
1.432869 -0.014013529 -1.2233667
1.4217259 -0.020258829 -1.218883
1.2477572 -0.012456477 -1.2179855
1.4337952 -0.023214221 -1.2213733
1.3839189 -0.023046911 -1.2270976
1.3681889 -0.026875526 -1.2258219
1.3952869 -0.031855717 -1.2179476
1.3856151 0.018937767 -1.2393998
1.4234679 0.011305586 -1.2330757
1.4031458 0.011779055 -1.2383974
1.415579 0.0025973469 -1.2330612
1.3743831 -0.0025171041 -1.2306067
1.4695498 -0.0065239817 -1.2404059
1.4359629 -0.012120873 -1.2357975
1.4264392 -0.00721699 -1.2326452
1.3953503 -0.01029785 -1.2312181
1.3864391 -0.011026248 -1.2323257
1.4287601 -0.017947108 -1.2368727
1.4097805 -0.014943719 -1.2353045
1.2814833 -0.01461494 -1.2273057
1.4199466 -0.025336727 -1.2341676
1.3881015 0.015132532 -1.2481949
1.3832659 0.012667149 -1.2419114
1.4194593 -0.0035883933 -1.242328
1.380898 0.0024091154 -1.2476109
1.4370832 -0.0093696564 -1.2435613
1.4024905 -0.0057382137 -1.247296
1.3974206 -0.0058388263 -1.2454579
1.3936398 -0.0061051548 -1.2480602
1.4474858 -0.021247581 -1.2448483
1.4357173 -0.018617854 -1.2404479
1.4069557 -0.022655204 -1.2376542
1.3856432 -0.022912562 -1.2370396
1.4109776 0.020862043 -1.2586441
1.4082594 0.016376451 -1.2574435
1.3904109 0.017550334 -1.2575246
1.3835844 0.021412566 -1.2586883
1.4131923 0.0041604787 -1.2593803
1.4486041 0.0016000271 -1.256784
1.4396806 -0.0056034625 -1.2542305
1.3995693 -0.0056152493 -1.2545713
1.4245209 -0.012978777 -1.2549535
1.4154507 -0.018482357 -1.2515804
1.3922111 -0.017946512 -1.2541813
1.3965836 0.029791251 -1.2700571
1.3938391 0.019991413 -1.2662766
1.3874133 0.0073353499 -1.2646151
1.3789068 0.0058628917 -1.2670693
1.4496667 -0.0050081015 -1.2657603
1.4412974 -0.0047257394 -1.2637558
1.4025341 -0.0012414753 -1.2645042
1.4008405 -0.0011840463 -1.2637948
1.4434798 -0.015848219 -1.2632717
1.4416974 -0.01684989 -1.2595271
1.4322706 -0.013793275 -1.2598052
1.388925 -0.021485731 -1.2570103
1.3967859 0.023464456 -1.2752465
1.3906146 0.025901958 -1.2745185
1.4295474 0.00997293 -1.276872
1.4070284 0.011791825 -1.276177
1.4642442 0.0037138015 -1.2789922
1.4333975 -0.0012824833 -1.2768841
1.4053545 -0.0007161051 -1.2728028
1.437023 -0.011003673 -1.2757708
1.4092137 -0.010622039 -1.2685634
1.3974525 -0.014772519 -1.2720339
1.3894434 -0.013302729 -1.273681
1.396809 -0.018859372 -1.2715648
1.4047015 0.027316645 -1.2887511
1.3976448 0.030391365 -1.2903485
1.3939283 0.012261555 -1.2816194
1.4711714 0.0034004152 -1.2826722
1.4455695 0.000605762 -1.2842598
1.4271117 0.0036891699 -1.284431
1.4080411 0.0037370622 -1.2795293
1.4012423 0.0068920106 -1.281188
1.3903383 0.0070247799 -1.2843566
1.4394735 -0.010448799 -1.2816952
1.4572775 -0.014895871 -1.2817591
1.4464638 -0.01208216 -1.2819
1.455955 0.022901267 -1.2976213
1.4007072 0.018247426 -1.2956736
1.4615568 0.0089793503 -1.2990603
1.4152422 0.0086581707 -1.2952639
1.4083269 0.011416286 -1.2971411
1.3942952 0.0078288913 -1.2920488
1.4319242 0.0039196014 -1.2948276
1.399631 -0.00014175475 -1.2882818
1.3887435 0.00066159666 -1.2881528
1.396528 -0.0087784529 -1.2896341
1.3892114 -0.0042670667 -1.2898306
1.3881991 -0.0080905706 -1.2909003
1.4019226 -0.014261976 -1.290611
1.3553247 0.025719449 -1.3050474
1.3980626 0.015320033 -1.3089067
1.4312894 0.0082928985 -1.3044509
1.4127614 0.0079533309 -1.3025967
1.4119146 -0.0030483305 -1.3056067
1.403613 -0.004254207 -1.3055871
1.397051 0.0047422051 -1.3017713
1.45459 -0.0096303374 -1.3018274
1.4429877 -0.0072166026 -1.3014219
1.4105272 -0.0067224205 -1.3042141
1.4011109 -0.0055308938 -1.2985697
1.4058145 -0.012979388 -1.2987884
1.390973 0.025584266 -1.3167641
1.4071681 0.016937792 -1.3132457
1.3999975 0.019331068 -1.3145596
1.3596662 0.022092208 -1.3097211
1.4277604 0.0083554238 -1.3112266
1.4000329 0.012687802 -1.3101306
1.3646004 0.0057880133 -1.3102947
1.3914779 -0.0032776445 -1.3130827
1.3704075 0.00075566769 -1.3154674
1.4041847 -0.0068791062 -1.3095324
1.3789164 -0.0062410086 -1.3134831
1.3659357 0.027756929 -1.3255302
1.4201857 0.016507775 -1.325345
1.4057704 0.017546698 -1.3282121
1.4022417 0.0055853724 -1.3238391
1.3953201 0.0037813932 -1.3229406
1.4024897 0.0016757697 -1.3221269
1.3947515 -0.0043336451 -1.3178209
1.4292917 -0.0052840263 -1.3309382
1.4121497 -0.0050671995 -1.3287036
1.4087569 0.010511592 -1.3408433
1.4004892 0.00052525103 -1.3359027
