# .PCD v0.7 - Point Cloud Data file format
VERSION 0.7
FIELDS x y z
SIZE 4 4 4
TYPE F F F
COUNT 1 1 1
WIDTH 243
HEIGHT 1
VIEWPOINT 0 0 0 1 0 0 0
POINTS 243
DATA ascii
0.24643545 -0.53868669 0.69634783
0.27053824 -0.53734386 0.68395662
0.25736049 -0.53628635 0.68611789
0.28133985 -0.53627479 0.66935337
0.26793888 -0.53527445 0.67712253
0.24235861 -0.53415418 0.67189425
0.29988486 -0.5302307 0.65962219
0.28501704 -0.52848721 0.66345048
0.279338 -0.52860117 0.66570902
0.25381264 -0.53175545 0.66457278
0.26958016 -0.53591734 0.6638903
0.27918777 -0.53184164 0.6503253
0.26785722 -0.53273261 0.65895647
0.25387755 -0.5319767 0.65883434
0.31407422 -0.53698444 0.646254
0.30524531 -0.52847499 0.63081622
0.28847128 -0.52568269 0.63561052
0.28109083 -0.52809376 0.63294744
0.2985673 -0.53183115 0.63600528
0.29124007 -0.53205043 0.63849151
0.31619889 -0.52604228 0.62545633
0.31296438 -0.53017348 0.62210375
0.30237293 -0.52317399 0.6234585
0.29792538 -0.52774823 0.62504554
0.29341909 -0.52699751 0.62491477
0.26838061 -0.52205372 0.62160116
0.30419546 -0.51781303 0.61487591
0.29795396 -0.52078629 0.61930788
0.33403578 -0.52273655 0.61577785
0.31848907 -0.52466542 0.61359441
0.30612433 -0.52461618 0.61442435
0.29154152 -0.52380186 0.61417651
0.32901168 -0.52075088 0.6006285
0.32592055 -0.51568937 0.60509664
0.31473643 -0.51913059 0.60410851
0.29971072 -0.52054679 0.60754323
0.27674955 -0.51794279 0.60788184
0.31781837 -0.51418036 0.59447026
0.3093293 -0.51130038 0.59312332
0.32520014 -0.52018601 0.59792471
0.31243616 -0.51706535 0.59767437
0.30611357 -0.52242923 0.59343886
0.30035785 -0.51734066 0.59079319
0.34391955 -0.51296073 0.58601999
0.33087388 -0.5117892 0.58600777
0.32763827 -0.51015139 0.5810796
0.31571269 -0.51267296 0.58857995
0.29477245 -0.51453233 0.58941114
0.28106126 -0.51434541 0.58586913
0.31739691 -0.51848555 0.58152652
0.35349956 -0.50932693 0.57223463
0.46538985 -0.51191461 0.57526451
0.4611454 -0.51687855 0.57547653
0.33835453 -0.51375514 0.57299626
0.33062488 -0.51350874 0.57353437
0.47834367 -0.52661616 0.57268083
0.46866539 -0.5228402 0.57121551
0.33328584 -0.50867665 0.56863266
0.31845048 -0.50695777 0.56841421
0.35019788 -0.51767695 0.56750822
0.34441137 -0.51256251 0.56838769
0.32801971 -0.51448512 0.56530851
0.47107062 -0.5230661 0.56621772
0.46115798 -0.52763844 0.56549668
0.45574698 -0.51298422 0.55235559
0.36333787 -0.5031395 0.55819869
0.35011011 -0.50472075 0.55474168
0.34508297 -0.50405228 0.55556983
0.33775622 -0.50694275 0.55709136
0.47412992 -0.51719701 0.55771899
0.45199111 -0.51424658 0.5494138
0.35162389 -0.50185359 0.54270911
0.35908121 -0.50938118 0.54481643
0.34217528 -0.51210642 0.5500325
0.32295868 -0.50625646 0.55031043
0.4512316 -0.52485871 0.54426688
0.46457231 -0.49561054 0.52978313
0.46311566 -0.50336748 0.53670853
0.36891875 -0.49872586 0.53417289
0.34781185 -0.49847811 0.5379824
0.33415151 -0.50234449 0.53849369
0.46217296 -0.51396281 0.53541005
0.37334916 -0.50750053 0.53540605
0.36537841 -0.51284403 0.53676796
0.35848802 -0.50982785 0.54008955
0.35051918 -0.50799155 0.54032928
0.33635372 -0.50879043 0.53886902
0.44743255 -0.5227682 0.53602427
0.44152841 -0.51737171 0.53733754
0.37126499 -0.51638597 0.53469574
0.4518626 -0.52906752 0.54163951
0.46258128 -0.49370307 0.52010792
0.44590071 -0.49688798 0.52685106
0.42744198 -0.49403805 0.52419841
0.36696446 -0.49699071 0.52355993
0.34191406 -0.49640217 0.52819109
0.45048699 -0.50384259 0.51956105
0.44190317 -0.50771737 0.52120471
0.43256959 -0.49950832 0.52340156
0.43013838 -0.50067341 0.52832723
0.36237112 -0.49870223 0.52139741
0.34686258 -0.49952 0.52428252
0.47656816 -0.51109368 0.52789086
0.46912551 -0.50830811 0.52694017
0.38051045 -0.51060605 0.52839047
0.36678052 -0.51145118 0.53050983
0.35306907 -0.51391351 0.53037381
0.46004963 -0.51977712 0.52502507
0.43535957 -0.52063429 0.53045565
0.44765505 -0.49586394 0.51198858
0.4321579 -0.49945426 0.51231194
0.4012166 -0.4939115 0.51131165
0.38637272 -0.49534029 0.51433229
0.37152886 -0.49676907 0.51735288
0.36559001 -0.49540624 0.51694155
0.35653707 -0.49452028 0.51486009
0.35034558 -0.49226055 0.51436919
0.34395149 -0.49611232 0.51199651
0.42332014 -0.50848126 0.51702327
0.398368 -0.50731188 0.51640177
0.3879883 -0.50674993 0.5132128
0.38264924 -0.50678951 0.51873159
0.37535945 -0.50675201 0.51376843
0.36774579 -0.5076583 0.52126002
0.33580065 -0.50015068 0.51740324
0.46220228 -0.5118885 0.51758933
0.44678009 -0.51311779 0.51337034
0.3798722 -0.51125467 0.51741081
0.36199614 -0.51082987 0.5183996
0.44018906 -0.52207083 0.52075756
0.46059206 -0.48819637 0.49922925
0.44574824 -0.4896251 0.50224984
0.41202393 -0.49057847 0.5076685
0.43075877 -0.49357656 0.50247508
0.4188951 -0.49433967 0.5089649
0.38587216 -0.49725991 0.50482941
0.36486056 -0.49313617 0.50156581
0.33066332 -0.49593124 0.50856376
0.45716631 -0.50244582 0.50608957
0.44891787 -0.50389117 0.50658029
0.44326121 -0.5067718 0.50713909
0.43420616 -0.50446337 0.5080179
0.42216906 -0.50829482 0.50707209
0.41317466 -0.50075918 0.50841951
0.37250045 -0.50550133 0.50580019
0.45074099 -0.51883882 0.5029183
0.43428645 -0.51775396 0.51060629
0.41319233 -0.4894349 0.49690092
0.39438435 -0.48967618 0.49418199
0.37892276 -0.48669609 0.49122655
0.35533422 -0.48813552 0.49640661
0.44660413 -0.49432433 0.49500415
0.42463425 -0.50174016 0.49686241
0.41403425 -0.49337387 0.49393702
0.40239376 -0.49553946 0.49350521
0.38771909 -0.49825343 0.49458212
0.38118315 -0.49427706 0.49822873
0.37332848 -0.50009578 0.50037992
0.41894865 -0.50834012 0.49943203
0.41507336 -0.51007003 0.49887407
0.40774179 -0.50454736 0.49953979
0.40083116 -0.50447857 0.49666822
0.3944824 -0.50231177 0.49902242
0.38558903 -0.50940496 0.49620408
0.38192475 -0.50485408 0.49383143
0.36908782 -0.50697309 0.50170857
0.36158013 -0.50660348 0.49641109
0.45741627 -0.51603121 0.49526557
0.4480294 -0.51631325 0.49648601
0.42919928 -0.51568359 0.50121665
0.4570466 -0.48464754 0.4856098
0.41642192 -0.49274343 0.48617771
0.39301211 -0.48731622 0.48468316
0.43761188 -0.49444321 0.48722497
0.40640947 -0.49817711 0.48439369
0.40126669 -0.49673659 0.48989734
0.39198509 -0.50187618 0.48795521
0.38502362 -0.498799 0.48990411
0.38110989 -0.50249195 0.49117717
0.37392557 -0.50107569 0.48523018
0.46033716 -0.50465244 0.48646227
0.44549328 -0.50608128 0.48948291
0.43277356 -0.51119143 0.48301899
0.40960768 -0.50515425 0.48633057
0.39468703 -0.50828624 0.48776132
0.37540939 -0.50436699 0.4901706
0.46042067 -0.51443887 0.48615411
0.4575057 -0.48452705 0.47394255
0.41990003 -0.48252183 0.47036231
0.40654892 -0.48288593 0.47551787
0.40267777 -0.48325264 0.47580811
0.44219863 -0.49213433 0.4776386
0.42881972 -0.48694655 0.47534949
0.40193096 -0.48839557 0.47395501
0.38830021 -0.49077028 0.47477067
0.38138124 -0.49453381 0.47241348
0.45658702 -0.5013321 0.47286606
0.42102069 -0.49724224 0.4760924
0.41111207 -0.50006843 0.47427189
0.40475288 -0.50290251 0.47531182
0.39443409 -0.49962324 0.47836274
0.38177788 -0.49886942 0.47313398
0.37603527 -0.50253481 0.48039833
0.43821684 -0.50742382 0.47656807
0.43726903 -0.51082724 0.47465938
0.45304909 -0.48317403 0.45961082
0.44922265 -0.48161525 0.46532175
0.43456137 -0.48206857 0.46784204
0.4183825 -0.48657089 0.46866739
0.41227975 -0.48745242 0.46784192
0.40522516 -0.49550474 0.46472093
0.38310137 -0.49197733 0.46989137
0.4435578 -0.50680578 0.4650993
0.4258309 -0.4986518 0.47127673
0.41510177 -0.50367635 0.46346188
0.40740341 -0.49933958 0.46551764
0.38571292 -0.50033635 0.47062618
0.42972767 -0.5075857 0.46367359
0.44257969 -0.47840214 0.45757708
0.42826962 -0.47867227 0.4528268
0.42560586 -0.48472154 0.45678169
0.41159853 -0.48257852 0.45565861
0.39816263 -0.486269 0.45395255
0.39297169 -0.48576567 0.45716
0.42201191 -0.49705189 0.46091378
0.41498357 -0.48924598 0.45422083
0.41868955 -0.50088733 0.45719084
0.41223004 -0.50323105 0.4553085
0.40467536 -0.49941 0.46069515
0.41613987 -0.47823152 0.44850251
0.4035424 -0.47837502 0.4433488
0.44251457 -0.49207816 0.44560155
0.39576456 -0.49790382 0.44533658
0.44735116 -0.50110954 0.45123452
0.45247471 -0.48504335 0.43302882
0.41825515 -0.49119678 0.43695301
0.45461306 -0.49145615 0.44136766
0.43048289 -0.4924078 0.43931109
0.41546157 -0.49652705 0.43847054
0.4136816 -0.47135228 0.427921
0.44098374 -0.4854655 0.42278492
0.40612549 -0.49075609 0.43262872
0.40480003 -0.49282676 0.43068495
