# .PCD v0.7 - Point Cloud Data file format
VERSION 0.7
FIELDS x y z
SIZE 4 4 4
TYPE F F F
COUNT 1 1 1
WIDTH 156
HEIGHT 1
VIEWPOINT 0 0 0 1 0 0 0
POINTS 156
DATA ascii
0.12197796 -0.72015542 1.1285228
0.13092606 -0.74098635 1.1247611
0.11434845 -0.74702352 1.1260778
0.11912364 -0.76455808 1.1310771
0.11335722 -0.71920848 1.1121011
0.11792715 -0.73692775 1.1173475
0.12847723 -0.7589916 1.1152943
0.11045118 -0.7641139 1.1145855
0.11503773 -0.78147566 1.1198051
0.12469866 -0.7149893 1.0981262
0.12881908 -0.73260438 1.1029989
0.12602399 -0.77711493 1.1053321
0.11095183 -0.79839331 1.1085331
0.12276307 -0.77458555 1.1032076
0.12008021 -0.81932598 1.1056603
0.13573278 -0.72620535 1.0861834
0.1208351 -0.73193198 1.0867332
0.11799427 -0.77694833 1.0889964
0.12030982 -0.79270881 1.0932455
0.10686591 -0.8153109 1.0972611
0.10384589 -0.8609128 1.0995227
0.14606915 -0.72182035 1.0715895
0.13217653 -0.72771287 1.0727582
0.13566019 -0.74505341 1.0774748
0.13168567 -0.74286342 1.0754974
0.11697152 -0.7488746 1.0753403
0.11785219 -0.81095004 1.0827881
0.10278002 -0.83222842 1.0859891
0.13103266 -0.7002843 1.0593169
0.13434766 -0.71785253 1.0643841
0.12763856 -0.75952148 1.0648116
0.13160937 -0.76182568 1.0662996
0.11409698 -0.79403883 1.0775042
0.11492798 -0.85651392 1.0849235
0.14514713 -0.71356595 1.0501573
0.15640551 -0.71743554 1.0569955
0.14202203 -0.73847854 1.0609034
0.12831298 -0.74465555 1.0613652
0.12553735 -0.78978288 1.0634072
0.12502427 -0.80376256 1.0669363
0.11019973 -0.81112927 1.0660117
0.1105186 -0.82498437 1.0708774
0.11376628 -0.82786769 1.071516
0.12236077 -0.8487528 1.0690783
0.16674185 -0.71305066 1.0424016
0.1523584 -0.73409361 1.0463095
0.13965441 -0.74043638 1.0473903
0.13797492 -0.75513655 1.0502175
0.12444939 -0.76159811 1.0499723
0.12755853 -0.77859807 1.0551243
0.12359147 -0.77617955 1.0541255
0.12284767 -0.82203448 1.0566013
0.10643711 -0.84178394 1.0601007
0.13844635 -0.71289861 1.0341668
0.1411307 -0.73019588 1.0390768
0.14831127 -0.75075167 1.0356236
0.13579085 -0.757379 1.0359974
0.13392782 -0.77179468 1.0395316
0.12350772 -0.79537034 1.0439491
0.12164009 -0.80687326 1.0519149
0.13287422 -0.84429282 1.0542344
0.1496904 -0.70871568 1.0203118
0.13711426 -0.74682581 1.0279965
0.14182776 -0.74868524 1.0275308
0.13308044 -0.80261731 1.0378182
0.1357388 -0.81914604 1.0425701
0.13136695 -0.81614006 1.0414416
0.11774282 -0.82396364 1.0404226
0.12066662 -0.84042442 1.0457711
0.15048745 -0.69909054 1.0122939
0.14713228 -0.75315988 1.0220225
0.14426418 -0.76740974 1.0249376
0.13192727 -0.77432168 1.0246043
0.12988071 -0.78845268 1.0288455
0.14179115 -0.81171787 1.0267235
0.14672504 -0.81478536 1.0280972
0.12918317 -0.81970769 1.0263258
0.13165291 -0.83606374 1.0312982
0.16119593 -0.69483995 0.99818689
0.15694366 -0.71948975 1.0087006
0.14650483 -0.71558034 1.0013069
0.13309783 -0.76345575 1.0169162
0.14326873 -0.7701025 1.0106294
0.14275433 -0.7853958 1.0147517
0.15179688 -0.7088021 0.99510759
0.16719365 -0.71514148 0.9942286
0.15293038 -0.73600864 0.99810392
0.15618353 -0.78240037 1.0009029
0.12908138 -0.78008568 1.0058358
0.14062352 -0.81545174 1.012229
0.14263916 -0.83170289 1.0168251
0.12528592 -0.83679813 1.0148335
0.12756698 -0.85298121 1.0200261
0.16543309 -0.68874627 0.98222435
0.15577176 -0.69421721 0.98256028
0.15721333 -0.71132988 0.98719984
0.14082524 -0.71501917 0.98509836
0.14252225 -0.73207021 0.99031997
0.14771445 -0.75260109 0.98821098
0.15469675 -0.7548824 0.98846227
0.15055342 -0.77968293 0.99965769
0.13940515 -0.78704512 0.99923646
0.13672628 -0.83254218 1.0007366
0.13855325 -0.84862047 1.0055531
0.12138864 -0.85388845 1.0033412
0.16247667 -0.68938255 0.97795844
0.15323073 -0.72781974 0.97621286
0.13853964 -0.74856007 0.97933292
0.16088979 -0.775298 0.98506379
0.1507466 -0.78282601 0.98526156
0.1493195 -0.79775685 0.98934972
0.13212287 -0.81738394 0.99287975
0.14953952 -0.84425962 0.99108011
0.12954666 -0.86211663 0.99439335
0.1593374 -0.70660257 0.96618575
0.15197387 -0.71087182 0.97136098
0.15916707 -0.7481792 0.97303534
0.14944328 -0.75492436 0.97257143
0.15684269 -0.79195619 0.97437787
0.16302463 -0.79484934 0.97537887
0.14808187 -0.81594497 0.9785524
0.14245921 -0.81299907 0.97828585
0.12807576 -0.83404207 0.98219383
0.132829 -0.84963256 0.98924428
0.15747304 -0.72151005 0.96120673
0.148176 -0.72752637 0.96016181
0.16147979 -0.76722574 0.96315503
0.16208805 -0.77860689 0.97128659
0.14688301 -0.79976869 0.97386855
0.15447651 -0.83647281 0.97573417
0.14426936 -0.84537661 0.97514749
0.13997084 -0.85769457 0.97967541
0.16174665 -0.67995483 0.94542587
0.16240607 -0.69699013 0.95017004
0.15995662 -0.74005902 0.95111877
0.15822448 -0.79554951 0.95989358
0.1589738 -0.81162173 0.96420366
0.15279558 -0.80861419 0.96369183
0.14301945 -0.81671131 0.96247554
0.16490071 -0.83205062 0.96101618
0.13841212 -0.82965708 0.96759987
0.15436091 -0.81249213 0.94850063
0.15492298 -0.82839394 0.95302844
0.1557097 -0.84112072 0.96105063
0.15552671 -0.74003351 0.93522519
0.1608192 -0.84885031 0.95023942
0.15967803 -0.74996173 0.92583704
0.15042564 -0.76990849 0.93165791
0.15087216 -0.84516639 0.94185317
0.15569802 -0.76634365 0.91532826
0.16176409 -0.84084296 0.92750448
0.16537409 -0.83316046 0.91313207
0.16361389 -0.80555803 0.90170479
0.15176961 -0.82702744 0.91189647
0.15473472 -0.80176789 0.89306366
0.15660985 -0.81374723 0.89968091
