# .PCD v0.7 - Point Cloud Data file format
VERSION 0.7
FIELDS x y z
SIZE 4 4 4
TYPE F F F
COUNT 1 1 1
WIDTH 320
HEIGHT 1
VIEWPOINT 0 0 0 1 0 0 0
POINTS 320
DATA ascii
1.0254202 -0.45444423 -0.27027678
1.0203482 -0.4491502 -0.28221685
1.0080522 -0.44631106 -0.27938661
1.000806 -0.45405805 -0.27655733
1.0024792 -0.46205091 -0.28292096
0.99533212 -0.46924388 -0.27966136
1.0285376 -0.47391129 -0.27965695
1.0128279 -0.4432309 -0.29513288
1.0077293 -0.44192585 -0.29675415
1.0515742 -0.45459178 -0.28769159
1.0117311 -0.45559004 -0.28763002
1.026493 -0.46463415 -0.28886026
1.0166755 -0.46123505 -0.28572062
1.0482138 -0.46829206 -0.29061377
1.0260214 -0.4693073 -0.28831756
1.0376754 -0.44817144 -0.30207419
1.02432 -0.4447735 -0.3012495
1.0318309 -0.45081571 -0.30087167
1.0227803 -0.45712802 -0.29887635
1.0191092 -0.45498508 -0.30083248
1.0146438 -0.46393517 -0.29411757
1.0072368 -0.4593609 -0.29949039
0.99429387 -0.46485761 -0.29628903
1.0325423 -0.46949831 -0.29884726
1.017228 -0.47253138 -0.30202487
1.0112435 -0.47365344 -0.30067176
1.0132407 -0.43842819 -0.31297731
1.0445102 -0.44182387 -0.31519306
1.0199326 -0.44366139 -0.30805293
1.038242 -0.45792541 -0.31070042
1.0352261 -0.45042419 -0.31283668
1.0210415 -0.45418751 -0.30800122
1.0328088 -0.46417525 -0.30603242
1.0268717 -0.46667352 -0.30769151
1.0139191 -0.47410625 -0.31046849
1.0278513 -0.4384439 -0.32095659
1.032498 -0.44407633 -0.32200575
1.0389608 -0.45605063 -0.3164933
1.0217272 -0.45267889 -0.31574216
1.0146728 -0.45283556 -0.31523502
1.0076498 -0.45455822 -0.3173348
1.0365471 -0.46508533 -0.31803757
1.0342053 -0.46270129 -0.32193512
1.0161749 -0.46808222 -0.31889066
1.0089194 -0.46974576 -0.32055062
1.0348617 -0.43595716 -0.32841387
1.0260446 -0.43858206 -0.32762125
1.0464712 -0.44324514 -0.33102852
1.0259591 -0.4514339 -0.33315369
1.0433129 -0.45336643 -0.32958752
1.0305088 -0.45488638 -0.32670078
1.027253 -0.45373863 -0.3254557
1.0315226 -0.46666473 -0.3237575
1.026611 -0.46137166 -0.323131
1.0270844 -0.43508747 -0.34219682
1.0336658 -0.44018781 -0.33889434
1.0233265 -0.4397971 -0.33966973
1.014441 -0.43934232 -0.33829632
1.0085942 -0.44233751 -0.33786809
1.0308484 -0.45247599 -0.33901051
1.0271682 -0.44980067 -0.33567899
1.0500733 -0.45373052 -0.33543128
1.0409876 -0.4594458 -0.33657032
1.0322518 -0.4579162 -0.33768991
1.0209208 -0.45832446 -0.33729404
1.0383682 -0.4670487 -0.33570164
1.0151218 -0.46363315 -0.33575648
1.0203643 -0.4265542 -0.35392657
1.0338051 -0.43246418 -0.34655195
1.0370241 -0.44280192 -0.3454566
1.0235627 -0.44142434 -0.35194394
1.0191388 -0.44347292 -0.35112441
1.0410982 -0.44812775 -0.35348248
1.0326904 -0.44634435 -0.35072175
1.0211575 -0.45469427 -0.35082918
1.0313131 -0.45731482 -0.35190806
1.0324637 -0.42681152 -0.36355636
1.0066695 -0.42729872 -0.36499351
1.0362352 -0.4316434 -0.35834739
1.0263442 -0.4297404 -0.36054182
1.0189569 -0.43040854 -0.36054039
1.0497347 -0.44191322 -0.35950369
1.0341957 -0.44142154 -0.35702404
1.0288913 -0.44342744 -0.36225137
1.0445564 -0.45625943 -0.35641819
1.0409373 -0.45061344 -0.36252701
1.0319886 -0.44952646 -0.35867029
1.0272536 -0.45142022 -0.35590303
1.032038 -0.45906734 -0.35492164
1.0140687 -0.45918402 -0.35262227
1.0284234 -0.42495611 -0.37052801
1.0404242 -0.43429497 -0.36885369
1.0323529 -0.42979789 -0.36939812
1.0206486 -0.43833002 -0.37154499
1.0360442 -0.44558495 -0.37029487
1.0202173 -0.44291621 -0.36545351
1.041844 -0.45313475 -0.36578128
1.0261853 -0.4532764 -0.3681559
1.0130157 -0.45473492 -0.36948809
1.0191554 -0.45779943 -0.36211637
1.0485218 -0.42422846 -0.37823376
1.0420363 -0.42518649 -0.37861422
1.0252346 -0.42967618 -0.38400581
1.0192851 -0.42765331 -0.37801406
1.0085047 -0.42375562 -0.37906003
1.0454938 -0.43199527 -0.38407505
1.0382797 -0.43601525 -0.37917754
1.0259041 -0.43385753 -0.37724876
1.0175149 -0.43488243 -0.38320535
1.0570223 -0.4482283 -0.37792
1.0347872 -0.44080052 -0.38109455
1.0261316 -0.44726503 -0.37879592
1.0222828 -0.44166166 -0.38254747
1.0159849 -0.44415802 -0.37596747
1.004761 -0.4484106 -0.37358809
1.0485609 -0.45184645 -0.37560853
1.0284953 -0.45321167 -0.37742737
1.0383563 -0.41920057 -0.39279073
1.021039 -0.42206061 -0.38726234
1.0050997 -0.42048013 -0.38575184
1.0484447 -0.43170306 -0.39352956
1.0415589 -0.42681926 -0.38998157
1.0273935 -0.42585993 -0.39167467
1.0197695 -0.4309656 -0.38956055
1.0136204 -0.42882794 -0.38640156
1.0451736 -0.43565086 -0.3873404
1.0396855 -0.44115683 -0.39107528
1.020985 -0.43430322 -0.39146113
1.0109801 -0.44038433 -0.38369036
1.0381106 -0.4498094 -0.38808617
1.0336239 -0.44739062 -0.38916889
1.0466866 -0.42005283 -0.40520483
1.0285021 -0.41748294 -0.40258756
1.0143322 -0.42168298 -0.39724249
1.0515822 -0.42766088 -0.39787698
1.0328377 -0.42802408 -0.39751089
1.0274704 -0.43111783 -0.39898813
1.0385404 -0.43539086 -0.40238178
1.0341882 -0.44134766 -0.39808857
1.0287195 -0.43629861 -0.3952077
1.0200771 -0.439046 -0.39658123
1.0525657 -0.4474335 -0.39479882
1.0378352 -0.44862381 -0.3927384
1.0358822 -0.44319627 -0.39440581
1.0406169 -0.42285255 -0.41009766
1.0337571 -0.4197852 -0.40910634
1.0236814 -0.42289788 -0.40889329
1.0164319 -0.41812855 -0.41054079
1.0482062 -0.42711538 -0.41090411
1.0377139 -0.42875451 -0.41298622
1.0276589 -0.43181741 -0.41219535
1.021791 -0.42688698 -0.40835863
1.047175 -0.44403595 -0.4080494
1.0300299 -0.44261143 -0.40896505
1.0542399 -0.41489097 -0.42170912
1.0446121 -0.41757554 -0.42131674
1.0340903 -0.41442007 -0.42217362
1.0455947 -0.41982847 -0.41867942
1.0352098 -0.42070812 -0.42115906
1.0261617 -0.41964817 -0.42326158
1.0401336 -0.43189842 -0.41961432
1.028833 -0.43187875 -0.41541401
1.0227404 -0.42689696 -0.41560307
1.0423875 -0.44026479 -0.418567
1.0556761 -0.41555172 -0.43291351
1.0498483 -0.41680318 -0.43128791
1.042763 -0.41605729 -0.42746091
1.02561 -0.4175798 -0.43301392
1.0451455 -0.42400891 -0.42971966
1.0349754 -0.42707524 -0.4283824
1.0284494 -0.42301592 -0.42724022
1.0227612 -0.42094505 -0.42571807
1.0492941 -0.43102396 -0.43109712
1.0416474 -0.43607581 -0.42910188
1.0379963 -0.40721384 -0.44184706
1.0291377 -0.40877804 -0.44105402
1.0435437 -0.41306177 -0.43842763
1.0339698 -0.41466975 -0.43917522
1.0299729 -0.41424537 -0.44292295
1.0194427 -0.41459274 -0.44054657
1.0172656 -0.41067278 -0.43620348
1.040321 -0.42903394 -0.44172141
1.0422279 -0.43377835 -0.43578494
1.0361539 -0.43452987 -0.43321866
1.0265449 -0.40866157 -0.44824249
1.0428165 -0.41219053 -0.44433463
1.0347663 -0.41583759 -0.4509708
1.0281616 -0.41782665 -0.4482992
1.0346566 -0.42646235 -0.44835213
1.051729 -0.43179905 -0.44333601
1.0477284 -0.43136328 -0.44219488
1.0454403 -0.41187876 -0.46041113
1.0410328 -0.40864927 -0.45704657
1.0353378 -0.40449345 -0.45998833
1.045732 -0.41369337 -0.45398763
1.042605 -0.41882583 -0.45759997
1.0272442 -0.42237151 -0.46063298
1.0196989 -0.41573563 -0.46213818
1.0079093 -0.4176172 -0.45732147
0.99611992 -0.41949871 -0.45250469
1.0436037 -0.42737442 -0.45712042
1.0213425 -0.42397138 -0.45761177
1.0457513 -0.4010821 -0.47265714
1.0411109 -0.40120849 -0.47262496
1.0466869 -0.40746686 -0.47161227
1.0283818 -0.41294688 -0.4665927
1.0103291 -0.40863767 -0.46755368
1.0493653 -0.42109889 -0.46218809
1.0436788 -0.41948473 -0.46237817
1.0368358 -0.42185366 -0.4668498
1.0662829 -0.40553609 -0.48106092
1.0436211 -0.40237701 -0.47927064
1.0348276 -0.40293285 -0.4785673
1.0293174 -0.40534467 -0.478174
1.0566258 -0.40819728 -0.47404903
1.0491979 -0.41306764 -0.47553486
1.0361323 -0.41263008 -0.47802675
1.0298744 -0.41412467 -0.47692654
1.0229508 -0.40723646 -0.47754586
1.0482688 -0.41953379 -0.47480309
1.0409321 -0.4183526 -0.4808082
1.0357739 -0.4196614 -0.47584373
1.0587387 -0.40853202 -0.48969921
1.0463673 -0.40349931 -0.487113
1.041754 -0.40305623 -0.49006787
1.0344274 -0.40278271 -0.49286976
1.0246109 -0.40739959 -0.484449
1.0565243 -0.41422331 -0.48978052
1.0400522 -0.41567501 -0.48570079
1.0382565 -0.41638565 -0.48858583
1.0726351 -0.39852348 -0.49921456
1.0562875 -0.3972182 -0.49607083
1.0424937 -0.39671654 -0.49752063
1.0765585 -0.40145743 -0.49459752
1.0551598 -0.40277198 -0.49546558
1.0338237 -0.40487152 -0.49937469
1.0526596 -0.41232118 -0.49620065
1.0488889 -0.4139238 -0.49706274
1.0347055 -0.41514763 -0.49295452
1.0268872 -0.38941514 -0.51094997
1.042899 -0.39428282 -0.51169568
1.0354364 -0.39331785 -0.51257467
1.0295309 -0.39284739 -0.50550091
1.0239202 -0.39758399 -0.50444478
1.0788848 -0.40730125 -0.51022053
1.0545356 -0.40831059 -0.50404918
1.0439916 -0.41133392 -0.50457847
1.0289559 -0.3877396 -0.52132308
1.0601472 -0.39828795 -0.51404226
1.0536528 -0.3979212 -0.51416409
1.0511739 -0.4011817 -0.51932251
1.0432813 -0.39701641 -0.51579076
1.0380747 -0.39405039 -0.51791096
1.0533228 -0.40781227 -0.51531285
1.0505875 -0.40614757 -0.51590323
1.0320561 -0.40434277 -0.51289588
1.0284274 -0.40385249 -0.51782715
1.0606214 -0.39149177 -0.53110605
1.046728 -0.39526689 -0.53049099
1.0382017 -0.39049292 -0.52398199
1.0536851 -0.40271121 -0.52505738
1.027505 -0.39946392 -0.52754158
1.0352314 -0.38351113 -0.54193389
1.0758059 -0.39579976 -0.53404206
1.0500089 -0.38899651 -0.53984594
1.0546916 -0.40067926 -0.53634042
1.0593669 -0.38334805 -0.55241209
1.0687702 -0.39382303 -0.55056542
1.0528423 -0.39085653 -0.54946238
1.0439583 -0.39138979 -0.54604691
1.0282872 -0.39364594 -0.54665071
1.0607994 -0.38377467 -0.55493689
1.0498698 -0.38807443 -0.55650157
1.0435421 -0.38647068 -0.55810183
1.0421906 -0.39349374 -0.55216819
1.0525181 -0.38024509 -0.57043022
1.0446824 -0.37934533 -0.57107276
1.0702415 -0.38255933 -0.56742191
1.0501652 -0.38272852 -0.57022518
1.0455809 -0.38632524 -0.57073903
1.0470626 -0.37963074 -0.58153367
1.0437049 -0.37800556 -0.57734579
1.0512143 -0.38549682 -0.57753849
1.057479 -0.37978739 -0.58466357
1.0488598 -0.38173431 -0.58764154
1.0456971 -0.38051826 -0.58926213
1.0333595 -0.38141587 -0.58571696
1.0266705 -0.3806248 -0.58387649
1.0647109 -0.37319273 -0.59600329
1.0535778 -0.37470454 -0.59853798
1.0235393 -0.37640476 -0.5982759
1.0473462 -0.36814991 -0.60793924
1.0735663 -0.37648189 -0.60872298
1.0667028 -0.37735802 -0.61100179
1.0600541 -0.3741965 -0.60282266
1.0354142 -0.36918372 -0.60690087
1.0195371 -0.37229961 -0.602162
1.0269665 -0.37265635 -0.61458206
1.0204082 -0.37218469 -0.61267543
1.0520827 -0.36959493 -0.63072199
1.0470088 -0.36342806 -0.62551135
1.0322583 -0.36548805 -0.62199092
1.0595374 -0.37385646 -0.62103194
1.0512365 -0.36238325 -0.63853431
1.0291023 -0.36179239 -0.63708091
1.0637536 -0.36461043 -0.63594198
1.0581224 -0.36853641 -0.63459831
1.0518689 -0.36393735 -0.63441163
1.0439861 -0.36556414 -0.63179797
1.0664829 -0.36439294 -0.64933079
1.0597224 -0.36437464 -0.64728516
1.053283 -0.36096159 -0.64668161
1.0728128 -0.36524996 -0.64789981
1.0498881 -0.35613701 -0.65865356
1.0613216 -0.35945493 -0.65759492
1.0592782 -0.36040667 -0.65241581
1.0506531 -0.35920039 -0.65194744
1.0436615 -0.35995996 -0.65971535
1.0510881 -0.35338473 -0.67652023
1.0422909 -0.35102832 -0.67845899
