# .PCD v0.7 - Point Cloud Data file format
VERSION 0.7
FIELDS x y z
SIZE 4 4 4
TYPE F F F
COUNT 1 1 1
WIDTH 143
HEIGHT 1
VIEWPOINT 0 0 0 1 0 0 0
POINTS 143
DATA ascii
0.014217611 -0.013101548 -1.9441669
0.014449844 -0.024754241 -1.9403067
0.045602757 -0.081078544 -1.9311508
0.013908429 -0.022466838 -1.9489777
0.014121795 -0.034185752 -1.9450979
0.011053863 -0.03038606 -1.9505966
0.014101301 -0.044865012 -1.945586
0.014059512 -0.055603385 -1.9460863
0.017225679 -0.059572026 -1.9405754
0.014328504 -0.067609444 -1.9422183
0.046222366 -0.079191223 -1.9394083
0.058046803 -0.088172093 -1.9420698
0.04717914 -0.088596731 -1.9382159
0.045908473 -0.099606052 -1.9399409
0.048286851 -0.10736533 -1.9414684
0.0081992932 -0.038305327 -1.9522153
0.013512082 -0.053290561 -1.9548538
0.011173215 -0.063610613 -1.947723
0.010625787 -0.061297819 -1.9564905
0.046841979 -0.077303886 -1.9476658
0.049203821 -0.085009202 -1.9491827
0.048765823 -0.096135005 -1.9453142
0.048910797 -0.10546477 -1.9497837
0.048499197 -0.11671756 -1.9458499
0.0057376474 -0.12616983 -1.944243
0.036226157 -0.24437824 -1.9308271
0.071265325 -0.24654602 -1.9273483
0.012964652 -0.050977752 -1.9636211
0.016071673 -0.07674031 -1.9592655
0.010332345 -0.071003824 -1.9614624
0.021927461 -0.082583159 -1.9570729
0.01898632 -0.090742543 -1.9587407
0.051757589 -0.10197315 -1.9551225
0.021918669 -0.10494079 -1.9581736
0.015296896 -0.098918632 -1.9588857
0.060804777 -0.11422408 -1.9523351
0.054127604 -0.10970515 -1.956645
0.051289178 -0.11322409 -1.9513115
0.063158445 -0.12190275 -1.9538469
0.051511839 -0.12259644 -1.9557267
0.019217765 -0.12569039 -1.9558945
0.0077795908 -0.12573683 -1.9564778
0.053898387 -0.13038239 -1.9572598
0.048622619 -0.12620209 -1.9503813
0.041250836 -0.13319264 -1.9508439
0.048815608 -0.13570239 -1.954854
0.043671455 -0.14108974 -1.9523989
0.052992038 -0.15330537 -1.9495384
0.053990688 -0.23743081 -1.9406906
0.072240591 -0.24417865 -1.9365381
0.057145312 -0.24236211 -1.9343767
0.035632305 -0.24186932 -1.9403381
0.015790613 -0.086611912 -1.9642977
0.012340985 -0.094844565 -1.9645128
0.01310404 -0.10706133 -1.9620763
0.021628436 -0.11505347 -1.9632441
0.013534829 -0.11288354 -1.9646275
0.019080283 -0.12393205 -1.9646512
0.051219091 -0.14354359 -1.9563978
0.029166877 -0.15370825 -1.9620107
0.048702214 -0.16659829 -1.9600539
0.035038456 -0.23936036 -1.949849
0.013341629 -0.10558081 -1.9709641
0.0096050669 -0.11286391 -1.9726781
0.012465851 -0.12723094 -1.9722176
0.019307017 -0.13455942 -1.9692951
0.01539585 -0.14183778 -1.9717823
0.024632357 -0.15096882 -1.9716121
0.046910301 -0.15673208 -1.9669862
0.018979326 -0.16008532 -1.9680228
0.068005338 -0.17343925 -1.9646769
0.051346615 -0.18432151 -1.966176
0.046634637 -0.1782566 -1.9676756
0.012893008 -0.17575896 -1.9655732
0.050885852 -0.1961748 -1.9622653
0.052213579 -0.20903403 -1.9638481
0.043707356 -0.23755425 -1.9558587
0.02533452 -0.23871288 -1.9562231
0.02465323 -0.12617208 -1.9795302
0.019085629 -0.14462164 -1.9742323
0.015557387 -0.1399117 -1.9804307
0.017770544 -0.15423724 -1.9804437
0.016218774 -0.15271851 -1.9760504
0.0053474139 -0.15241715 -1.9772847
0.047110632 -0.16646752 -1.9715672
0.021076731 -0.15875578 -1.9748182
0.0107385 -0.1587595 -1.9747292
0.049548384 -0.17442054 -1.973133
0.018055364 -0.16713774 -1.9765316
0.014786734 -0.16916399 -1.9785899
0.010430998 -0.18143389 -1.9757555
0.055639323 -0.19264257 -1.9707247
0.041532978 -0.19405177 -1.9699539
0.015287938 -0.18853715 -1.9742812
0.048982725 -0.20066147 -1.9751096
0.0062810499 -0.19769573 -1.9730943
0.046946488 -0.2063012 -1.9698133
0.012940953 -0.20900692 -1.9709246
0.052175149 -0.21968621 -1.9683387
0.045051511 -0.23694846 -1.9678078
0.040698517 -0.23447841 -1.9627737
0.036116797 -0.23750994 -1.9648798
0.020819869 -0.16260517 -1.9812198
0.017482318 -0.16471671 -1.9857092
0.010318949 -0.16665643 -1.9886209
0.0090516368 -0.17296071 -1.9805959
0.017745804 -0.177692 -1.9817746
0.014499491 -0.18308204 -1.9836546
0.0082795676 -0.18654582 -1.9811743
0.044255085 -0.19399713 -1.9774867
0.024009719 -0.19202287 -1.984547
0.015073802 -0.19354039 -1.9796712
0.0023478772 -0.19300434 -1.9785941
0.0017724 -0.20392759 -1.9837587
0.051606394 -0.21175858 -1.9781936
0.049427263 -0.20619407 -1.9786253
0.0057461616 -0.2087048 -1.9782966
0.055189047 -0.21906146 -1.9777905
0.044316895 -0.22241387 -1.9810432
0.012698844 -0.21955259 -1.9759719
0.054076411 -0.22846591 -1.975578
0.026418585 -0.23061949 -1.9735217
0.023812037 -0.23141992 -1.9798501
0.0064390749 -0.22702615 -1.9755063
-0.002521148 -0.22823243 -1.979347
0.016292945 -0.16886227 -1.9919271
0.01274293 -0.17905676 -1.9969443
0.021117233 -0.2030476 -1.9846579
0.05280596 -0.20750332 -1.9850891
0.018184047 -0.21133183 -1.9865181
0.0096929427 -0.21264693 -1.9909121
0.01525086 -0.21961603 -1.9883782
0.0079870373 -0.22222173 -1.9875648
0.05454791 -0.23241892 -1.9865438
0.034132957 -0.23458448 -1.9844239
0.012016548 -0.22711663 -1.9820242
0.0085676946 -0.22697641 -1.9883516
0.014183233 -0.18420109 -1.9979173
0.026433993 -0.20531857 -2.0004425
0.020746095 -0.21134531 -1.9989878
0.012147722 -0.22559221 -1.9993794
0.015027635 -0.23029484 -1.9935465
0.0094651738 -0.22211774 -2.0010762
