# .PCD v0.7 - Point Cloud Data file format
VERSION 0.7
FIELDS x y z
SIZE 4 4 4
TYPE F F F
COUNT 1 1 1
WIDTH 1457
HEIGHT 1
VIEWPOINT 0 0 0 1 0 0 0
POINTS 1457
DATA ascii
1.075246 0.11844068 -0.32706496
1.0947593 0.11784336 -0.32190233
1.0719188 0.10061479 -0.32013062
1.0578827 0.095479026 -0.3221913
1.0599618 0.085555464 -0.32404378
1.0545169 0.078750454 -0.32234505
1.0468359 0.077256791 -0.32275292
1.0439686 0.067418784 -0.3155449
1.0364177 0.070255131 -0.31809065
1.0403665 0.060032647 -0.31391764
1.0352162 0.058194596 -0.31729579
1.0399436 0.053413052 -0.31147733
1.0357509 0.053534202 -0.31136245
1.0741795 0.10563518 -0.33660007
1.047739 0.10382268 -0.33554393
1.0373404 0.10097776 -0.32747945
1.0553386 0.094875783 -0.33357614
1.0511429 0.087561414 -0.32800767
1.0425025 0.085656226 -0.32782778
1.0275272 0.088367969 -0.33190951
1.0480047 0.070496157 -0.32795694
1.0338815 0.073680416 -0.33045903
1.0481654 0.063560471 -0.32840541
1.0319411 0.068913259 -0.32820964
1.0417335 0.057771839 -0.32695907
1.0298097 0.058794968 -0.32866129
1.0882161 0.12545186 -0.34898746
1.0633404 0.10000895 -0.33815128
1.0495123 0.10132375 -0.34200504
1.0623009 0.090674654 -0.34048754
1.0304742 0.092200041 -0.33863431
1.0396914 0.082433164 -0.33659971
1.0266608 0.08007741 -0.34169787
1.0588883 0.072665423 -0.33364183
1.0458137 0.071897574 -0.33293146
1.0424107 0.071777582 -0.3363291
1.0372932 0.075844795 -0.33769768
1.0475672 0.063927203 -0.33551514
1.0440153 0.063759759 -0.33284998
1.028217 0.060230441 -0.33414191
1.0245173 0.060040191 -0.33825511
1.0469313 0.057606105 -0.33755499
1.0404844 0.056233734 -0.33785522
1.0360477 0.055436846 -0.33187011
1.0300235 0.055742942 -0.33807552
1.0989577 0.12759286 -0.35459828
1.0805753 0.11357138 -0.35380068
1.0764148 0.11058878 -0.35284963
1.0600764 0.11298124 -0.35388717
1.0529882 0.092040196 -0.34539419
1.0458344 0.09074156 -0.34534302
1.0406826 0.094620124 -0.3475337
1.027419 0.094887286 -0.3530671
1.0612344 0.077869162 -0.35002264
1.0466946 0.082914665 -0.34509501
1.04418 0.085426442 -0.34715807
1.03599 0.080353521 -0.34971336
1.0285822 0.085505098 -0.3468602
1.0540059 0.068742648 -0.34463009
1.0476588 0.076376379 -0.35031798
1.0567478 0.061325375 -0.34337199
1.0427308 0.060214221 -0.34594449
1.0347346 0.062338982 -0.34403932
1.0295109 0.062853537 -0.34473518
1.0123819 0.05660101 -0.34069231
1.089334 0.11520237 -0.36780185
1.0298266 0.11526035 -0.36442503
1.0563196 0.10721731 -0.36271596
1.0523148 0.10540923 -0.35956302
1.0646136 0.095725708 -0.3567118
1.0548334 0.096518993 -0.36278075
1.0464493 0.10151069 -0.35846582
1.0470259 0.087318122 -0.35445723
1.0323532 0.089590579 -0.36112362
1.0439299 0.077660434 -0.35514209
1.0382018 0.081343234 -0.35698667
1.0244795 0.08315751 -0.35490716
1.0528691 0.068417087 -0.35222363
1.0409292 0.070522711 -0.35600913
1.0316955 0.067252338 -0.35290074
1.0241828 0.07008931 -0.3545185
1.060168 0.06506367 -0.35955772
1.0416248 0.062707998 -0.35538447
1.0285982 0.064665399 -0.35061994
1.0800579 0.11996506 -0.37498242
1.0317403 0.11489783 -0.37503862
1.0683603 0.10711646 -0.37022418
1.057552 0.10634811 -0.37086168
1.051474 0.10443284 -0.37493604
1.0415523 0.099957407 -0.36663631
1.0385076 0.099295899 -0.3744117
1.0272857 0.10132249 -0.37395376
1.0531482 0.091947302 -0.37043619
1.0437595 0.087984137 -0.36662099
1.0340059 0.092001528 -0.37159771
1.0278635 0.089559644 -0.37186387
1.0486159 0.075938009 -0.36847109
1.0495771 0.065964669 -0.36285985
1.0418445 0.06929864 -0.36171561
1.0357212 0.068066359 -0.36643967
1.0407159 0.060423866 -0.36504161
1.0338149 0.059626929 -0.36453766
1.0637031 0.11210851 -0.37869918
1.0576231 0.102255 -0.38156825
1.0369456 0.10694725 -0.38392839
1.0375756 0.094013251 -0.37758201
1.055178 0.085942239 -0.37655538
1.046353 0.088674098 -0.3812516
1.0365801 0.08328484 -0.37414911
1.0487157 0.076415271 -0.37815222
1.0413113 0.073126346 -0.37683436
1.0287133 0.076222181 -0.3767125
1.0225594 0.073944069 -0.37741873
1.0459296 0.070486441 -0.37533903
1.0414793 0.071277246 -0.37785164
1.0301017 0.06935329 -0.37795985
1.052124 0.12047447 -0.39084673
1.0332757 0.12034568 -0.39311719
1.0705048 0.11398523 -0.3912963
1.0476053 0.11392921 -0.38704035
1.0469848 0.10820769 -0.3947511
1.0592705 0.096576497 -0.38641518
1.0428506 0.096372262 -0.3902052
1.0314518 0.093513839 -0.38905922
1.0375201 0.087060273 -0.38774389
1.0298846 0.089739494 -0.38603622
1.0247446 0.087384611 -0.38348246
1.0541253 0.073302418 -0.38596708
1.0504194 0.076990277 -0.38969439
1.0402882 0.074685864 -0.38608813
1.0327684 0.078519985 -0.38458204
1.0306559 0.080469988 -0.38810408
1.0435296 0.070473492 -0.38344356
1.0322207 0.070280164 -0.38273296
1.0528277 0.11835189 -0.40349871
1.0874996 0.11299637 -0.39886966
1.0502572 0.10765359 -0.40045086
1.0431029 0.11191703 -0.40178987
1.0314212 0.10760944 -0.4026579
1.0332332 0.10805255 -0.39537621
1.0571477 0.092003495 -0.39999285
1.0427982 0.098435938 -0.39404035
1.0239953 0.09847711 -0.39567009
1.0548379 0.081044473 -0.39413121
1.0401162 0.083989322 -0.39976102
1.0314378 0.083017945 -0.39712131
1.0418633 0.075743273 -0.39444521
1.0331215 0.072181843 -0.39629582
1.0261477 0.077898279 -0.3946141
1.0276971 0.064682141 -0.3945947
1.0455791 0.12611839 -0.40926039
1.0759476 0.1213669 -0.41065717
1.0708439 0.12032333 -0.41245916
1.0604491 0.11044189 -0.40835488
1.0568439 0.11465208 -0.41100368
1.0532405 0.11279561 -0.41281787
1.0341798 0.11318072 -0.41373307
1.0600977 0.09690199 -0.41237494
1.0504544 0.10337095 -0.41039833
1.0409392 0.10296306 -0.41229802
1.037305 0.098789945 -0.4063538
1.0531943 0.089812756 -0.40247756
1.049311 0.093797065 -0.4023678
1.0444438 0.094269812 -0.40427983
1.0381488 0.093723133 -0.40389231
1.0308022 0.095042005 -0.4046396
1.0246657 0.093816973 -0.40397406
1.0472558 0.08178556 -0.40498498
1.0377023 0.083969548 -0.4030422
1.0478649 0.074148908 -0.40740138
1.0429114 0.076994896 -0.40434051
1.0549089 0.13122496 -0.42655706
1.0479214 0.13075365 -0.42442954
1.0903448 0.11714393 -0.4166944
1.0470575 0.11333297 -0.41810116
1.0553904 0.10176837 -0.4173899
1.0550394 0.094291553 -0.41986412
1.0484887 0.088467509 -0.4179562
1.0432134 0.087365329 -0.41749874
1.0380504 0.090017945 -0.41512161
1.0482718 0.081318364 -0.41165954
1.0422473 0.080209315 -0.41103879
1.036332 0.079223484 -0.41175508
1.0290537 0.081941977 -0.41285622
1.0221424 0.079976611 -0.41343608
1.0362958 0.069698878 -0.41117802
1.1489983 0.16427933 -0.43600619
1.0408585 0.12233765 -0.42548046
1.0365638 0.11644927 -0.42814651
1.0589646 0.10847785 -0.42615736
1.0498159 0.10041305 -0.42790231
1.0437781 0.098972768 -0.4262296
1.0386286 0.10142225 -0.42344993
1.0317649 0.10025609 -0.42293528
1.0567156 0.084800132 -0.42756316
1.0500584 0.085871041 -0.42254296
1.0360131 0.08871527 -0.42481452
1.0576503 0.083803788 -0.42170069
1.0465238 0.082011797 -0.41965911
1.0426313 0.084675357 -0.42763233
1.0386361 0.082445487 -0.42453593
1.0319232 0.083395123 -0.42376202
1.1552624 0.16901566 -0.45235503
1.0632726 0.12719724 -0.43641543
1.036877 0.12221028 -0.44241363
1.0650412 0.11307241 -0.44201675
1.0511316 0.11759493 -0.43716636
1.0449265 0.1205997 -0.44051737
1.0429083 0.10901579 -0.4377974
1.03737 0.10797876 -0.43469152
1.0549276 0.090022124 -0.43635815
1.0421022 0.087984487 -0.43543565
1.02935 0.087331466 -0.43213749
1.0402824 0.079524294 -0.43809226
1.0362127 0.078792825 -0.43084335
1.0321552 0.077511787 -0.43634608
1.1637861 0.1412573 -0.4574182
1.0477105 0.13897605 -0.45362449
1.0684952 0.1316199 -0.4528738
1.0663277 0.12583664 -0.4473528
1.0568007 0.12328713 -0.45009202
1.0384245 0.12875947 -0.44730681
1.0302684 0.1137521 -0.44313252
1.0512244 0.10591961 -0.44551334
1.0344821 0.10607918 -0.44643205
1.0295224 0.10781033 -0.44726044
1.0606418 0.097656608 -0.44967508
1.0492252 0.092043199 -0.44946396
1.0439065 0.10106861 -0.44318515
1.0357431 0.096530274 -0.44419128
1.0528609 0.089956529 -0.44010091
1.0420955 0.087924033 -0.44571972
1.0386162 0.085519679 -0.44807282
1.0161681 0.08924906 -0.44585222
1.0488474 0.075852744 -0.4433639
1.0447882 0.075029328 -0.44078258
1.0361731 0.076333374 -0.44441015
1.1615263 0.17375198 -0.46870387
1.1756365 0.15150002 -0.46928304
1.1507272 0.15312412 -0.46024963
1.0824791 0.12769787 -0.45867577
1.0458096 0.12604147 -0.46068931
1.0382792 0.12520763 -0.46006006
1.0268518 0.12615585 -0.4545489
1.0345588 0.11214533 -0.4553718
1.0335025 0.11358549 -0.45832333
1.0612825 0.10867135 -0.45331371
1.045738 0.10551456 -0.46044418
1.0387269 0.10503766 -0.45249593
1.0556763 0.091479704 -0.45561117
1.0493821 0.093266957 -0.45499146
1.0412912 0.096016228 -0.45583826
1.0234547 0.094402872 -0.45294082
1.0562425 0.08224079 -0.45733333
1.036775 0.086142309 -0.45238742
1.0352587 0.076000407 -0.45374262
1.1569912 0.15786046 -0.47659847
1.1667202 0.14553478 -0.47580123
1.1154444 0.14448464 -0.47421265
1.0491251 0.1441227 -0.47070873
1.0386077 0.14023876 -0.47235665
1.0613405 0.12736858 -0.4670009
1.0546979 0.12890044 -0.46948114
1.0362104 0.13230079 -0.46675593
1.0659041 0.12339176 -0.46709991
1.0586722 0.12020065 -0.46530396
1.0291259 0.11994903 -0.46401474
1.0626113 0.11408693 -0.47063971
1.043344 0.11284079 -0.46748003
1.0370144 0.11235435 -0.46404153
1.0330843 0.11173543 -0.46432924
1.0444626 0.10356903 -0.46415341
1.0363739 0.10336392 -0.46384427
1.0314978 0.10024853 -0.46559629
1.050328 0.094264105 -0.46582288
1.0435417 0.090985566 -0.4639802
1.0369399 0.096773759 -0.46120146
1.0475399 0.080614284 -0.46446958
1.0438426 0.081778117 -0.46089715
1.0357097 0.084965274 -0.46263167
1.0303209 0.084154293 -0.45789534
1.0191889 0.082240574 -0.46225193
1.0444195 0.080384076 -0.45792866
1.022261 0.076696068 -0.46052325
1.1677903 0.17848833 -0.4850527
1.1769971 0.16029392 -0.48544547
1.1812024 0.14369278 -0.48129535
1.1338457 0.14639458 -0.48465651
1.1237403 0.13792783 -0.48129562
1.0447718 0.13882324 -0.48124921
1.0658802 0.13145006 -0.48390973
1.0469199 0.13111973 -0.47802326
1.0689102 0.12054931 -0.47633219
1.0386137 0.12101269 -0.47393218
1.0325511 0.12094444 -0.47792888
1.0475698 0.1099605 -0.47770315
1.0434942 0.11418153 -0.47999883
1.0339601 0.11594864 -0.47392929
1.0543054 0.10489926 -0.4729054
1.0507886 0.098782852 -0.47230655
1.0462797 0.10321081 -0.47390699
1.0403433 0.10400099 -0.47808534
1.0297869 0.098915182 -0.46994478
1.0560629 0.09597721 -0.47232163
1.0417165 0.090716295 -0.47565436
1.0305192 0.092882916 -0.47149467
1.062319 0.08683534 -0.47319275
1.0567478 0.081474438 -0.46732938
1.0383743 0.084242165 -0.46942332
1.0284662 0.082536966 -0.47519997
1.2082702 0.18371847 -0.50302505
1.1669801 0.15839483 -0.49371627
1.0603344 0.15188202 -0.49516392
1.1696546 0.14981225 -0.49418429
1.1065592 0.14451283 -0.4905521
1.0751016 0.14462294 -0.48918602
1.0445509 0.14473245 -0.48786789
1.1760714 0.13990918 -0.49384376
1.1017256 0.13373417 -0.48799342
1.0465469 0.13709554 -0.49377239
1.0362673 0.13547623 -0.48404947
1.1851517 0.12434291 -0.4921883
1.1466831 0.13118795 -0.487488
1.0881706 0.13229769 -0.49127617
1.0677494 0.12787053 -0.48448646
1.0582862 0.13285463 -0.48667648
1.0413332 0.12466999 -0.49032837
1.0279779 0.12606546 -0.48462614
1.1998734 0.11852258 -0.48662245
1.0870478 0.12253731 -0.48584175
1.0607976 0.11580926 -0.49017802
1.0441539 0.1178536 -0.48506466
1.0372241 0.11713213 -0.48178256
1.0603368 0.10945972 -0.48864716
1.0527438 0.10959054 -0.48267049
1.040936 0.10819066 -0.48174429
1.0351886 0.10963355 -0.48458159
1.0641031 0.10505603 -0.48333219
1.050768 0.1024107 -0.48511106
1.038481 0.098025098 -0.48560768
1.031806 0.10183126 -0.48578423
1.0602926 0.092302471 -0.48314953
1.0418937 0.091122039 -0.48172295
1.0489584 0.08621259 -0.48172295
1.0388254 0.085859269 -0.48313838
1.1849412 0.16291401 -0.50283396
1.1714796 0.15030968 -0.50605136
1.1587201 0.14670528 -0.50084192
1.1290828 0.14245209 -0.49813202
1.0423398 0.14503776 -0.50237298
1.1640718 0.13316788 -0.49957949
1.1052978 0.13403344 -0.5024175
1.0834918 0.1332185 -0.49419039
1.0487378 0.13687071 -0.4967989
1.1117549 0.13060699 -0.50282806
1.0923096 0.12699333 -0.50242418
1.0828069 0.13027516 -0.49635339
1.0404056 0.12614202 -0.49741226
1.1411437 0.11467276 -0.4928413
1.0573707 0.11791137 -0.49726504
1.0538973 0.12016341 -0.49355853
1.0402081 0.11958564 -0.49846685
1.033813 0.12201326 -0.49325353
1.0693257 0.1094787 -0.49979058
1.0481858 0.1046083 -0.49870598
1.0410681 0.10574147 -0.49330974
1.0378947 0.11051675 -0.49940747
1.1947602 0.10204284 -0.49406821
1.0560824 0.10032159 -0.49273923
1.0511162 0.10186026 -0.49310941
1.0320562 0.095897429 -0.49381834
1.0683955 0.091429889 -0.48905218
1.059296 0.089562766 -0.49033222
1.0483848 0.089655653 -0.49419254
1.0372282 0.092012696 -0.4891215
1.0284634 0.08869683 -0.49055371
1.033362 0.082929336 -0.49036524
1.0261159 0.084659249 -0.49242604
1.2036642 0.16757827 -0.51104325
1.2065226 0.1631569 -0.51391101
1.2055409 0.14999869 -0.51011395
1.1787394 0.14905205 -0.50987726
1.1725887 0.15408969 -0.51256734
1.1126815 0.14914201 -0.50653112
1.1815392 0.14453965 -0.51107556
1.048103 0.14018838 -0.51062661
1.1806295 0.13149452 -0.50575358
1.1688712 0.13291442 -0.51247442
1.1366134 0.13347939 -0.50735974
1.0893472 0.13145061 -0.50545448
1.0880657 0.13733073 -0.51122671
1.0584681 0.13565017 -0.50413316
1.0389256 0.13098505 -0.51138765
1.0268886 0.13208626 -0.50491452
1.2021379 0.12686372 -0.5048449
1.1908658 0.12579049 -0.51131678
1.1107674 0.12904456 -0.51220179
1.0652401 0.12470249 -0.50459963
1.0562602 0.12444278 -0.51101887
1.19643 0.11008704 -0.51011848
1.1778773 0.11391447 -0.51183856
1.1753522 0.11331271 -0.50652629
1.1584892 0.1165235 -0.50497466
1.1451948 0.11478481 -0.50670928
1.1063051 0.11458918 -0.5078631
1.0998728 0.11806206 -0.50809896
1.0874662 0.11138324 -0.50947696
1.0780705 0.11557429 -0.50523615
1.0695758 0.1188386 -0.50321972
1.0653236 0.11686546 -0.50609088
1.0365937 0.11657051 -0.50042409
1.0339983 0.11582182 -0.50504982
1.1648057 0.11006029 -0.5032326
1.0568364 0.10497224 -0.50574261
1.0525494 0.10854321 -0.50441295
1.0349431 0.104085 -0.50398088
1.074472 0.096024446 -0.5049116
1.0645185 0.093985438 -0.50679058
1.0549597 0.099173144 -0.50547421
1.044111 0.098857507 -0.49984986
1.0377597 0.094108671 -0.50210959
1.0503649 0.091736317 -0.49874592
1.0428934 0.088828966 -0.50382078
1.0387825 0.089863174 -0.50031781
1.0330187 0.086812861 -0.5044716
1.2100261 0.17238872 -0.52764791
1.1990581 0.15143803 -0.51906145
1.2001345 0.133362 -0.51678133
1.1873314 0.13472036 -0.52421433
1.1741691 0.13303711 -0.51783311
1.167006 0.13744533 -0.51796252
1.1195331 0.13683501 -0.51521933
1.0954237 0.13604514 -0.52131397
1.0665454 0.12990397 -0.52123767
1.0847405 0.11983369 -0.52025527
1.0336579 0.12799861 -0.5123257
1.1857928 0.10944083 -0.5187037
1.1757119 0.11669224 -0.5148235
1.1058872 0.11331586 -0.51930815
1.0849477 0.11603481 -0.51311272
1.0408725 0.11187559 -0.51250196
1.0283539 0.11721995 -0.51153207
1.1218997 0.10366043 -0.51497787
1.0801895 0.10938555 -0.51075977
1.0697292 0.10743232 -0.51762831
1.0630178 0.10236133 -0.50881034
1.0602546 0.1042499 -0.51335514
1.0509676 0.10866346 -0.51613361
1.0459425 0.10330344 -0.5171088
1.0308876 0.10218132 -0.51422226
1.1373683 0.098892801 -0.51427871
1.0736325 0.10082124 -0.51318777
1.0491619 0.094819486 -0.51160318
1.0458871 0.098100953 -0.51543313
1.0357307 0.10070967 -0.51187027
1.0516007 0.089867219 -0.50982326
1.0379103 0.087183252 -0.50922567
1.0296779 0.088584371 -0.50949484
1.1973815 0.21332517 -0.54255342
1.2120337 0.16782404 -0.53127903
1.1755232 0.15836719 -0.53095031
1.2103697 0.15434004 -0.52809942
1.172837 0.15148851 -0.53518444
1.1352439 0.15093228 -0.53227472
1.083837 0.15210275 -0.53427124
1.0695704 0.14730462 -0.52853698
1.0289605 0.15356283 -0.5316093
1.0264151 0.14966917 -0.53086197
1.2049634 0.13770334 -0.53476685
1.1143713 0.13823918 -0.53022611
1.0860338 0.14456904 -0.52720678
1.048895 0.14492267 -0.52757162
1.0257363 0.13804445 -0.52499324
1.1944519 0.13529781 -0.52707958
1.1890731 0.1338616 -0.52913958
1.0370157 0.13022751 -0.52808994
1.1808746 0.11870736 -0.53016591
1.1689042 0.12033641 -0.52968943
1.103792 0.12164218 -0.52812254
1.0910243 0.12062935 -0.52897221
1.069877 0.1239722 -0.5239957
1.0328676 0.12191315 -0.52519751
1.1984061 0.11488403 -0.52874029
1.1695987 0.11702214 -0.52578908
1.0807595 0.1144209 -0.52806246
1.0549487 0.11489268 -0.52287269
1.0522883 0.11250438 -0.51981783
1.0355115 0.11693232 -0.52040225
1.0872864 0.10091754 -0.51838648
1.0805995 0.10441367 -0.52096981
1.043352 0.099881381 -0.52450764
1.0400187 0.10557815 -0.52547342
1.101007 0.097587168 -0.52641457
1.069741 0.09840811 -0.52324891
1.0644562 0.092219725 -0.52173799
1.0456752 0.092884123 -0.52124846
1.0384183 0.09841264 -0.52170599
1.0233777 0.09918052 -0.51710546
1.2151985 0.15868139 -0.54608488
1.1913648 0.15859833 -0.54282892
1.0933512 0.15542802 -0.54431564
1.1147246 0.14669424 -0.53549957
1.1075463 0.15295981 -0.54240656
1.0957141 0.14686392 -0.53564572
1.0890485 0.15263355 -0.54364276
1.0793095 0.1499691 -0.5360899
1.0584518 0.14718831 -0.53590304
1.0431801 0.1493492 -0.53856164
1.1911465 0.13892432 -0.54249579
1.1699405 0.1417228 -0.53634554
1.1678431 0.13539305 -0.54245657
1.1334255 0.13844334 -0.54163021
1.0356324 0.13930619 -0.53413105
1.0240099 0.13647628 -0.53988141
1.0836816 0.13197903 -0.53617066
1.0663943 0.1336464 -0.53700852
1.0465727 0.13249314 -0.53642136
1.1995569 0.12106667 -0.54143417
1.1898459 0.11915758 -0.53509772
1.1791155 0.12270658 -0.53580707
1.0875188 0.12568426 -0.53457856
1.065568 0.12103751 -0.53393972
1.0419357 0.12528658 -0.53637123
1.0266129 0.12339669 -0.53194416
1.0647943 0.10833138 -0.53026396
1.086625 0.10521353 -0.53663045
1.0803025 0.10508063 -0.52820683
1.052368 0.1015235 -0.52988249
1.0330228 0.10495961 -0.53091079
1.0369081 0.091937669 -0.53464592
1.2036455 0.21806151 -0.55890226
1.1883113 0.18154213 -0.55834264
1.1784574 0.16264465 -0.54933339
1.1782626 0.15608308 -0.55228257
1.0263586 0.15533978 -0.54926229
1.2097921 0.14204469 -0.55275226
1.1867944 0.14258336 -0.55078483
1.0840037 0.14487204 -0.55222958
1.063161 0.14557996 -0.54960942
1.0437475 0.1447448 -0.54718673
1.1910337 0.13862097 -0.54761523
1.105751 0.14063004 -0.55164278
1.0775256 0.13771778 -0.54526734
1.0650849 0.1420823 -0.54832196
1.0333332 0.13973486 -0.54972434
1.1758276 0.1247576 -0.54527903
1.0971007 0.12522388 -0.54483163
1.0727339 0.12908635 -0.54999399
1.0354578 0.12690754 -0.54359633
1.1855073 0.1223224 -0.54840153
1.176941 0.11672751 -0.54296523
1.1060356 0.123197 -0.54357648
1.0813291 0.11938901 -0.54513466
1.0741048 0.12432741 -0.54655188
1.0660027 0.12280201 -0.54689193
1.0321043 0.12194404 -0.54067588
1.0626401 0.11139081 -0.54731995
1.0398319 0.10915937 -0.54360437
1.0692965 0.10450413 -0.5456596
1.0621423 0.10608555 -0.54208028
1.0596161 0.10220925 -0.53722072
1.0306356 0.093323797 -0.5415433
1.2099096 0.22279784 -0.5752511
1.1991104 0.20217 -0.5667969
1.188682 0.17677312 -0.56210846
1.1976774 0.16337144 -0.55930477
1.1962843 0.1648812 -0.56198823
1.0356201 0.15857685 -0.55904019
1.1949615 0.14312828 -0.56077731
1.1728747 0.14600027 -0.55472863
1.0426563 0.14299345 -0.55956715
1.0341917 0.14335436 -0.55263644
1.1732686 0.13998765 -0.55955458
1.0857515 0.13859098 -0.55294621
1.2043036 0.12473532 -0.55997598
1.1962079 0.12396803 -0.55170244
1.1827511 0.12917876 -0.56086856
1.1672921 0.12935591 -0.5601238
1.1316071 0.12595437 -0.55098569
1.0941545 0.12561873 -0.55327779
1.0757419 0.12546647 -0.55444479
1.0406797 0.1312916 -0.55623323
1.1853707 0.12197594 -0.55284745
1.1824089 0.12135802 -0.56019706
1.0479147 0.11511344 -0.55665421
1.0404618 0.1239043 -0.55013782
1.1712211 0.10944419 -0.5535326
1.1226215 0.11008758 -0.55789006
1.0993537 0.10958391 -0.55321538
1.0825577 0.11060743 -0.55491275
1.078504 0.1098998 -0.5522837
1.0702697 0.11007787 -0.55540389
1.0642189 0.11055072 -0.55606937
1.05448 0.10788625 -0.54851651
1.0304115 0.1103146 -0.5509901
1.0395427 0.096859284 -0.55327719
1.1945752 0.18627846 -0.57469153
1.2039901 0.1681446 -0.57578063
1.2051557 0.16522811 -0.57051271
1.1836879 0.16067764 -0.56938064
1.1924173 0.14526296 -0.5677194
1.1004107 0.14529037 -0.56356406
1.0809056 0.1445125 -0.5622074
1.0519794 0.14625207 -0.56941003
1.0796531 0.13280588 -0.56130576
1.2013072 0.12888543 -0.56772417
1.1060392 0.12873924 -0.5624907
1.0884424 0.1285021 -0.56272376
1.0818532 0.12671751 -0.56169182
1.0501482 0.12889755 -0.56280941
1.0308254 0.12949863 -0.56152469
1.1297886 0.1134654 -0.56034124
1.1109478 0.11337838 -0.56144053
1.1072975 0.11708891 -0.56442547
1.0923592 0.11328896 -0.56251401
1.0716099 0.11495119 -0.55913645
1.1927266 0.11192921 -0.56087911
1.1076217 0.10867837 -0.5625664
1.0382206 0.11180323 -0.56075823
1.0593042 0.097578369 -0.55652303
1.2053744 0.20690633 -0.58314574
1.1941074 0.1813677 -0.57920659
1.1992418 0.16919252 -0.58051664
1.1996061 0.15042618 -0.580432
1.0758088 0.1440137 -0.5779776
1.2092147 0.12974934 -0.57740515
1.2023263 0.12344223 -0.57080793
1.1873313 0.12673528 -0.5713231
1.0824779 0.1291261 -0.57859659
1.0592337 0.13046539 -0.56995612
1.1781445 0.11386536 -0.5691222
1.0859882 0.11503915 -0.57192773
1.0783665 0.11499126 -0.57048416
1.0665807 0.11446615 -0.5705145
1.0470588 0.11665687 -0.57452279
1.0353149 0.098185651 -0.56977379
1.200186 0.18848851 -0.59367245
1.1891134 0.16527221 -0.58647865
1.194285 0.15027806 -0.58526057
1.1840113 0.14959833 -0.58502656
1.2083848 0.13084915 -0.58654392
1.2030255 0.13333797 -0.5858171
1.1931374 0.13073033 -0.58496451
1.1892921 0.13149463 -0.58979875
1.1762956 0.13602987 -0.58344728
1.1788726 0.11887115 -0.58354348
1.1872356 0.11479205 -0.58518684
1.037846 0.11660764 -0.57760596
1.045005 0.10062131 -0.57820731
1.188489 0.2310521 -0.60477519
1.1977273 0.21353644 -0.60607105
1.2021992 0.17350379 -0.5990451
1.1963042 0.17512327 -0.59893495
1.1808207 0.17377639 -0.60066384
1.1945388 0.16986683 -0.60357672
1.2057325 0.15690275 -0.60021234
1.1899233 0.15530017 -0.60113144
1.2025914 0.1515362 -0.59734029
1.1841195 0.14917678 -0.59375077
1.1831669 0.14041771 -0.59891927
1.1935587 0.12160759 -0.59683913
1.1946579 0.23571648 -0.62087566
1.2179024 0.21637899 -0.61584342
1.2049583 0.19055679 -0.61340266
1.1932269 0.19776654 -0.61390525
1.2012832 0.17790441 -0.61377788
1.1965724 0.15672779 -0.60448301
1.1895449 0.15377134 -0.61084878
1.1820978 0.15491065 -0.60803461
1.2060065 0.1376836 -0.60449302
1.2001907 0.13870615 -0.604877
1.1941025 0.13559413 -0.60576016
1.1785952 0.12521979 -0.60711062
1.2133672 0.20048749 -0.62373799
1.2195277 0.17814928 -0.62404311
1.2051568 0.17781509 -0.6175735
1.1999643 0.17446136 -0.62067473
1.2120451 0.16167584 -0.61668819
1.1995299 0.16103908 -0.62301141
1.2064065 0.15574017 -0.61562175
1.1946765 0.15957344 -0.61883491
1.1900381 0.14480554 -0.61439127
1.2014111 0.13804056 -0.61566079
1.1952833 0.12565979 -0.61547166
1.2008266 0.24038085 -0.63697606
1.2101593 0.22293656 -0.63851845
1.2103838 0.19515136 -0.63050073
1.2084732 0.18336117 -0.63386726
1.2141641 0.16164398 -0.63065785
1.1949703 0.15836591 -0.62794691
1.1840434 0.15963304 -0.62636685
1.2082311 0.14384502 -0.62390655
1.1969092 0.14919336 -0.62986326
1.2007673 0.13913827 -0.62152749
1.1932135 0.14101332 -0.62675005
1.21705 0.12706965 -0.62613928
1.1854664 0.12960762 -0.62258261
1.2069954 0.24504519 -0.65307647
1.2196313 0.20522383 -0.64008689
1.2158091 0.19974592 -0.6475988
1.2053896 0.17905593 -0.6377728
1.2042971 0.16870441 -0.6395272
1.2102214 0.15994412 -0.63390321
1.2016624 0.16388401 -0.64076668
1.2137874 0.15043402 -0.6411199
1.2088006 0.14513862 -0.6372726
1.2045822 0.14334226 -0.63980895
1.1899763 0.14227048 -0.63521892
1.205838 0.13155007 -0.63148034
1.1943909 0.13128597 -0.63279909
1.2033159 0.12511966 -0.62865007
1.1875503 0.1243683 -0.63198227
1.2025293 0.22939515 -0.66085118
1.2150961 0.18933225 -0.64798146
1.2110718 0.1864377 -0.65463042
1.2252822 0.18158373 -0.64892983
1.2095041 0.18449578 -0.64767891
1.1888351 0.17223334 -0.64854592
1.2189548 0.16595107 -0.64850128
1.2140365 0.16414809 -0.65218467
1.2003956 0.16296047 -0.64504486
1.1968606 0.14857435 -0.64697772
1.1951742 0.1457727 -0.6452257
1.2234119 0.1318801 -0.642744
1.2127614 0.13597122 -0.64706993
1.2062968 0.12946528 -0.64732599
1.2011899 0.12768683 -0.64480102
1.1849823 0.12617502 -0.64249098
1.2131643 0.24970958 -0.66917694
1.2118752 0.21186675 -0.66257632
1.2212346 0.20434055 -0.66469681
1.2213602 0.19406858 -0.6643303
1.2142571 0.18876906 -0.66538233
1.2202491 0.16536236 -0.65625876
1.2080029 0.1715512 -0.65797216
1.202798 0.16717707 -0.65846914
1.2201002 0.15520713 -0.65759575
1.2135911 0.1494457 -0.65511608
1.2083972 0.14754623 -0.65809041
1.1904008 0.1558426 -0.65175432
1.1954017 0.14686503 -0.65231705
1.1948069 0.13612518 -0.65077907
1.1895111 0.12912765 -0.65045792
1.2086982 0.23405948 -0.67695159
1.2307501 0.18621421 -0.66616154
1.2140293 0.19074899 -0.67315888
1.2178515 0.16835204 -0.67046618
1.2089357 0.17239325 -0.67194521
1.1972206 0.16019759 -0.66711056
1.2150828 0.14993072 -0.66205424
1.1971349 0.15053202 -0.66370136
1.2297741 0.13669056 -0.65934867
1.2196847 0.14039242 -0.66265953
1.2097274 0.13901472 -0.66469127
1.2080125 0.13281253 -0.664033
1.2027581 0.1309443 -0.66399616
1.1904078 0.13076958 -0.65958905
1.205569 0.25591749 -0.69110996
1.2042319 0.21840945 -0.68472618
1.22666 0.20893511 -0.68179488
1.2362181 0.19084473 -0.68339336
1.2190104 0.19304232 -0.68308586
1.1952715 0.1816864 -0.68048835
1.2084025 0.17397299 -0.67859674
1.2038167 0.17613173 -0.67759478
1.2257171 0.16999286 -0.67349058
1.21229 0.16228557 -0.68011951
1.2179307 0.15506601 -0.67919666
1.2036142 0.15601744 -0.67850804
1.2272934 0.14948717 -0.67109418
1.2148669 0.23872387 -0.69305193
1.2135907 0.20079698 -0.68663418
1.2169868 0.19506031 -0.69168735
1.2230891 0.18291339 -0.68857372
1.231185 0.17462339 -0.69072229
1.2216665 0.17255607 -0.68874764
1.2136889 0.17666648 -0.68964863
1.2040403 0.1645526 -0.68246669
1.2206839 0.15377156 -0.68081951
1.1990956 0.15529136 -0.68217701
1.2218424 0.1439653 -0.68202758
1.2129509 0.14715895 -0.68447053
1.1907679 0.14729525 -0.67954767
1.2248728 0.1419495 -0.67881966
1.214361 0.13571805 -0.68214816
1.2103834 0.13731989 -0.68383294
1.2116914 0.26054668 -0.70708895
1.2210358 0.24338822 -0.70915234
1.2104008 0.22307384 -0.70082664
1.2320855 0.21352966 -0.69889295
1.2217852 0.20140633 -0.70182353
1.2020406 0.18600911 -0.69573063
1.2090398 0.17749 -0.69627285
1.2209117 0.15941162 -0.69787258
1.2083672 0.16029072 -0.69621152
1.2286452 0.15606333 -0.6937862
1.2165695 0.22773817 -0.71692699
1.2375109 0.21812421 -0.71599102
1.2270914 0.19743422 -0.70616502
1.2199442 0.19937158 -0.71021581
1.2088097 0.19033179 -0.71097285
1.2366529 0.17925388 -0.70795411
1.2238762 0.17963067 -0.70968443
1.2184418 0.18093976 -0.70735216
1.2254815 0.17676 -0.7070291
1.20459 0.16925719 -0.70230252
1.1975368 0.1710369 -0.70380032
1.2349839 0.15796202 -0.70794815
1.2010562 0.16005075 -0.7006526
1.2140188 0.15113038 -0.70436293
1.1960549 0.15064278 -0.70471907
1.1749698 0.15597227 -0.70687854
1.2211188 0.1421807 -0.70538026
1.2152399 0.1425021 -0.7033537
1.2104841 0.14128029 -0.70160985
1.2020876 0.14225385 -0.70431328
1.1749454 0.13552941 -0.69620001
1.2041684 0.2666266 -0.72857219
1.2133811 0.24964389 -0.730784
1.2138342 0.20345713 -0.7236262
1.2121034 0.21208814 -0.72470164
1.2325169 0.20202878 -0.72326314
1.2014683 0.19177371 -0.71637589
1.2298954 0.17677286 -0.72065526
1.2143174 0.1825956 -0.71565366
1.2043059 0.17535958 -0.7190426
1.210806 0.17395726 -0.71852624
1.2316197 0.16303256 -0.71528304
1.2238926 0.16375723 -0.7165485
1.2162619 0.16201741 -0.71538651
1.2257177 0.15177725 -0.71533448
1.1930329 0.15606463 -0.71187001
1.2225996 0.14586155 -0.71526122
1.1837909 0.13928187 -0.70868909
1.2227384 0.23240256 -0.7330274
1.2229018 0.20368287 -0.72874421
1.2155789 0.19465446 -0.72621506
1.2076371 0.1964381 -0.73247629
1.227523 0.18593332 -0.73053521
1.2245238 0.18482038 -0.72668082
1.2292964 0.18096396 -0.72531068
1.2388293 0.16219944 -0.7263751
1.2265866 0.14681119 -0.72261202
1.2182209 0.14684771 -0.72202963
1.1926365 0.14303435 -0.72117817
1.2440084 0.27303138 -0.74967897
1.2141366 0.22616509 -0.7435171
1.2182722 0.21675248 -0.74080199
1.2384089 0.20081061 -0.74370033
1.2185503 0.20769721 -0.74119228
1.2169753 0.19918096 -0.73831826
1.2260998 0.18280268 -0.74035597
1.2172749 0.18690686 -0.73418206
1.2110751 0.17968225 -0.73428476
1.203171 0.180788 -0.74025095
1.2370876 0.16766305 -0.73251486
1.2201446 0.16765094 -0.73357981
1.2178733 0.16883722 -0.73161834
1.2262735 0.15955254 -0.73172915
1.1896042 0.1615175 -0.73237449
1.2298681 0.14758071 -0.73390639
1.2014821 0.14678681 -0.73366719
1.240613 0.29459545 -0.76328892
1.2395422 0.25738132 -0.75745362
1.2380226 0.21013537 -0.75389957
1.209219 0.21031596 -0.75067794
1.2258593 0.20799421 -0.74727267
1.2138059 0.20110244 -0.74857676
1.2090524 0.20086718 -0.74706322
1.2329483 0.19052787 -0.74763322
1.2296294 0.18795964 -0.74442637
1.2375178 0.17054056 -0.74826872
1.210247 0.16590944 -0.74151957
1.2060212 0.15335482 -0.74505788
1.2320546 0.15144174 -0.73984379
1.1927336 0.14935017 -0.74408901
1.1822015 0.14769927 -0.74083412
1.1720924 0.14772816 -0.73746234
1.2361804 0.2790634 -0.77100492
1.2350762 0.24173129 -0.76522821
1.219479 0.23068933 -0.76035357
1.2244409 0.22141688 -0.75690252
1.2288585 0.21304244 -0.76252377
1.2339547 0.20382741 -0.75936317
1.2157716 0.20515804 -0.76219332
1.2476989 0.19179341 -0.75556213
1.2202325 0.1912182 -0.75271058
1.2349455 0.18655518 -0.75284505
1.2232381 0.18335745 -0.75097364
1.2045816 0.18600516 -0.75507355
1.2279543 0.17443244 -0.75490534
1.2226264 0.17311053 -0.74932182
1.2146057 0.17444214 -0.75814843
1.2301414 0.1669527 -0.75145364
1.2415209 0.15978737 -0.74836802
1.2317646 0.15363032 -0.75358438
1.2173049 0.15673469 -0.75588465
1.2288287 0.15044546 -0.75340557
1.2137032 0.15099081 -0.75079823
1.2457111 0.26204571 -0.77355397
1.2446711 0.22429736 -0.76775265
1.2288167 0.2123055 -0.76580107
1.2452632 0.19228594 -0.76172316
1.2376502 0.19224721 -0.76330245
1.2294543 0.18805751 -0.76719737
1.211301 0.19029599 -0.77020365
1.2423353 0.17528811 -0.76217687
1.2395099 0.1753757 -0.76703876
1.2312872 0.17276999 -0.76777935
1.2001109 0.17114311 -0.76308388
1.2419465 0.1647394 -0.76676726
1.2362634 0.15436189 -0.75733536
1.2241832 0.15553892 -0.75938141
1.1889209 0.15199013 -0.75596416
1.2192277 0.30159792 -0.78935635
1.2412449 0.24639565 -0.78132874
1.2248213 0.23521359 -0.77718997
1.2428937 0.23011678 -0.78553599
1.2471601 0.21495873 -0.78028983
1.234242 0.21760157 -0.77949005
1.2279828 0.21617743 -0.77632439
1.2401707 0.20852746 -0.77558684
1.2094617 0.21096608 -0.77965367
1.2374542 0.19803283 -0.77816582
1.2080861 0.19732985 -0.77532506
1.2407415 0.19357586 -0.78015512
1.218626 0.19461316 -0.77894235
1.2333798 0.17902701 -0.77200341
1.2328358 0.17679408 -0.77257615
1.2249538 0.17228764 -0.77503145
1.2188803 0.17459999 -0.76887602
1.2429904 0.16070274 -0.77430737
1.2337565 0.1584655 -0.7723543
1.2220579 0.16100796 -0.77358812
1.2284936 0.15499721 -0.7714327
1.2142375 0.15181762 -0.76664197
1.2088364 0.15406042 -0.76566648
1.2252589 0.30615836 -0.80509806
1.2148609 0.28629649 -0.79695785
1.2378703 0.26816061 -0.79469991
1.2367787 0.23074558 -0.78910333
1.2475288 0.2186819 -0.78930646
1.2183425 0.21434934 -0.78888434
1.2572801 0.20040755 -0.79124904
1.2426437 0.19888315 -0.78380018
1.2317811 0.19881865 -0.78417158
1.2216774 0.19478114 -0.78855217
1.2180202 0.19458684 -0.78533369
1.2524089 0.1803712 -0.7857269
1.2443138 0.17990303 -0.78291452
1.2084377 0.17794693 -0.78190458
1.2503654 0.17491171 -0.78165609
1.2423722 0.16969144 -0.78516656
1.2068303 0.17543393 -0.77821392
1.2271641 0.15988454 -0.77805734
1.2156055 0.1583831 -0.78090876
1.203078 0.16280863 -0.78466028
1.2208924 0.29085696 -0.81269956
1.2334378 0.25262859 -0.80241597
1.2159605 0.24131976 -0.79874116
1.2429476 0.23540996 -0.80520374
1.2390487 0.23564854 -0.80438215
1.2252463 0.22388873 -0.8011871
1.2501411 0.21930435 -0.79896575
1.2394797 0.21606407 -0.79455054
1.2323124 0.21509555 -0.79687798
1.2492471 0.20195626 -0.79926318
1.2600484 0.20061305 -0.80054414
1.2445564 0.19777983 -0.79843658
1.2149523 0.20039597 -0.79783523
1.2519165 0.18390225 -0.79786378
1.2311698 0.17698771 -0.79125518
1.2158886 0.18124986 -0.7915926
1.2135496 0.17972477 -0.79334402
1.248458 0.16533321 -0.79153913
1.2203652 0.16526526 -0.79471874
1.2434006 0.16100353 -0.78873813
1.2046025 0.16369736 -0.79075658
1.2312905 0.31071877 -0.82083982
1.2165257 0.27555558 -0.82030094
1.2212623 0.24580964 -0.81544971
1.2522818 0.2229552 -0.80700994
1.2028235 0.21726182 -0.80279493
1.23467 0.20618933 -0.80367243
1.2278463 0.19944549 -0.80465257
1.2114711 0.20076212 -0.80561805
1.2543314 0.18356815 -0.80606914
1.2438622 0.18663111 -0.80538911
1.2239316 0.18425953 -0.80026847
1.2542108 0.17914915 -0.80008304
1.242798 0.17464346 -0.80356574
1.2112023 0.16635337 -0.80080211
1.2248838 0.15835337 -0.79871833
1.2269237 0.29541743 -0.82844126
1.2353005 0.24109647 -0.82294178
1.2305886 0.22841297 -0.8180235
1.2372764 0.22223148 -0.81589937
1.2094449 0.22149023 -0.81770486
1.2498051 0.20438759 -0.8173756
1.2469603 0.20657939 -0.8135727
1.22338 0.18379544 -0.81242722
1.2202688 0.18401566 -0.80847412
1.2119999 0.18802997 -0.81475949
1.2392367 0.17212072 -0.81347162
1.2643865 0.16443306 -0.80770922
1.2533541 0.16618255 -0.80639994
1.2310178 0.16770387 -0.80922407
1.2205175 0.17020684 -0.80928314
1.2485267 0.16241506 -0.80603582
1.223758 0.31633732 -0.8411597
1.2225569 0.28011605 -0.83604264
1.2121589 0.26025417 -0.82790244
1.2438982 0.2447437 -0.83508068
1.2408487 0.24878636 -0.82769912
1.2213528 0.24335192 -0.83084416
1.2421314 0.22889772 -0.82902253
1.2319342 0.22724074 -0.83183008
1.2446501 0.22442429 -0.82907879
1.2256711 0.21256387 -0.82518435
1.2199705 0.20973776 -0.82857955
1.2474506 0.20674042 -0.8231228
1.2340152 0.20410985 -0.82075298
1.2181411 0.20502152 -0.82063711
1.1992801 0.20808828 -0.82274622
1.2431897 0.19254804 -0.82032001
1.2350982 0.1947771 -0.82785469
1.2300256 0.19163594 -0.82668871
1.2202206 0.19011553 -0.81901056
1.2573363 0.18794855 -0.82489455
1.242732 0.18538189 -0.82262379
1.2292372 0.17390591 -0.82159454
1.2570421 0.16522419 -0.82073176
1.2328856 0.16591787 -0.81531304
1.2157981 0.1691536 -0.81648445
1.2329551 0.29997784 -0.84418291
1.2181903 0.26481462 -0.84364408
1.238289 0.23124394 -0.83738738
1.2160665 0.22571868 -0.83261478
1.2517134 0.21085262 -0.83127624
1.2382987 0.20999195 -0.83861637
1.2463919 0.19447681 -0.83783901
1.2292137 0.19112413 -0.82988125
1.2200692 0.19199365 -0.82798749
1.2137033 0.19026849 -0.82858872
1.2510947 0.17312634 -0.82898641
1.244662 0.17671525 -0.83056962
1.2383838 0.17247224 -0.8289665
1.2289852 0.17567423 -0.83072734
1.2370927 0.16877997 -0.82852954
1.222532 0.16475707 -0.82933742
1.2297449 0.3208642 -0.8567856
1.2389865 0.30453828 -0.85992461
1.2285885 0.28467646 -0.85178441
1.2379051 0.26795679 -0.85490477
1.2318659 0.25478938 -0.84886658
1.2274294 0.24794647 -0.84670359
1.2468476 0.23313788 -0.84658861
1.2377561 0.23000139 -0.84549958
1.2564665 0.2151259 -0.84897959
1.2495848 0.2150877 -0.84673274
1.2310134 0.2170881 -0.84202063
1.2504315 0.21108602 -0.84179872
1.2285681 0.21338499 -0.84071833
1.2116609 0.21107286 -0.84050858
1.2620882 0.19587308 -0.84253448
1.2390094 0.19839883 -0.84414005
1.2308382 0.19862291 -0.84253192
1.249818 0.19108796 -0.8399263
1.2456535 0.19188121 -0.84409255
1.2436494 0.18454753 -0.84036434
1.2410704 0.17810102 -0.8444019
1.23017 0.18368092 -0.83621764
1.2092652 0.17551544 -0.83654028
1.235732 0.32539105 -0.87241137
1.2346197 0.2892369 -0.86752611
1.2371677 0.25927925 -0.86557508
1.248654 0.25371599 -0.86536509
1.2335058 0.25254104 -0.86256301
1.2590841 0.23234114 -0.85499346
1.2491292 0.23453522 -0.85610777
1.2269857 0.2390607 -0.85597295
1.250821 0.21986678 -0.85457116
1.239686 0.21800661 -0.85865867
1.2323848 0.2152909 -0.85752195
1.2182823 0.21530129 -0.8554185
1.240787 0.21216297 -0.85709691
1.251145 0.19875009 -0.85554254
1.2461948 0.20113434 -0.85568368
1.2412759 0.2031177 -0.85034943
1.2072551 0.19642708 -0.84840232
1.2657467 0.19186139 -0.85536397
1.2500041 0.18743828 -0.85305077
1.2292248 0.18610448 -0.84779012
1.2276944 0.18919936 -0.85374761
1.2442003 0.17955513 -0.84682584
1.2355263 0.18336487 -0.85203695
1.2159353 0.17977481 -0.8515594
1.2523113 0.1716394 -0.84663695
1.2464644 0.17332719 -0.84872729
1.2393962 0.17044997 -0.84583426
1.2313975 0.3102023 -0.87995684
1.2302532 0.27393553 -0.87512755
1.2322874 0.2435506 -0.87268144
1.2515637 0.23737797 -0.8641547
1.2292081 0.23565039 -0.86632794
1.2534125 0.21543166 -0.86047459
1.2457631 0.22067948 -0.86499608
1.2709835 0.20808032 -0.86728001
1.25006 0.20660436 -0.86192143
1.2450712 0.20389001 -0.86472934
1.2633461 0.19670936 -0.86254543
1.2418866 0.19778854 -0.8607285
1.233978 0.20122996 -0.86393231
1.2138767 0.20065549 -0.86331224
1.2428048 0.187181 -0.86463457
1.2307487 0.18843085 -0.86231297
1.258973 0.17860295 -0.86065352
1.2515337 0.18001811 -0.86398417
1.2117658 0.18391702 -0.8558563
1.2281686 0.33086509 -0.89222264
1.2270629 0.29501352 -0.88750237
1.2568759 0.26235914 -0.87820828
1.2449174 0.25896052 -0.88323528
1.2258863 0.25863415 -0.88272899
1.2562798 0.24161805 -0.88172078
1.2453113 0.23995671 -0.87419152
1.2359312 0.23840395 -0.87734455
1.2620652 0.2366868 -0.87366933
1.2563937 0.21977726 -0.87915051
1.244823 0.22247326 -0.8742364
1.2406226 0.22295342 -0.87549162
1.244572 0.21633394 -0.87523496
1.2249039 0.21952973 -0.87032837
1.2558981 0.20302337 -0.87324589
1.245226 0.20463835 -0.87535661
1.246793 0.19307785 -0.87093401
1.2409099 0.18792404 -0.86900318
1.2226053 0.1840342 -0.86657846
1.2734743 0.17768055 -0.8646422
1.2447227 0.17718792 -0.86509258
1.207985 0.16987014 -0.86458242
1.2477062 0.33444482 -0.90366316
1.2373846 0.31472918 -0.8955828
1.2227284 0.27982473 -0.8950479
1.2622182 0.2668834 -0.89504468
1.2519583 0.24651001 -0.88536912
1.28079 0.23955998 -0.88914621
1.2351829 0.24171975 -0.88608074
1.2577267 0.23085652 -0.88593727
1.2509996 0.22536933 -0.88823265
1.2448212 0.22205913 -0.88071352
1.2419684 0.22619745 -0.8830179
1.2367808 0.21028748 -0.88285428
1.266351 0.20108977 -0.88137084
1.2514615 0.20438674 -0.87965864
1.2204983 0.20488393 -0.87822217
1.267694 0.19446 -0.87635505
1.2541771 0.19799381 -0.87746829
1.2390305 0.19296803 -0.88277262
1.2765034 0.18209639 -0.8836199
1.2613857 0.18567809 -0.88208097
1.2505764 0.18664756 -0.87980878
1.2404692 0.18973726 -0.87646008
1.2292755 0.18829364 -0.88159758
1.2865751 0.1791029 -0.87656337
1.2639079 0.17936483 -0.87974375
1.2557901 0.17820951 -0.87471288
1.238736 0.17782006 -0.88165581
1.215997 0.17380568 -0.87771654
1.2433715 0.31925607 -0.91120863
1.23305 0.2995404 -0.90312827
1.242316 0.28305644 -0.90661103
1.2319179 0.26319459 -0.8984707
1.2598436 0.24911734 -0.90025282
1.2468077 0.25080889 -0.90014255
1.2294209 0.24700299 -0.89772087
1.2425528 0.24263242 -0.89225447
1.2509403 0.22878604 -0.89300627
1.2453396 0.22913074 -0.89421606
1.2750728 0.22251508 -0.89467126
1.2483572 0.22050491 -0.89337295
1.2307835 0.22630396 -0.89373899
1.2457194 0.20912063 -0.89474452
1.2386255 0.2124382 -0.89184427
1.2269647 0.21167046 -0.89210045
1.2734375 0.20033628 -0.89221793
1.2643614 0.20005122 -0.8940779
1.2403833 0.20730606 -0.88866508
1.2705064 0.18893221 -0.89369589
1.2469608 0.19454922 -0.89044052
1.2523103 0.18303801 -0.89151853
1.2435893 0.18680283 -0.88460356
1.248073 0.17690057 -0.88580984
1.2400547 0.33985245 -0.92324513
1.239037 0.30406728 -0.9187541
1.2579534 0.28847757 -0.90859401
1.261875 0.26615435 -0.90717793
1.2379493 0.26775503 -0.91421241
1.2837949 0.24394037 -0.90797168
1.2476681 0.24711674 -0.90507829
1.2275511 0.24789321 -0.90607214
1.2537336 0.23558678 -0.90613765
1.2592151 0.23256473 -0.90560049
1.2395346 0.22961792 -0.90480113
1.2674462 0.22300366 -0.90812552
1.2471632 0.21606006 -0.9038986
1.2534535 0.2092219 -0.89842862
1.2473238 0.21263567 -0.90167534
1.242123 0.21481173 -0.89969069
1.2263842 0.21088815 -0.90139729
1.2731454 0.20353785 -0.90564984
1.269356 0.20547017 -0.90019625
1.2232108 0.19772294 -0.90076488
1.2663639 0.19509357 -0.8989619
1.2477001 0.19231172 -0.90374416
1.2359455 0.19255301 -0.8966167
1.2677534 0.18360221 -0.89817071
1.2589128 0.18354911 -0.90056235
1.2493585 0.32378292 -0.92683452
1.2632552 0.29296747 -0.92530251
1.2347023 0.2888785 -0.92629963
1.2530732 0.27274889 -0.91570044
1.2703538 0.26975125 -0.91914928
1.2642215 0.25728706 -0.9216001
1.2605991 0.25402418 -0.91749269
1.2508419 0.25158009 -0.92042291
1.2442693 0.25574195 -0.91679865
1.2335826 0.25245363 -0.92181385
1.2651936 0.23800744 -0.91465759
1.2780778 0.22689548 -0.91349667
1.23686 0.23089847 -0.90959841
1.2681892 0.21776545 -0.91030085
1.2620163 0.2175729 -0.91268593
1.2538521 0.22026816 -0.91225708
1.2504356 0.21336073 -0.9123106
1.2463192 0.21364643 -0.91317493
1.2772828 0.20457368 -0.91064495
1.2434164 0.19959074 -0.91091782
1.2872449 0.18585211 -0.9132117
1.2820945 0.18786141 -0.9087345
1.263639 0.18842524 -0.90572131
1.2602029 0.18914762 -0.90645766
1.2357644 0.19348523 -0.90491188
1.2528002 0.18351726 -0.9117046
1.2467217 0.18107095 -0.91015178
1.232021 0.18167669 -0.90398455
1.2158996 0.1820197 -0.90715253
1.2325376 0.34517995 -0.94253564
1.2553456 0.32830983 -0.94246042
1.245024 0.30859417 -0.93437999
1.2583749 0.27723879 -0.93240893
1.2439806 0.2723155 -0.92995417
1.2710084 0.24972363 -0.92969704
1.2670341 0.25608674 -0.92791486
1.2425445 0.25256351 -0.92625928
1.2728144 0.24114931 -0.92249686
1.2951161 0.23295343 -0.92555153
1.2572997 0.23675853 -0.92382038
1.2545843 0.23734108 -0.92255968
1.2456024 0.23545665 -0.92688459
1.2315967 0.23382516 -0.91929364
1.2609279 0.22436844 -0.91997242
1.2554454 0.21405709 -0.91719866
1.240363 0.2175692 -0.92295194
1.2723608 0.20985056 -0.91902167
1.2693624 0.21105817 -0.92541093
1.252358 0.20592266 -0.92477936
1.2717893 0.19968814 -0.91605991
1.264677 0.20162827 -0.91614407
1.2600826 0.19519407 -0.91521561
1.249692 0.19714689 -0.92251414
1.2825619 0.19092801 -0.92157525
1.2690866 0.1924524 -0.91740417
1.2404774 0.18854159 -0.92155141
1.2225809 0.18658589 -0.92175227
1.2541713 0.29859203 -0.94557428
1.2406894 0.29340541 -0.94192553
1.2663995 0.27486184 -0.936571
1.2755129 0.25968364 -0.93988621
1.2534947 0.26151007 -0.93951529
1.2555217 0.25578752 -0.93785352
1.2491183 0.25676149 -0.94106185
1.2396139 0.25701407 -0.93755555
1.2637142 0.24242222 -0.93668056
1.2625395 0.24124876 -0.93560082
1.2499722 0.24603853 -0.93614531
1.2653368 0.2328141 -0.93517816
1.2576621 0.22965151 -0.93706322
1.2381705 0.23802313 -0.93409622
1.2658192 0.22271788 -0.92882973
1.2533787 0.22612022 -0.93043643
1.2495824 0.22803378 -0.9283644
1.2781863 0.21434075 -0.93628371
1.2732089 0.21734533 -0.9334836
1.2537967 0.21793824 -0.92951524
1.265622 0.21060568 -0.93231273
1.2587715 0.20927835 -0.93176126
1.2457781 0.20930769 -0.93236053
1.2779703 0.19575725 -0.92835069
1.2648357 0.19946733 -0.93291909
1.2492853 0.2010718 -0.92665488
1.2280613 0.20006689 -0.92491496
1.291121 0.19012347 -0.93178624
1.2854064 0.18985929 -0.92735702
1.2608694 0.18748093 -0.9249326
1.2521054 0.18563008 -0.92711806
1.2422352 0.18927968 -0.93151981
1.2249302 0.18404917 -0.92382962
1.2384375 0.34964094 -0.9579342
1.2476382 0.33376247 -0.96175784
1.251011 0.31312108 -0.95000589
1.2636769 0.28172868 -0.9491173
1.2625582 0.27989548 -0.95372891
1.250012 0.27687594 -0.94569582
1.2580006 0.25172284 -0.94812214
1.2810161 0.23926476 -0.94704574
1.2721931 0.24601912 -0.94865191
1.2466795 0.24400124 -0.94776022
1.2352471 0.24171269 -0.94515699
1.2906578 0.22978258 -0.94154608
1.2651483 0.23808965 -0.94093078
1.2470256 0.23311734 -0.94483405
1.2738432 0.22352102 -0.94206059
1.2587858 0.22730121 -0.94426525
1.2337966 0.22348279 -0.94193316
1.2820179 0.2112042 -0.9434669
1.2753658 0.21423095 -0.93784714
1.2663697 0.21446568 -0.94027585
1.2608956 0.20954449 -0.93683368
1.2478904 0.20801112 -0.94052428
1.2341378 0.20466146 -0.94077432
1.2834233 0.19858651 -0.9363544
1.2726191 0.19638737 -0.94187742
1.2544832 0.19768482 -0.93775147
1.2490151 0.19216341 -0.93360573
1.2400132 0.19267613 -0.93685359
1.2315516 0.18827757 -0.93873954
1.2443373 0.35410193 -0.9733327
1.2433354 0.31868505 -0.969248
1.259433 0.30304807 -0.96215671
1.2466764 0.29793227 -0.95755136
1.2560433 0.28143638 -0.96143758
1.271523 0.26486358 -0.957165
1.2587967 0.26599994 -0.95622367
1.2556921 0.26095945 -0.95586431
1.2455612 0.2614826 -0.95591617
1.2780735 0.24973457 -0.95090717
1.2577928 0.24678907 -0.95371735
1.2474321 0.25097021 -0.95245475
1.2678072 0.23178174 -0.95736194
1.2581503 0.22838449 -0.95019984
1.2544307 0.23486501 -0.95392859
1.2594293 0.22372742 -0.9547385
1.2446136 0.22467178 -0.94897556
1.2694371 0.21480966 -0.95059419
1.2550318 0.21335368 -0.95292962
1.2462038 0.21425973 -0.95075983
1.2751805 0.20115897 -0.94514769
1.2695887 0.20374064 -0.9506225
1.2425787 0.20715183 -0.94575566
1.2931802 0.19483002 -0.94864631
1.2696487 0.19718605 -0.94337213
1.2560567 0.19348325 -0.94338679
1.2489651 0.19387899 -0.94622552
1.2574891 0.19018926 -0.94408429
1.2297385 0.18924564 -0.94843262
1.2535813 0.33825612 -0.97726911
1.2791606 0.3064371 -0.97542787
1.2526634 0.30245918 -0.97317725
1.2709213 0.28344324 -0.96553677
1.2689786 0.28621852 -0.9658258
1.2799433 0.26843575 -0.96905386
1.2655654 0.26469249 -0.96537781
1.262266 0.26515743 -0.97066689
1.2769705 0.25841486 -0.96704888
1.279561 0.2493401 -0.96115315
1.2526172 0.24834523 -0.9635157
1.2412786 0.24627316 -0.9608987
1.2788912 0.23561554 -0.96296996
1.2629781 0.23825778 -0.96518886
1.254962 0.24387145 -0.96174586
1.2445049 0.2381338 -0.96108651
1.2374291 0.2401045 -0.95915556
1.2403704 0.22768077 -0.95673573
1.2841722 0.22284384 -0.96371859
1.2796634 0.2243897 -0.96176314
1.2628567 0.22003299 -0.95828217
1.2527286 0.22341385 -0.96418071
1.2906156 0.21485147 -0.95560575
1.2532327 0.21253537 -0.95736063
1.2402142 0.20925599 -0.95663381
1.2846777 0.20301804 -0.95522928
1.2725375 0.20402803 -0.96196038
1.2534866 0.19894218 -0.9612627
1.2393061 0.19506712 -0.95445108
1.2502372 0.35856295 -0.98873115
1.2629849 0.32217482 -0.98125762
1.2724729 0.30585867 -0.98531961
1.2742804 0.29070839 -0.98253423
1.2670627 0.28838623 -0.9823879
1.2620747 0.28599685 -0.97717929
1.2497463 0.27182788 -0.97626233
1.2344955 0.27483219 -0.9812535
1.2154117 0.27321839 -0.97620338
1.2501211 0.2655659 -0.97583234
1.2891507 0.25321293 -0.97259444
1.2735922 0.25454974 -0.9796173
1.2628839 0.25645393 -0.97304511
1.2231977 0.25910819 -0.97933501
1.259529 0.24994689 -0.97577
1.2773521 0.23595151 -0.96938872
1.2746962 0.2351166 -0.97034764
1.2490362 0.23454259 -0.97043651
1.2772248 0.22709309 -0.97132409
1.2600133 0.22767501 -0.97082019
1.2369119 0.23097175 -0.9685002
1.2865084 0.22040999 -0.97299671
1.2773561 0.21642639 -0.96551341
1.2732519 0.21901363 -0.96887565
1.260781 0.21716046 -0.97008395
1.2593039 0.20983231 -0.97152066
1.2462908 0.21385054 -0.97249323
1.2359966 0.21314047 -0.96457267
1.2831347 0.20055193 -0.97187859
1.2730641 0.20128055 -0.96992314
1.2447947 0.19673447 -0.96855932
1.2483151 0.19668624 -0.96452147
1.235815 0.19384019 -0.96429211
1.2561371 0.363024 -1.0041296
1.2459658 0.34359521 -0.99616688
1.2699567 0.3119601 -0.99532169
1.2681061 0.29055727 -0.99292099
1.2760099 0.27351314 -0.98599058
1.2694002 0.27497971 -0.98964065
1.257708 0.27069539 -0.98478073
1.2845771 0.26705867 -0.98711705
1.2688398 0.26935542 -0.98546946
1.2316246 0.26224315 -0.98971879
1.2449028 0.25621784 -0.98331511
1.2597262 0.2433798 -0.98175633
1.2449214 0.24956582 -0.98224467
1.2310987 0.24481362 -0.98249972
1.2252941 0.24578328 -0.97997832
1.285831 0.2395484 -0.98136014
1.2827063 0.2398195 -0.98125148
1.2551423 0.23496883 -0.98351753
1.2674638 0.22745849 -0.98029304
1.2777886 0.2214566 -0.98420328
1.2709424 0.22116905 -0.97901201
1.2558219 0.2156087 -0.97557551
1.2874717 0.20841312 -0.97450101
1.2831657 0.20665072 -0.98182309
1.2756585 0.20594688 -0.98102295
1.2684721 0.20998016 -0.97739512
1.2608291 0.20319574 -0.9751361
1.2536576 0.2012105 -0.98135787
1.2418915 0.19843474 -0.98015147
