# .PCD v0.7 - Point Cloud Data file format
VERSION 0.7
FIELDS x y z
SIZE 4 4 4
TYPE F F F
COUNT 1 1 1
WIDTH 1421
HEIGHT 1
VIEWPOINT 0 0 0 1 0 0 0
POINTS 1421
DATA ascii
-0.78774071 0.61157942 -2.5054653
-0.79217851 0.61056477 -2.5112674
-0.80194449 0.61186677 -2.5050521
-0.76017207 0.606677 -2.509918
-0.76726913 0.60071254 -2.5086052
-0.77397376 0.60425532 -2.5055981
-0.77855963 0.59843135 -2.5100088
-0.79341215 0.60695148 -2.5078516
-0.80732 0.60726261 -2.5054898
-0.81643569 0.60338497 -2.5084727
-0.83780074 0.60566568 -2.5071943
-0.7558347 0.59046185 -2.5078039
-0.77411538 0.589324 -2.5068815
-0.78391165 0.5946582 -2.5072634
-0.7919451 0.59856462 -2.5091741
-0.80533051 0.59869778 -2.5083399
-0.83210146 0.59896404 -2.5066712
-0.7541067 0.58332765 -2.5056734
-0.76523882 0.5798732 -2.5080998
-0.77031237 0.585944 -2.5083513
-0.77856481 0.58454812 -2.5008104
-0.78621238 0.59014487 -2.5004952
-0.79200977 0.58013958 -2.5064311
-0.8034029 0.5894587 -2.5062203
-0.80539525 0.58027261 -2.5055966
-0.76219732 0.5736053 -2.5004735
-0.7660464 0.57296985 -2.5075021
-0.7866658 0.5787642 -2.4994802
-0.74687231 0.56324303 -2.5027435
-0.75400651 0.5667944 -2.5022774
-0.76530355 0.5614481 -2.5053568
-0.77327454 0.5684725 -2.5001674
-0.78862852 0.57041776 -2.505743
-0.80545992 0.56184757 -2.5028536
-0.73136163 0.56044769 -2.4985068
-0.75756866 0.55672222 -2.5000861
-0.76777184 0.55292463 -2.4995885
-0.74146521 0.54820943 -2.5030789
-0.75247556 0.5498687 -2.4994597
-0.77127272 0.54841781 -2.5021224
-0.73084235 0.5424245 -2.495163
-0.82092005 0.67787683 -2.5287354
-0.82283449 0.65915728 -2.5215077
-0.83145344 0.6604116 -2.5246403
-0.87243795 0.66109145 -2.5236046
-0.81141222 0.64449543 -2.5246408
-0.81900615 0.64163303 -2.522769
-0.83012235 0.64405715 -2.5217702
-0.83528703 0.64095044 -2.5176947
-0.80493283 0.62826788 -2.5211229
-0.8110677 0.62628376 -2.5197709
-0.77282649 0.62335241 -2.5223336
-0.78769422 0.61989623 -2.515985
-0.81267095 0.62481153 -2.5174167
-0.76315802 0.61131865 -2.5149193
-0.77275342 0.61018068 -2.5163245
-0.7810505 0.60967183 -2.5143933
-0.78851539 0.61051351 -2.5167198
-0.83615577 0.60904151 -2.5137985
-0.7513482 0.60107946 -2.5187843
-0.78284442 0.59966099 -2.514411
-0.79302853 0.60518932 -2.5129685
-0.74876559 0.59272593 -2.513541
-0.75852931 0.59443545 -2.5145323
-0.76927894 0.59115291 -2.5142679
-0.77552485 0.59306455 -2.5112178
-0.77948529 0.59278959 -2.5178781
-0.74219525 0.58667672 -2.5105126
-0.7466653 0.58333391 -2.5175471
-0.75497144 0.58700526 -2.5133405
-0.77122396 0.58784842 -2.5164971
-0.77873063 0.58208483 -2.5142457
-0.79662329 0.58694863 -2.5148382
-0.75251889 0.57449651 -2.5153728
-0.76555324 0.57483852 -2.5160871
-0.78008252 0.57773685 -2.5090616
-0.80919963 0.57039022 -2.5145521
-0.73170573 0.56265426 -2.5142319
-0.73853266 0.56118178 -2.5070257
-0.74927199 0.56066924 -2.5137572
-0.76386797 0.56341028 -2.5121057
-0.77625352 0.56081551 -2.5108595
-0.77708977 0.5630042 -2.5097878
-0.74785811 0.55548936 -2.5073981
-0.75152808 0.55739212 -2.5109341
-0.76212418 0.55674142 -2.5092139
-0.76511937 0.55668533 -2.5093267
-0.74105728 0.54991364 -2.5056529
-0.86603087 0.68195552 -2.5391507
-0.8830511 0.68156815 -2.5340848
-0.83787686 0.67948711 -2.5320985
-0.8464095 0.67970335 -2.5337081
-0.84574008 0.66551554 -2.5292091
-0.8169136 0.66130018 -2.5304837
-0.75693548 0.64575696 -2.5329309
-0.78745741 0.64568341 -2.5338888
-0.79297942 0.64492404 -2.5274544
-0.80577916 0.64854622 -2.5338402
-0.81788743 0.64840353 -2.5272326
-0.86468792 0.64547294 -2.5320454
-0.74744815 0.63904613 -2.5324869
-0.78824764 0.64341587 -2.5273473
-0.80297476 0.64230716 -2.5277762
-0.75949001 0.63214886 -2.5289781
-0.77098066 0.62833011 -2.5299096
-0.77735525 0.63065636 -2.5285563
-0.78851694 0.62777388 -2.5265892
-0.79079825 0.63175684 -2.5253186
-0.80245221 0.629794 -2.5341241
-0.75486141 0.61526573 -2.5285907
-0.78579348 0.61597395 -2.5295849
-0.81517774 0.62410873 -2.5240302
-0.74986511 0.60861909 -2.532012
-0.76800483 0.60902834 -2.5266173
-0.785631 0.60851508 -2.5287766
-0.81134933 0.60658431 -2.5252917
-0.83765632 0.61273992 -2.5296884
-0.75023264 0.59838265 -2.5282032
-0.77490926 0.60298157 -2.5291762
-0.77943271 0.59820306 -2.5237427
-0.75261199 0.59380341 -2.5277209
-0.76627773 0.59246302 -2.5220063
-0.74660546 0.58415687 -2.5243142
-0.75970376 0.57941979 -2.5217817
-0.77303696 0.58023918 -2.5265088
-0.74335772 0.57317847 -2.5206778
-0.76198345 0.57569885 -2.5222659
-0.76757789 0.56978327 -2.5171533
-0.78007847 0.57390141 -2.5199873
-0.7409966 0.56355417 -2.5204275
-0.75587547 0.56157112 -2.522181
-0.75767022 0.56563437 -2.5253789
-0.72798061 0.55471039 -2.5222118
-0.73844916 0.55304116 -2.5213051
-0.74753708 0.55297518 -2.5157897
-0.76156211 0.55607796 -2.515707
-0.78322256 0.6696285 -2.5495052
-0.80199635 0.66908014 -2.5488923
-0.77112657 0.66670978 -2.5452468
-0.84300494 0.66879541 -2.5456231
-0.76136261 0.65933275 -2.5458226
-0.79754418 0.65872467 -2.5430365
-0.77159625 0.64362121 -2.53755
-0.78453076 0.64670342 -2.543678
-0.73043364 0.63963062 -2.5381169
-0.79339916 0.64101505 -2.54287
-0.80857664 0.6367296 -2.5425062
-0.76651633 0.62897825 -2.5371735
-0.78646457 0.62697309 -2.5387764
-0.74102145 0.61558264 -2.5368929
-0.75284171 0.61316073 -2.5421243
-0.7614693 0.61627674 -2.5372696
-0.7741105 0.61750853 -2.5332508
-0.79388881 0.61732328 -2.5330462
-0.7653082 0.61064911 -2.5382638
-0.74107158 0.59705424 -2.5338857
-0.75714433 0.59623861 -2.5351546
-0.77297413 0.59972441 -2.5353715
-0.73208088 0.58783853 -2.5390477
-0.7529065 0.58625853 -2.5305114
-0.76388305 0.59114879 -2.5321841
-0.76076013 0.58288234 -2.5309567
-0.7347616 0.57319486 -2.5331283
-0.73994917 0.57131505 -2.5350778
-0.74882358 0.56881398 -2.5303473
-0.76023698 0.57308364 -2.53284
-0.73165989 0.56416523 -2.5313051
-0.75535226 0.55923146 -2.5318258
-0.75769603 0.56304443 -2.5290861
-0.77177453 0.5643605 -2.5273387
-0.7463693 0.55318838 -2.5312068
-0.80389112 0.68268067 -2.5590267
-0.85800093 0.68720436 -2.5540235
-0.793859 0.6690464 -2.5534236
-0.80015856 0.67027831 -2.5523896
-0.81882751 0.66930223 -2.5532095
-0.83778244 0.66906667 -2.5505872
-0.77917379 0.65187645 -2.5492992
-0.78966755 0.65359259 -2.5553405
-0.802347 0.6526233 -2.549427
-0.82343888 0.65641469 -2.5520611
-0.76493394 0.64580339 -2.5549984
-0.746032 0.63110435 -2.5491498
-0.76674044 0.63144916 -2.5510149
-0.798127 0.6370641 -2.551357
-0.76383436 0.63057947 -2.5465589
-0.78058088 0.63036054 -2.5454016
-0.72359645 0.6188761 -2.5499129
-0.73697954 0.61871338 -2.5498025
-0.74241364 0.61317658 -2.5498011
-0.76018828 0.61251432 -2.5472147
-0.78937703 0.62089425 -2.5496464
-0.74718428 0.60748422 -2.5458741
-0.75244975 0.60924327 -2.5490234
-0.76985782 0.61169338 -2.5464549
-0.77823347 0.61184084 -2.5445845
-0.74193597 0.60232955 -2.5418744
-0.74894679 0.59704518 -2.5438244
-0.75654215 0.5944491 -2.5478709
-0.77369714 0.5966661 -2.5427532
-0.7907061 0.60159123 -2.5481999
-0.7174198 0.5875355 -2.5466745
-0.73730731 0.58544642 -2.5414872
-0.74810177 0.59225422 -2.5479271
-0.75833827 0.58930206 -2.5442841
-0.71620959 0.5742504 -2.5466762
-0.72627032 0.57863146 -2.538703
-0.75764179 0.57728088 -2.5412092
-0.7698096 0.57899642 -2.5434783
-0.727961 0.5711199 -2.5420966
-0.73267859 0.56856328 -2.5411
-0.72391897 0.55774587 -2.5427806
-0.74015665 0.55825174 -2.5436223
-0.748272 0.56493169 -2.5374401
-0.75380838 0.56059688 -2.5426822
-0.76353186 0.56305647 -2.5417562
-0.7371946 0.55363226 -2.5383811
-0.77967143 0.69111633 -2.5677819
-0.85540348 0.68927419 -2.5618505
-0.76913565 0.68415898 -2.5679817
-0.82277453 0.67733711 -2.5670695
-0.76378572 0.67001009 -2.5609338
-0.77467257 0.6731118 -2.5637491
-0.79385442 0.67347962 -2.5687532
-0.8316555 0.67151868 -2.5621946
-0.84024245 0.66993415 -2.5622635
-0.73599678 0.66329527 -2.5604775
-0.75097626 0.66079408 -2.5606439
-0.78094035 0.66654503 -2.5646222
-0.75222802 0.65600753 -2.5640409
-0.76013958 0.65194494 -2.5615895
-0.76697171 0.65094221 -2.5655191
-0.77062368 0.65535998 -2.5635433
-0.74820983 0.63838941 -2.5638363
-0.74965441 0.64472103 -2.5568447
-0.78872234 0.64151031 -2.5644352
-0.80403149 0.64032698 -2.5592287
-0.75836641 0.63568795 -2.5611854
-0.76657486 0.63760793 -2.5633371
-0.77521563 0.6351825 -2.5575438
-0.73399347 0.62135875 -2.5558479
-0.75756323 0.62172294 -2.5553236
-0.76287717 0.6296109 -2.555233
-0.7812587 0.62665117 -2.5575812
-0.75184226 0.61727655 -2.5600662
-0.77132803 0.617513 -2.5582681
-0.76730412 0.6053282 -2.5510173
-0.77047467 0.60529304 -2.5567014
-0.77711368 0.60894156 -2.5574145
-0.73879522 0.5952487 -2.5504518
-0.75538856 0.59533155 -2.5577006
-0.7674405 0.59984326 -2.5589933
-0.72949004 0.59094536 -2.5545962
-0.74168175 0.58794785 -2.5525041
-0.75266886 0.58657444 -2.5568151
-0.76238364 0.58520973 -2.5503976
-0.7637881 0.58997267 -2.5551269
-0.7351768 0.57732069 -2.5511029
-0.74464035 0.58207786 -2.5490863
-0.75294846 0.57815313 -2.5478761
-0.73538792 0.56655347 -2.5486426
-0.74895334 0.56598949 -2.546998
-0.73155838 0.55939293 -2.551754
-0.73940581 0.5582763 -2.5457342
-0.74919623 0.56035185 -2.5485637
-0.7701714 0.6943475 -2.5781991
-0.79542911 0.68662274 -2.5753548
-0.79643279 0.68786907 -2.579757
-0.85562468 0.68850136 -2.5735614
-0.76612252 0.67659545 -2.5779932
-0.78569829 0.68312609 -2.5729585
-0.76441813 0.66634548 -2.5715923
-0.77673393 0.67369902 -2.5723336
-0.80757564 0.66875565 -2.5719647
-0.81131423 0.67268014 -2.5692647
-0.7870065 0.65678358 -2.5713103
-0.80337203 0.66109532 -2.5741267
-0.81886005 0.66003865 -2.5689077
-0.76164699 0.64987969 -2.5704494
-0.78286761 0.65002346 -2.5749969
-0.78993744 0.65567577 -2.569484
-0.73414481 0.64262837 -2.5684958
-0.75882447 0.64383888 -2.5746834
-0.78281504 0.64132977 -2.5732272
-0.79544783 0.64027679 -2.5674355
-0.73874694 0.63437963 -2.5647173
-0.76304954 0.63471377 -2.5672307
-0.72322434 0.62526619 -2.572006
-0.73506099 0.62414497 -2.5664115
-0.76252604 0.61985606 -2.5631311
-0.76982474 0.62575924 -2.5713825
-0.78486526 0.62446511 -2.5662463
-0.73512852 0.61645174 -2.5653684
-0.73925596 0.60867774 -2.5651143
-0.74295193 0.60821569 -2.5658584
-0.7507723 0.60471761 -2.5617623
-0.75707263 0.6044122 -2.5624089
-0.7315101 0.59852397 -2.5660193
-0.74015599 0.59632456 -2.5623307
-0.74528158 0.60028708 -2.5599275
-0.75492513 0.59204662 -2.558542
-0.77290177 0.59177732 -2.5630088
-0.72802842 0.58556771 -2.5670736
-0.754722 0.58859599 -2.5657735
-0.73307192 0.57540548 -2.5596573
-0.73643887 0.57930958 -2.5635555
-0.75122774 0.57633126 -2.5586555
-0.72638422 0.56301033 -2.5624824
-0.74293268 0.56553829 -2.5640635
-0.75105149 0.56653512 -2.5578623
-0.78899789 0.69459373 -2.5870311
-0.8379032 0.69756752 -2.5904026
-0.75962341 0.68656838 -2.5888996
-0.77770275 0.68647182 -2.5878363
-0.82250297 0.68915761 -2.5829358
-0.77047735 0.67687631 -2.5885742
-0.776833 0.68006814 -2.5824678
-0.80120862 0.67460793 -2.5796535
-0.8027125 0.68186378 -2.589025
-0.76041675 0.67014867 -2.5856652
-0.76910377 0.66874194 -2.5786576
-0.76217043 0.6586358 -2.582665
-0.78585047 0.66050172 -2.5825355
-0.73599267 0.636801 -2.5780013
-0.75935864 0.63797837 -2.583447
-0.77034432 0.64236683 -2.578933
-0.78421056 0.64508128 -2.5810349
-0.74040055 0.62829411 -2.5814462
-0.72784334 0.61972702 -2.580936
-0.75397593 0.62333953 -2.5773749
-0.71780592 0.61665809 -2.5755184
-0.73780292 0.61338556 -2.5771527
-0.75355291 0.61524075 -2.5747054
-0.76911813 0.61228728 -2.5722921
-0.72226155 0.60050488 -2.5770392
-0.73091716 0.5987919 -2.574934
-0.73861414 0.60301328 -2.5763335
-0.7499271 0.6055876 -2.5771692
-0.72490084 0.59349966 -2.5719597
-0.72904229 0.58892655 -2.5763531
-0.73829168 0.59156036 -2.5687032
-0.74777853 0.59656668 -2.5743484
-0.72119528 0.58199322 -2.5734916
-0.72723043 0.58119953 -2.5702541
-0.74418706 0.58065116 -2.5742846
-0.75128287 0.58602828 -2.5723665
-0.7228182 0.57900584 -2.572011
-0.73356068 0.57465768 -2.5694163
-0.75634247 0.5704335 -2.5732393
-0.72324729 0.56374109 -2.5700314
-0.73349476 0.56264102 -2.5660489
-0.74736071 0.56979972 -2.5740786
-0.75086427 0.57061064 -2.5661759
-0.7616213 0.69783103 -2.592443
-0.79127008 0.69978774 -2.5922012
-0.76743436 0.68992847 -2.5945277
-0.77235401 0.68361306 -2.598947
-0.82930928 0.68369889 -2.5957167
-0.85042155 0.69177419 -2.5907664
-0.75757247 0.68007898 -2.5922372
-0.84650522 0.67384732 -2.5920568
-0.75684446 0.66657495 -2.5889969
-0.75352365 0.66232717 -2.592031
-0.76338941 0.65822732 -2.5906858
-0.77338004 0.65656626 -2.5926692
-0.78434545 0.65997458 -2.5872798
-0.74947476 0.64457512 -2.591825
-0.7694127 0.65105259 -2.587503
-0.73235267 0.64002037 -2.5939937
-0.75292802 0.63586926 -2.5881326
-0.75803506 0.64338881 -2.5845563
-0.76270229 0.64153701 -2.590024
-0.73925954 0.62955332 -2.5832562
-0.7463541 0.63033175 -2.5900111
-0.75711745 0.62803292 -2.583252
-0.76682639 0.63425374 -2.5855076
-0.77596253 0.62906694 -2.5911136
-0.78352869 0.63283801 -2.5862527
-0.69458914 0.61891687 -2.5906405
-0.70915169 0.61810338 -2.586293
-0.74918365 0.61872959 -2.5893662
-0.75712562 0.62280864 -2.587954
-0.71659625 0.61340499 -2.5893068
-0.73149282 0.61237526 -2.5833464
-0.73662639 0.61161518 -2.5832183
-0.74832445 0.60956359 -2.5865126
-0.76112276 0.61563325 -2.5871699
-0.7236194 0.60033965 -2.5852392
-0.72438848 0.58878726 -2.583066
-0.7299335 0.59553665 -2.5824759
-0.74318558 0.59489334 -2.5789621
-0.70778859 0.5804044 -2.5821135
-0.72527045 0.5785284 -2.5820856
-0.73150039 0.582416 -2.5798857
-0.74058127 0.58622909 -2.5794628
-0.74587834 0.58783567 -2.5769629
-0.72029173 0.5696885 -2.5836382
-0.72365099 0.57137442 -2.5771551
-0.7418294 0.57008374 -2.576757
-0.70700771 0.56547558 -2.5794232
-0.73672283 0.56869161 -2.5801826
-0.77553308 0.72100073 -2.6118302
-0.74745369 0.68022305 -2.6081026
-0.74902242 0.68356276 -2.6064811
-0.71365297 0.67356491 -2.6008544
-0.74757451 0.67231286 -2.6034997
-0.77361304 0.67619658 -2.6072757
-0.7778402 0.67959964 -2.6036282
-0.75954491 0.66178417 -2.5984209
-0.77732909 0.66207826 -2.6022112
-0.74597079 0.65835917 -2.6031375
-0.76714563 0.65558338 -2.5990074
-0.73766208 0.64950269 -2.596668
-0.7533946 0.64917439 -2.5975204
-0.75540954 0.64653707 -2.6003125
-0.7227391 0.63726091 -2.5969121
-0.73090124 0.63352966 -2.5970292
-0.72561747 0.62504041 -2.5974944
-0.73099393 0.6295684 -2.5986443
-0.73598582 0.63178837 -2.5976894
-0.72623831 0.61652136 -2.5966387
-0.72178769 0.60763317 -2.5982087
-0.73966414 0.607921 -2.5917733
-0.75492722 0.60619766 -2.5914741
-0.71254206 0.59845734 -2.591161
-0.72157526 0.59951293 -2.5962486
-0.73027903 0.60253751 -2.5949912
-0.73905474 0.59868789 -2.588073
-0.73262244 0.58783376 -2.5955846
-0.73732829 0.5913192 -2.5912068
-0.71910208 0.58359218 -2.5874503
-0.72907788 0.57825726 -2.5867631
-0.72013289 0.57451618 -2.5881128
-0.7341733 0.57515275 -2.5917428
-0.74366975 0.57306439 -2.5902946
-0.74852073 0.57474667 -2.593456
-0.71867192 0.56749666 -2.5839586
-0.76069015 0.72159499 -2.6166248
-0.70311224 0.70825851 -2.6166115
-0.79184914 0.71165609 -2.6150351
-0.74452126 0.7047981 -2.6209311
-0.75688869 0.70479548 -2.6184101
-0.76242507 0.70270967 -2.6205976
-0.77170408 0.70407939 -2.6136284
-0.7925061 0.70130295 -2.6167591
-0.79750794 0.70622957 -2.6206458
-0.69967192 0.6904763 -2.6177421
-0.75009531 0.69383204 -2.6158407
-0.76272762 0.69317818 -2.6141679
-0.76787502 0.68715811 -2.6154263
-0.77494186 0.68308342 -2.6178446
-0.7462005 0.67771655 -2.6175408
-0.75982124 0.67696452 -2.6124558
-0.76590627 0.67600191 -2.614336
-0.71930057 0.66009974 -2.6133037
-0.74359536 0.66268563 -2.6088223
-0.72720617 0.65451419 -2.6111917
-0.73649198 0.65668905 -2.6076469
-0.76966316 0.6598537 -2.6089995
-0.78133607 0.65045708 -2.6118391
-0.72871274 0.64323997 -2.6099861
-0.74033082 0.64660335 -2.6078055
-0.75644571 0.64471412 -2.6062644
-0.71783632 0.64034498 -2.6131244
-0.72254312 0.63750589 -2.6108017
-0.7392329 0.63239157 -2.6076999
-0.74795336 0.63899851 -2.6045821
-0.73082471 0.62571573 -2.6099625
-0.73752844 0.62821746 -2.6062002
-0.75215191 0.62602937 -2.6041825
-0.71788156 0.6184718 -2.6073413
-0.74046558 0.61448133 -2.6067259
-0.74420899 0.62185884 -2.6058159
-0.75312728 0.61897898 -2.6020474
-0.71373242 0.60532957 -2.6019409
-0.71540415 0.60525399 -2.5998871
-0.73355657 0.61128378 -2.6069469
-0.74867058 0.60937482 -2.6077144
-0.71535844 0.60347581 -2.5993435
-0.72843736 0.59843045 -2.601234
-0.74039263 0.5956074 -2.6040566
-0.7117942 0.58717424 -2.5992386
-0.7193532 0.59111637 -2.5989904
-0.72466308 0.58175147 -2.6030066
-0.74483728 0.58355963 -2.6017144
-0.69244307 0.57020241 -2.6006367
-0.71060306 0.57057607 -2.5999568
-0.72769481 0.71099925 -2.6244733
-0.74510229 0.70091373 -2.623502
-0.78117168 0.69849944 -2.6222277
-0.7897743 0.70410025 -2.6303382
-0.73667705 0.69447321 -2.6209135
-0.7961452 0.69587833 -2.62116
-0.71952713 0.67919135 -2.6275091
-0.77038509 0.68295121 -2.6195586
-0.73717195 0.67388403 -2.6224482
-0.74987662 0.67380172 -2.6202726
-0.75483888 0.66874343 -2.6204498
-0.76404601 0.67023659 -2.6172247
-0.71884793 0.65849054 -2.6249642
-0.73172969 0.66386896 -2.6243958
-0.74230552 0.66160107 -2.6192408
-0.76668239 0.66460538 -2.620225
-0.77102482 0.66527963 -2.6185753
-0.73552567 0.65805721 -2.6180997
-0.74548429 0.65439713 -2.6237655
-0.75342178 0.65774411 -2.6172585
-0.76213419 0.65873563 -2.6155787
-0.77159196 0.65742612 -2.6164038
-0.73141181 0.64048123 -2.6179345
-0.74927682 0.6400345 -2.6170919
-0.76297957 0.64625931 -2.6208913
-0.73157096 0.63528258 -2.6139326
-0.69941628 0.62422723 -2.6184857
-0.74513179 0.62232482 -2.616925
-0.74232805 0.61727893 -2.610975
-0.64046115 0.60239977 -2.6174927
-0.68406135 0.6113081 -2.6152716
-0.70514017 0.60859835 -2.6154444
-0.7118364 0.60502458 -2.6127887
-0.71562392 0.61076307 -2.6142077
-0.72717857 0.60765052 -2.6106184
-0.74098682 0.60461521 -2.6167586
-0.71179414 0.59335583 -2.6149223
-0.72585225 0.60218328 -2.6114399
-0.70855403 0.58648098 -2.6096308
-0.72522056 0.588269 -2.6123056
-0.73672026 0.58757961 -2.6082835
-0.71038824 0.58332503 -2.6077907
-0.72561282 0.57741618 -2.6084411
-0.71355551 0.5701732 -2.6049745
-0.73597121 0.70828176 -2.635175
-0.752442 0.70831501 -2.6347709
-0.76663291 0.70464861 -2.6348233
-0.78499275 0.70468086 -2.6328142
-0.73303711 0.69769275 -2.6369059
-0.73581791 0.6965301 -2.6331961
-0.75371635 0.69650924 -2.6324692
-0.78474528 0.70045501 -2.6313539
-0.75021714 0.6893549 -2.6362872
-0.76316303 0.68850279 -2.6336975
-0.7064724 0.67991602 -2.6324022
-0.73170418 0.67895412 -2.6330307
-0.74549282 0.6795361 -2.6350145
-0.78055382 0.68500125 -2.6332712
-0.71236753 0.67398661 -2.6279447
-0.75429404 0.66808063 -2.6299324
-0.7763623 0.66954744 -2.6351881
-0.71002477 0.66166246 -2.6335886
-0.72759044 0.66137779 -2.6328652
-0.73115277 0.64996016 -2.6261997
-0.75015867 0.65283352 -2.631824
-0.69114459 0.63899606 -2.6302671
-0.72715616 0.63877666 -2.6301761
-0.72469753 0.63657236 -2.6286051
-0.72966868 0.63076413 -2.62638
-0.73662472 0.63551909 -2.6233518
-0.70952195 0.62447393 -2.6241839
-0.73249727 0.61992192 -2.6262331
-0.73451579 0.62937009 -2.6226404
-0.71349955 0.61991549 -2.6203992
-0.73062086 0.61325455 -2.6243405
-0.66339308 0.60128856 -2.6251142
-0.67063659 0.6020453 -2.6216438
-0.68452328 0.60146803 -2.6199603
-0.70975214 0.60335493 -2.622159
-0.72402257 0.60192466 -2.6174774
-0.74221635 0.60369009 -2.6204801
-0.63958126 0.59504789 -2.6213722
-0.65555769 0.59632665 -2.619107
-0.67143059 0.59754837 -2.61782
-0.69840997 0.60089076 -2.6182764
-0.7266475 0.59802413 -2.6169021
-0.73240435 0.60044962 -2.6245451
-0.73851955 0.59719187 -2.6196194
-0.70019585 0.5904572 -2.6234033
-0.70638496 0.58823085 -2.6203456
-0.71907061 0.58775294 -2.6174386
-0.7368418 0.58690554 -2.6165922
-0.6715495 0.57852811 -2.6151166
-0.69553286 0.57344902 -2.6230133
-0.71617931 0.58053446 -2.619489
-0.72676641 0.57900387 -2.6141987
-0.71910155 0.69719076 -2.641902
-0.77523494 0.69932568 -2.6421309
-0.7033031 0.6839385 -2.6454654
-0.745377 0.68435711 -2.6428428
-0.67736524 0.6740979 -2.6463499
-0.72343516 0.6684466 -2.6400239
-0.7478199 0.66873819 -2.6380203
-0.7592274 0.66795683 -2.6361556
-0.67687672 0.65481758 -2.643414
-0.72661501 0.662902 -2.6403074
-0.74103755 0.65791655 -2.6401265
-0.69087029 0.65432143 -2.6415973
-0.72289789 0.64588702 -2.6415322
-0.73613405 0.64936382 -2.6379073
-0.74214357 0.65436584 -2.6345952
-0.75552464 0.649611 -2.6368217
-0.7721709 0.65409374 -2.637105
-0.68834579 0.64311838 -2.6371155
-0.72345555 0.64392936 -2.6357272
-0.67638814 0.63553721 -2.6404779
-0.69038171 0.63504112 -2.6386614
-0.73085058 0.63261187 -2.6387439
-0.73806375 0.63647795 -2.6343875
-0.71943438 0.62526834 -2.631305
-0.73276973 0.62244636 -2.6346374
-0.66190588 0.61675298 -2.639359
-0.67589951 0.61625689 -2.6375422
-0.73043466 0.60462987 -2.6309063
-0.66141725 0.59747273 -2.6364231
-0.67541093 0.59697646 -2.6346064
-0.68940455 0.59648037 -2.6327896
-0.69875127 0.59369713 -2.6289411
-0.7103492 0.59244853 -2.6304514
-0.71679175 0.5941869 -2.6280589
-0.63351882 0.58671629 -2.6354661
-0.70960051 0.58244127 -2.6327312
-0.71766651 0.58755338 -2.6302207
-0.66092867 0.57819223 -2.6334872
-0.67492241 0.5776962 -2.6316705
-0.69513285 0.57576919 -2.6295924
-0.71749836 0.57717991 -2.6273797
-0.72283107 0.58102351 -2.6277401
-0.63358653 0.56741142 -2.632592
-0.75917792 0.7080003 -2.6507537
-0.77018642 0.70250136 -2.6588252
-0.7005412 0.69678009 -2.652925
-0.71455973 0.69695771 -2.6517076
-0.74297512 0.69672835 -2.6497972
-0.80200446 0.70205188 -2.6507187
-0.72539371 0.68302345 -2.6554127
-0.74051815 0.68266535 -2.6514642
-0.75547516 0.68965435 -2.6514201
-0.77789283 0.68819219 -2.6492405
-0.64937782 0.67509019 -2.6499834
-0.70059335 0.67751467 -2.6497982
-0.71461189 0.677692 -2.6485813
-0.74039239 0.67823541 -2.6547019
-0.75617105 0.6752578 -2.6493018
-0.7106204 0.66306949 -2.6536765
-0.71971178 0.66519862 -2.6530228
-0.6445716 0.65753913 -2.6515398
-0.66288298 0.65531373 -2.6452305
-0.67260855 0.65789407 -2.6491058
-0.71812189 0.66014671 -2.6460056
-0.66327256 0.64573848 -2.6503346
-0.71554148 0.64712244 -2.6474655
-0.64840072 0.63652945 -2.6441116
-0.65864235 0.63845104 -2.6471961
-0.6623944 0.6360333 -2.6422949
-0.67266077 0.63862848 -2.6459789
-0.69126701 0.64457476 -2.6469405
-0.70479625 0.64242452 -2.6443779
-0.71054631 0.64389765 -2.6509647
-0.7294482 0.63998818 -2.6487405
-0.66272748 0.62649822 -2.6471691
-0.72151458 0.62786233 -2.6489584
-0.74712515 0.62847853 -2.6460514
-0.63391846 0.61774522 -2.6429925
-0.67672461 0.62591636 -2.645472
-0.68673146 0.61954033 -2.6416352
-0.69062835 0.62344992 -2.6423969
-0.70273441 0.62223518 -2.641248
-0.71047217 0.6247257 -2.6482534
-0.71836168 0.62180513 -2.6405563
-0.72536844 0.62210023 -2.6485329
-0.66218227 0.60725784 -2.6440034
-0.71636772 0.6126743 -2.6417227
-0.72467971 0.61124992 -2.6437874
-0.63230014 0.60706568 -2.6397474
-0.63342988 0.59846485 -2.6400564
-0.68678367 0.6002748 -2.6385086
-0.70357972 0.60326374 -2.6378806
-0.71039814 0.60555369 -2.6455419
-0.71574199 0.59884262 -2.6439381
-0.72368515 0.60288274 -2.6437855
-0.73651928 0.59908658 -2.6372313
-0.64742357 0.5979687 -2.6382399
-0.69146615 0.59697235 -2.6445091
-0.70028251 0.5960328 -2.6430597
-0.71396488 0.59517223 -2.6390729
-0.61784554 0.57990134 -2.6402023
-0.64277357 0.58385193 -2.6412187
-0.65673858 0.58385623 -2.6405528
-0.66858971 0.58688891 -2.6431746
-0.67563426 0.58743584 -2.6391404
-0.6825012 0.58671981 -2.64306
-0.69020301 0.58503884 -2.6365063
-0.69644558 0.58518827 -2.6402569
-0.70468801 0.58334374 -2.6353383
-0.71032399 0.58638167 -2.6428306
-0.71860141 0.58346361 -2.635107
-0.73814696 0.58604348 -2.642601
-0.63294131 0.57918441 -2.6371205
-0.63309759 0.56994122 -2.6410658
-0.64693505 0.57868838 -2.635304
-0.61817878 0.5640642 -2.6359034
-0.64709479 0.5693593 -2.6393688
-0.78471476 0.72300088 -2.6703556
-0.8007372 0.72293198 -2.6663938
-0.81700677 0.72286296 -2.6623762
-0.75994641 0.71049142 -2.6662054
-0.80781811 0.70988011 -2.6633708
-0.6977762 0.6980145 -2.6683028
-0.71188194 0.6975143 -2.6664715
-0.74802023 0.6930061 -2.6673508
-0.75602943 0.69268745 -2.6669359
-0.69479114 0.68929565 -2.6675234
-0.72306496 0.68957698 -2.665761
-0.71138948 0.67807961 -2.663512
-0.74748909 0.6787951 -2.6637657
-0.72167653 0.66600841 -2.6566374
-0.71089691 0.65864486 -2.6605527
-0.72500265 0.65814483 -2.6587214
-0.73659086 0.66143608 -2.656487
-0.6807909 0.65023613 -2.6626105
-0.70863956 0.64891225 -2.6578813
-0.72320163 0.65065795 -2.6599667
-0.73145723 0.64898145 -2.656425
-0.7104044 0.6392101 -2.6575933
-0.71857971 0.6338765 -2.6592109
-0.72451013 0.63871002 -2.655762
-0.73079407 0.63806796 -2.655071
-0.66612178 0.62956345 -2.6586685
-0.68085921 0.63077658 -2.6597133
-0.69381827 0.62871289 -2.6538134
-0.70839965 0.62967277 -2.6546683
-0.72730047 0.62662768 -2.6565344
-0.74436688 0.63461673 -2.6534188
-0.70991194 0.61977541 -2.654634
-0.72336167 0.61864352 -2.6550832
-0.74066412 0.6162709 -2.6540852
-0.66557366 0.61054403 -2.6551397
-0.69327015 0.60969341 -2.650285
-0.70711839 0.60926807 -2.6478577
-0.71394479 0.60958648 -2.6478865
-0.64961249 0.60467261 -2.6547904
-0.6967051 0.60291743 -2.6517744
-0.70982862 0.6016655 -2.6470354
-0.64458883 0.59666103 -2.6487691
-0.67887384 0.5910992 -2.6491838
-0.68099588 0.59185767 -2.6539192
-0.69279283 0.58884847 -2.6501038
-0.69513279 0.59199828 -2.653038
-0.70320028 0.59439421 -2.6469693
-0.71081167 0.59307164 -2.6496997
-0.65814424 0.57966411 -2.6513882
-0.67182648 0.57880372 -2.6474013
-0.71720868 0.58632445 -2.648118
-0.76871121 0.71764231 -2.6752014
-0.78876269 0.72483432 -2.6760452
-0.76485419 0.70059717 -2.6770129
-0.68065423 0.68915498 -2.6684048
-0.69212872 0.68271846 -2.6721637
-0.73452085 0.68325496 -2.6684833
-0.66907227 0.67957973 -2.6690059
-0.75211227 0.67488348 -2.6676662
-0.75864887 0.67673361 -2.6722007
-0.69578886 0.66515887 -2.6675305
-0.70981306 0.66527963 -2.6672974
-0.73621744 0.66467822 -2.6660814
-0.74306321 0.65806687 -2.6638067
-0.74819529 0.65707958 -2.6683969
-0.64984173 0.64334214 -2.6695406
-0.66013634 0.64972043 -2.6725338
-0.66665399 0.65009546 -2.6634917
-0.68239206 0.64793742 -2.6673281
-0.69223386 0.64387888 -2.6658602
-0.69590968 0.64583552 -2.6647842
-0.70636457 0.64405763 -2.6646335
-0.72322655 0.64623797 -2.6640773
-0.73462605 0.64441538 -2.6621799
-0.74234718 0.65112567 -2.6705141
-0.63405406 0.63823533 -2.6702578
-0.63987601 0.64171052 -2.6667495
-0.64773637 0.63737476 -2.666271
-0.65413064 0.63193887 -2.6698692
-0.71961296 0.63344419 -2.6667421
-0.72287357 0.63732934 -2.666275
-0.73691189 0.63796842 -2.6693492
-0.6494025 0.62815917 -2.6658006
-0.66204339 0.62724853 -2.6674817
-0.66735226 0.62845325 -2.6615496
-0.67815584 0.62428015 -2.6639354
-0.6820063 0.62639129 -2.662271
-0.7100547 0.62663293 -2.6618047
-0.722911 0.63068426 -2.661437
-0.72898799 0.62783718 -2.6600573
-0.73810297 0.62687457 -2.6613383
-0.74179471 0.63195479 -2.6669579
-0.75575316 0.63152611 -2.664511
-0.63296258 0.61928523 -2.6666257
-0.65348917 0.62177575 -2.6619587
-0.71047658 0.61983955 -2.6624367
-0.72177339 0.61822844 -2.6626141
-0.63851678 0.61089522 -2.6594601
-0.64596486 0.6112417 -2.6671832
-0.6540789 0.60682642 -2.6599908
-0.65998697 0.61107129 -2.6670678
-0.67820835 0.60486031 -2.6607835
-0.69615132 0.60718882 -2.6592915
-0.7113539 0.61269319 -2.663435
-0.72419959 0.60743058 -2.6588252
-0.61067963 0.60384125 -2.6644931
-0.6247853 0.60334116 -2.6626618
-0.71908438 0.59633493 -2.6602919
-0.56175733 0.59293985 -2.6651444
-0.631868 0.59208763 -2.664566
-0.63651681 0.58899403 -2.6631279
-0.66768229 0.59009379 -2.6593938
-0.70946836 0.59080386 -2.6566441
-0.75274408 0.59546924 -2.660743
-0.60889733 0.58447647 -2.6626496
-0.63077962 0.58138514 -2.6593618
-0.63586891 0.5849039 -2.6613126
-0.64446193 0.58052456 -2.655375
-0.66434294 0.58112109 -2.658164
-0.67826098 0.5854404 -2.6576319
-0.69239169 0.58561933 -2.6564052
-0.70652241 0.58579814 -2.6551785
-0.56168264 0.57361525 -2.6624112
-0.61037964 0.57169503 -2.6554282
-0.76433223 0.71060258 -2.6842544
-0.69685215 0.70075595 -2.6820631
-0.73225331 0.70223236 -2.6858263
-0.74315876 0.69531846 -2.6864309
-0.71637428 0.6876877 -2.6775372
-0.73107666 0.68507886 -2.6801322
-0.73686248 0.67801183 -2.6839476
-0.74550855 0.68463326 -2.6804817
-0.69188637 0.67365682 -2.6813896
-0.72897637 0.67555988 -2.6843987
-0.74322766 0.67570168 -2.6835103
-0.67423326 0.6688745 -2.6751513
-0.68825531 0.66870391 -2.6750355
-0.70227748 0.66853368 -2.6749201
-0.73032182 0.66819263 -2.6746886
-0.68651342 0.65284038 -2.6803014
-0.69822466 0.65268129 -2.6779745
-0.7130211 0.65209991 -2.6741924
-0.72838873 0.65155435 -2.672961
-0.67415851 0.64954996 -2.6724181
-0.68818069 0.64937943 -2.6723022
-0.69715828 0.64110065 -2.6801853
-0.73058444 0.64628053 -2.6778109
-0.68596113 0.63366961 -2.6767447
-0.69347465 0.63893974 -2.6799879
-0.72911412 0.63632613 -2.6785576
-0.65434039 0.62491685 -2.6781998
-0.67129505 0.62422019 -2.6751676
-0.67408389 0.63022536 -2.6696849
-0.70427251 0.62699687 -2.6733928
-0.70765907 0.62590379 -2.6763477
-0.72461683 0.63055587 -2.6743019
-0.68290424 0.61766458 -2.673929
-0.69539642 0.61686313 -2.6705971
-0.71537912 0.62024283 -2.6717083
-0.72501075 0.61822498 -2.6744437
-0.68021554 0.60733724 -2.6722763
-0.68803126 0.61073047 -2.6668365
-0.70205349 0.61056 -2.6667206
-0.71765381 0.60459554 -2.6730783
-0.65693939 0.59618515 -2.6745253
-0.66550845 0.60259688 -2.6750276
-0.67089784 0.59575659 -2.6720784
-0.67839247 0.60080004 -2.6700988
-0.69309086 0.60086226 -2.6669905
-0.70713836 0.59668756 -2.6666405
-0.74047583 0.59681505 -2.6658595
-0.64515269 0.58877909 -2.6660843
-0.66207498 0.58769578 -2.6672657
-0.67921478 0.58658767 -2.6684053
-0.73002309 0.59089446 -2.6637561
-0.58193588 0.57668871 -2.6688495
-0.59347671 0.58436728 -2.6649928
-0.62426358 0.574929 -2.663717
-0.62997377 0.57514524 -2.6626568
-0.68959391 0.70374477 -2.6913643
-0.67585802 0.6871233 -2.6912696
-0.70123744 0.68996203 -2.6916549
-0.71537387 0.69008374 -2.6914198
-0.65020967 0.67882729 -2.6915901
-0.65894997 0.67011869 -2.6895914
-0.68672264 0.67274845 -2.6880927
-0.69783741 0.6686216 -2.6905231
-0.7004739 0.67527628 -2.6861753
-0.71208245 0.66880196 -2.6892865
-0.71408474 0.67494577 -2.688467
-0.72632742 0.66898221 -2.6880496
-0.73130846 0.67428339 -2.6913619
-0.73315966 0.65966594 -2.6846139
-0.74230111 0.66749537 -2.6849401
-0.65859658 0.65369773 -2.685195
-0.67018819 0.65257812 -2.6868043
-0.67320818 0.65076232 -2.6865883
-0.68990362 0.6574775 -2.6874082
-0.70929945 0.65676361 -2.6914799
-0.72713172 0.65643811 -2.6911938
-0.73687077 0.65268284 -2.6839056
-0.74389029 0.65137136 -2.6854131
-0.66652662 0.64193153 -2.6840582
-0.69412023 0.64221746 -2.6883967
-0.71985495 0.64233744 -2.6870534
-0.73137403 0.64132863 -2.6838679
-0.73797405 0.64247692 -2.6854911
-0.61563659 0.63550246 -2.6873214
-0.63013452 0.63387907 -2.6852775
-0.64384621 0.63521546 -2.6839867
-0.65852576 0.63338995 -2.683527
-0.68196845 0.63498241 -2.6890526
-0.69596577 0.63379282 -2.6849113
-0.70061159 0.63604259 -2.6803343
-0.57823342 0.62272727 -2.6825733
-0.6165092 0.6278978 -2.6886613
-0.63072896 0.62739372 -2.6868153
-0.63412589 0.62742937 -2.6885047
-0.65281749 0.62256515 -2.6827068
-0.66217864 0.62494254 -2.6829619
-0.67142612 0.62337089 -2.678884
-0.69096911 0.62328291 -2.6782048
-0.6933167 0.62520647 -2.6818621
-0.57449681 0.61095381 -2.6826966
-0.6022138 0.61413407 -2.6850476
-0.60686392 0.61942315 -2.6838179
-0.61589855 0.61451215 -2.6833858
-0.63001394 0.61445725 -2.6821959
-0.64517891 0.61156273 -2.6815214
-0.65792674 0.61600041 -2.680079
-0.67217803 0.61614227 -2.6791906
-0.67628145 0.61970377 -2.6840775
-0.6886366 0.61759019 -2.6793544
-0.70068055 0.61642569 -2.6774137
-0.708763 0.61580002 -2.6789834
-0.72251242 0.61658061 -2.6796384
-0.64312875 0.60496289 -2.6788206
-0.65071452 0.60574889 -2.6784294
-0.65639508 0.60884035 -2.6815813
-0.69231236 0.60602605 -2.6843963
-0.70330948 0.60816228 -2.6774089
-0.72648656 0.61025149 -2.6785178
-0.74094403 0.60920757 -2.6777494
-0.60110575 0.59789991 -2.6843121
-0.61515301 0.59671485 -2.6808443
-0.62925786 0.59657133 -2.6791768
-0.64298093 0.59661388 -2.6769719
-0.64898759 0.60173762 -2.6766207
-0.6579957 0.59638357 -2.6771586
-0.67115617 0.59914839 -2.6765835
-0.70477098 0.60052133 -2.6784763
-0.71682185 0.60009634 -2.6740823
-0.60289145 0.59171939 -2.6794581
-0.61702788 0.5918411 -2.6792231
-0.63116431 0.59196293 -2.6789882
-0.64530069 0.59208477 -2.6787531
-0.65947342 0.58818388 -2.6763322
-0.66740346 0.58931482 -2.6823447
-0.6833095 0.58846849 -2.6796331
-0.69868064 0.59209996 -2.6807084
-0.60055327 0.57872903 -2.6807556
-0.61451167 0.57830048 -2.6783087
-0.62747443 0.57805407 -2.6769373
-0.56060398 0.57187593 -2.6773949
-0.57474041 0.57199764 -2.6771598
-0.66498893 0.70557809 -2.7061183
-0.73634309 0.71251726 -2.7016201
-0.66669512 0.69386065 -2.7042062
-0.67472875 0.69558585 -2.7070274
-0.75120789 0.69970286 -2.6977069
-0.76990962 0.69776511 -2.697149
-0.66737247 0.69058055 -2.7054062
-0.67496294 0.68856871 -2.7038736
-0.67932093 0.6932447 -2.6998863
-0.70928866 0.69286227 -2.7017505
-0.67553145 0.67756569 -2.70154
-0.68829614 0.67683238 -2.6971636
-0.71160674 0.68150795 -2.7013407
-0.72279328 0.68144667 -2.7029815
-0.75647038 0.68112314 -2.6977663
-0.76571816 0.6823113 -2.6990662
-0.68240535 0.67307973 -2.6965523
-0.71211106 0.67604607 -2.6954944
-0.73004413 0.67485863 -2.6963577
-0.74462432 0.66727018 -2.6929576
-0.66439492 0.65685081 -2.7013156
-0.68448085 0.6610465 -2.6988287
-0.70765519 0.66104245 -2.6985502
-0.72267985 0.6595788 -2.6987076
-0.7525233 0.66318291 -2.6985025
-0.62666547 0.64814329 -2.6935294
-0.64091045 0.64832342 -2.6922927
-0.6513108 0.65511036 -2.6940548
-0.6787414 0.65630841 -2.6977594
-0.69532967 0.65382266 -2.6992793
-0.7361173 0.65407956 -2.6933551
-0.65793425 0.64520037 -2.6975617
-0.66773093 0.64435542 -2.693047
-0.68505394 0.64294577 -2.6938634
-0.68780529 0.6418882 -2.6951201
-0.69354331 0.64429796 -2.6960676
-0.70352221 0.64122391 -2.6929531
-0.74488944 0.63927549 -2.6972215
-0.64634788 0.63507044 -2.6902037
-0.6638031 0.634269 -2.6906562
-0.68152678 0.63345617 -2.6911206
-0.69658029 0.63387334 -2.6912711
-0.72295493 0.63859284 -2.6910262
-0.7361899 0.63276929 -2.6915684
-0.57163292 0.62290853 -2.6966238
-0.60228938 0.62840188 -2.6905074
-0.61640608 0.61910939 -2.6932144
-0.62671846 0.62856627 -2.690352
-0.63387942 0.6220727 -2.6948607
-0.65624434 0.62529117 -2.6920459
-0.66758049 0.62474597 -2.694262
-0.67322928 0.624726 -2.6905608
-0.68350852 0.62193203 -2.6914313
-0.69047421 0.62415218 -2.6890528
-0.69791126 0.62425208 -2.6943061
-0.70100933 0.62134427 -2.6911471
-0.71877819 0.62074757 -2.6908584
-0.60875708 0.61666739 -2.6888947
-0.62289143 0.61649555 -2.6887782
-0.63041186 0.61206222 -2.6901259
-0.634718 0.61422837 -2.6913216
-0.64188731 0.61478251 -2.6907423
-0.64923835 0.61122239 -2.6953688
-0.65907604 0.61733544 -2.6880407
-0.67824757 0.61853898 -2.6908
-0.6922183 0.61723244 -2.686671
-0.69544196 0.61474311 -2.6913843
-0.73219454 0.61277246 -2.6923254
-0.58740532 0.60074091 -2.6934464
-0.5954597 0.60612905 -2.6930146
-0.6017108 0.60447979 -2.6896231
-0.61034375 0.60606623 -2.6911018
-0.62413502 0.60519892 -2.6870832
-0.62677151 0.60898936 -2.687175
-0.66218972 0.60506725 -2.6915522
-0.66961086 0.60679817 -2.6912119
-0.67565829 0.60867482 -2.6930768
-0.68097556 0.60900569 -2.6949179
-0.68682802 0.60608709 -2.6897087
-0.69698846 0.60596871 -2.6916373
-0.71090049 0.60413456 -2.6881206
-0.72786641 0.6040467 -2.6870468
-0.58041292 0.59753174 -2.686373
-0.61011881 0.59674031 -2.6888492
-0.62281621 0.59701633 -2.686023
-0.63781184 0.59526241 -2.6892169
-0.64429873 0.59837562 -2.6865485
-0.65852207 0.59778428 -2.684824
-0.67281008 0.59472692 -2.6897154
-0.6913622 0.59685516 -2.6911769
-0.70956856 0.59574044 -2.6916471
-0.56984454 0.58869123 -2.6889446
-0.62453991 0.58927715 -2.6919851
-0.64119399 0.58845472 -2.6916814
-0.6581068 0.58762264 -2.6913879
-0.55206883 0.57839608 -2.683851
-0.58033764 0.5780524 -2.6836181
-0.58659488 0.57915783 -2.6832023
-0.59447205 0.57788062 -2.6835015
-0.60107476 0.58059835 -2.6885049
-0.61529815 0.58000702 -2.6867805
-0.66695225 0.71008599 -2.7166998
-0.68128818 0.70957768 -2.7148387
-0.68814725 0.70764577 -2.7140911
-0.70218837 0.70697355 -2.7101278
-0.70788342 0.70303822 -2.7164879
-0.72565526 0.7030611 -2.7151427
-0.66415679 0.69517416 -2.7141356
-0.69265831 0.69541973 -2.7136619
-0.69579959 0.69263446 -2.707968
-0.70314586 0.68980485 -2.7065678
-0.71263045 0.68960547 -2.7078481
-0.64303356 0.68205351 -2.7069244
-0.65002877 0.67541581 -2.7115817
-0.66293126 0.67828697 -2.7058489
-0.67784077 0.67744392 -2.7112205
-0.68602902 0.6812228 -2.7085249
-0.70362699 0.68008244 -2.7094748
-0.70659876 0.67846692 -2.7055814
-0.65765065 0.67314875 -2.7095644
-0.6810745 0.67244375 -2.7057767
-0.69906604 0.67191702 -2.7063601
-0.71733183 0.67138112 -2.7069476
-0.73587489 0.67083502 -2.7075336
-0.63628781 0.65790784 -2.7082551
-0.64849091 0.66045344 -2.708257
-0.65398151 0.65693408 -2.7112875
-0.6637792 0.65825582 -2.7082047
-0.67174202 0.66188651 -2.7031941
-0.68380076 0.66040474 -2.7065272
-0.702811 0.66119063 -2.7065537
-0.70625889 0.66103733 -2.7051685
-0.71890587 0.66377723 -2.7037067
-0.65540344 0.64714003 -2.7091346
-0.65933591 0.65534437 -2.7049973
-0.68190414 0.65091044 -2.706404
-0.69680285 0.65028006 -2.7065632
-0.71322054 0.65335536 -2.7067385
-0.73173165 0.65266895 -2.7073231
-0.583525 0.64105022 -2.7073958
-0.63270098 0.64148903 -2.7094369
-0.64661396 0.64084423 -2.7059784
-0.66387844 0.63958371 -2.7090788
-0.6758514 0.64178491 -2.7038808
-0.68017626 0.64404452 -2.703428
-0.68959844 0.64467371 -2.7022052
-0.69942695 0.6412977 -2.7080774
-0.71468985 0.64337063 -2.704473
-0.72200197 0.64467168 -2.701211
-0.72993577 0.64176679 -2.7033637
-0.62177283 0.63589913 -2.7064741
-0.64964432 0.63234317 -2.7067482
-0.6547097 0.6313234 -2.7064292
-0.66416317 0.63052833 -2.706502
-0.67685032 0.6294744 -2.7021589
-0.59321254 0.62434101 -2.7051849
-0.60268831 0.62272811 -2.6991816
-0.6066134 0.6236037 -2.7018361
-0.67017078 0.62097681 -2.7026663
-0.67297781 0.62588894 -2.6990044
-0.68800449 0.62658656 -2.6992142
-0.70561355 0.62575912 -2.7006388
-0.71829921 0.62632567 -2.7018771
-0.72212929 0.62327302 -2.7002373
-0.73513299 0.62176907 -2.6974883
-0.74108946 0.62188125 -2.6984735
-0.62691689 0.61515355 -2.7054815
-0.63311839 0.61592793 -2.7051547
-0.64406562 0.60838366 -2.7034156
-0.66508669 0.60970092 -2.6975172
-0.68359154 0.60934371 -2.6981015
-0.61196285 0.60561693 -2.6969471
-0.66081071 0.60350633 -2.6966474
-0.6981743 0.60271662 -2.7004664
-0.71249157 0.60127711 -2.6963489
-0.71459639 0.60797983 -2.7025433
-0.72902864 0.60353673 -2.6956251
-0.56501538 0.59613687 -2.7018402
-0.59980112 0.59214687 -2.6976826
-0.60836875 0.58973384 -2.6986349
-0.615969 0.59134299 -2.6962426
-0.63531905 0.59853888 -2.7027953
-0.64525437 0.59372866 -2.6975012
-0.66071761 0.59421891 -2.6961844
-0.67096037 0.59153926 -2.6926837
-0.69504064 0.59531951 -2.6967008
-0.56789356 0.58487576 -2.6993515
-0.57722777 0.5806427 -2.7014513
-0.59159547 0.58078563 -2.7005558
-0.60596311 0.58092856 -2.6996603
-0.6490621 0.58970588 -2.6933384
-0.57291615 0.57756507 -2.6983147
-0.70935702 0.71246433 -2.7195086
-0.6903767 0.70301354 -2.7178025
-0.72042429 0.70229352 -2.7184968
-0.6570279 0.69276023 -2.7236328
-0.67064095 0.69198942 -2.7197757
-0.70159835 0.69887453 -2.7215686
-0.70821559 0.69309974 -2.7240913
-0.7193718 0.69887161 -2.7215128
-0.67760837 0.68522882 -2.7224009
-0.68396717 0.68489474 -2.7240593
-0.70420921 0.68483365 -2.7171488
-0.73996288 0.68459129 -2.7144334
-0.64903927 0.67693186 -2.7194669
-0.67252439 0.67592734 -2.7200205
-0.68034238 0.67803025 -2.719522
-0.69607353 0.67750871 -2.7175248
-0.718804 0.67551363 -2.7219298
-0.73334312 0.67458522 -2.7178988
-0.62276852 0.66342282 -2.7214906
-0.64896619 0.66737771 -2.7216544
-0.66589576 0.66713226 -2.7203939
-0.700535 0.6666292 -2.7178099
-0.73623121 0.66610193 -2.7151048
-0.59377116 0.65337139 -2.7169821
-0.6163975 0.66003025 -2.7178226
-0.6508503 0.65880167 -2.7191336
-0.67698443 0.65831542 -2.7193332
-0.72951412 0.65766382 -2.719697
-0.74425948 0.65660334 -2.7156463
-0.62244296 0.65235496 -2.7132602
-0.63458043 0.64980614 -2.7131228
-0.64301705 0.64805883 -2.7133574
-0.649342 0.64846927 -2.7110651
-0.67707539 0.64843595 -2.7162676
-0.71911991 0.64579296 -2.7171333
-0.72262394 0.64692247 -2.7111623
-0.62221003 0.64371204 -2.7182472
-0.63654953 0.64311588 -2.7165089
-0.64227808 0.64096212 -2.7131932
-0.6493445 0.64147413 -2.7155702
-0.67020983 0.64259905 -2.7150631
-0.68472844 0.64195687 -2.7116156
-0.73002601 0.64269292 -2.7106237
-0.73984092 0.64245117 -2.7139156
-0.58881158 0.63311267 -2.7159898
-0.59327054 0.63361943 -2.7139747
-0.63127303 0.62851179 -2.7111568
-0.63234091 0.62907493 -2.7088485
-0.64213616 0.63203478 -2.7124789
-0.64667463 0.63222635 -2.7130446
-0.66238856 0.63039184 -2.7120576
-0.66654593 0.62582767 -2.71627
-0.69476116 0.62899351 -2.7076941
-0.60731202 0.62459731 -2.7167428
-0.62911409 0.62507021 -2.7106187
-0.63599104 0.62340498 -2.7132657
-0.64848685 0.62365687 -2.7131302
-0.66018355 0.62325537 -2.710814
-0.67389512 0.62198383 -2.7068138
-0.72522032 0.62516385 -2.7102215
-0.73604095 0.62505698 -2.7151675
-0.57552528 0.61115098 -2.7118645
-0.58928233 0.61081815 -2.7095644
-0.60347044 0.61295831 -2.7094767
-0.6077587 0.60894436 -2.7124155
-0.61498582 0.61290646 -2.7105601
-0.62388086 0.61537802 -2.7073858
-0.62877661 0.61141545 -2.7094898
-0.64240628 0.60926205 -2.7082505
-0.64631039 0.61410308 -2.7077994
-0.65431392 0.60836303 -2.7062068
-0.65967107 0.61382866 -2.7107773
-0.70241851 0.6093421 -2.7088478
-0.72041458 0.60763478 -2.7098193
-0.56810552 0.60274106 -2.7126446
-0.61118984 0.6010052 -2.7112799
-0.62214798 0.60203826 -2.7094316
-0.62848967 0.59904456 -2.7047672
-0.63543248 0.60369408 -2.7100222
-0.64728093 0.60249007 -2.7043839
-0.6534813 0.60689396 -2.7049112
-0.66487908 0.6014359 -2.7049527
-0.68341708 0.60225332 -2.7050443
-0.56359768 0.59513211 -2.7116814
-0.58709282 0.5949893 -2.7100453
-0.59273076 0.59532547 -2.7127912
-0.60125184 0.59175265 -2.7118778
-0.60660541 0.59360731 -2.7060981
-0.61515349 0.59087837 -2.7078271
-0.62905508 0.59000409 -2.7037761
-0.63603771 0.59437144 -2.7086623
-0.64183199 0.59295636 -2.7087886
-0.64984345 0.59024179 -2.70611
-0.57780385 0.58374816 -2.7065105
-0.70223892 0.73437876 -2.73791
-0.70441854 0.71557087 -2.7358389
-0.66584742 0.7062633 -2.7346597
-0.672189 0.69955277 -2.7312205
-0.68298775 0.70619565 -2.7343023
-0.66802317 0.69716275 -2.7344706
-0.64638305 0.67987704 -2.7334747
-0.66822797 0.68445271 -2.7296591
-0.69681174 0.68815947 -2.7329566
-0.65335882 0.67654562 -2.7253554
-0.67266983 0.67920369 -2.728745
-0.64323759 0.66663992 -2.7271831
-0.66425478 0.66775239 -2.7271531
-0.67730039 0.66739762 -2.7303765
-0.6801374 0.6674875 -2.7247736
-0.69040948 0.66685379 -2.7230589
-0.69626826 0.66722178 -2.7223735
-0.70817763 0.6655966 -2.7241316
-0.64968956 0.66033101 -2.7270787
-0.65546185 0.66113639 -2.7309155
-0.57888949 0.64396608 -2.7227242
-0.61074269 0.64403808 -2.7245083
-0.61423039 0.64509666 -2.7284698
-0.62793547 0.64448655 -2.7251949
-0.64012432 0.65145433 -2.7266917
-0.64569783 0.64685047 -2.7255509
-0.66136521 0.64983881 -2.7244534
-0.66821253 0.65095788 -2.7216144
-0.67630762 0.65008026 -2.7254882
-0.67943841 0.64881814 -2.7197704
-0.63640165 0.634749 -2.7234724
-0.73822975 0.64019275 -2.7254989
-0.57540047 0.62799478 -2.7238739
-0.59297246 0.62519348 -2.7184815
-0.60714865 0.62815505 -2.7261958
-0.61706585 0.63014692 -2.7211869
-0.66763806 0.62857324 -2.720962
-0.59777153 0.61537695 -2.7228398
-0.60816818 0.62142563 -2.7177966
-0.62482166 0.61987484 -2.7188258
-0.64281368 0.62356555 -2.7187247
-0.69631594 0.62084085 -2.7207837
-0.57191139 0.61202383 -2.7250235
-0.57807446 0.60607868 -2.7169769
-0.58845925 0.61188078 -2.7196188
-0.59668225 0.61358631 -2.7210557
-0.61304301 0.61295927 -2.7210252
-0.62961197 0.61231232 -2.7209365
-0.63459063 0.61079383 -2.7242277
-0.6408847 0.60711873 -2.7174885
-0.64643806 0.61165869 -2.7208619
-0.58399743 0.60112965 -2.7236691
-0.58764118 0.60339701 -2.7194817
-0.60902846 0.59784561 -2.7212365
-0.620193 0.6029917 -2.7184386
-0.56451088 0.58786774 -2.7142136
-0.58151925 0.59511566 -2.7229331
-0.59567094 0.58704293 -2.717005
-0.60157162 0.59048426 -2.7155652
-0.62194031 0.59223258 -2.7129824
-0.62555921 0.59499729 -2.7207735
-0.63930494 0.59207547 -2.7181797
-0.55463332 0.57993495 -2.715596
-0.56705707 0.58054042 -2.7135231
-0.67146605 0.69903696 -2.7436337
-0.68163329 0.70543194 -2.7393446
-0.68599379 0.69880259 -2.7403932
-0.69777524 0.70545006 -2.7370534
-0.70070142 0.69855571 -2.7370634
-0.64906675 0.67994255 -2.741147
-0.65584737 0.68455279 -2.7369723
-0.67204416 0.68462217 -2.7362237
-0.71028006 0.687801 -2.7354622
-0.66397434 0.67941093 -2.7342646
-0.6819253 0.67088997 -2.7370391
-0.64149642 0.66283756 -2.7348983
-0.64762497 0.66601151 -2.7381623
-0.68531287 0.6668011 -2.7361131
-0.69313747 0.66995502 -2.7336178
-0.60812914 0.65834969 -2.740181
-0.61349875 0.65779698 -2.7370391
-0.62356704 0.65581238 -2.7393355
-0.57425404 0.64688182 -2.7380524
-0.60452712 0.64210296 -2.7317519
-0.61311805 0.64555681 -2.733624
-0.62108159 0.64536476 -2.732296
-0.63318336 0.64638901 -2.7354808
-0.63834643 0.64464092 -2.7330658
-0.68116796 0.64909136 -2.7359467
-0.59552109 0.63517857 -2.7375774
-0.60933208 0.63657314 -2.7361691
-0.62240791 0.63767385 -2.7348688
-0.62671936 0.6361075 -2.7350488
-0.63799334 0.63927615 -2.7339745
-0.64183205 0.63304806 -2.7332664
-0.65509403 0.63782835 -2.7350967
-0.60089386 0.62626547 -2.7322607
-0.61709332 0.62787855 -2.7320931
-0.63432813 0.62702274 -2.7328613
-0.6597029 0.63189375 -2.7357275
-0.73406649 0.62484282 -2.7274032
-0.58358234 0.61899364 -2.7347269
-0.58920074 0.61728895 -2.7333074
-0.60604173 0.61857194 -2.7301214
-0.63724512 0.61654472 -2.7315557
-0.65284991 0.61591482 -2.7292802
-0.56120485 0.60766768 -2.7304733
-0.56740505 0.60522735 -2.7274969
-0.58189058 0.60537148 -2.7265937
-0.60340321 0.6060735 -2.7316122
-0.61189628 0.60693872 -2.7321098
-0.63030982 0.60940468 -2.7326567
-0.66582179 0.60898525 -2.724575
-0.56663036 0.59805751 -2.7271128
-0.57554787 0.59510094 -2.730227
-0.58307767 0.59907967 -2.7316942
-0.59753132 0.59856725 -2.7298181
-0.60175252 0.59628594 -2.7307811
-0.60771793 0.60407609 -2.7265341
-0.63347143 0.59939235 -2.7322593
-0.64904833 0.59863567 -2.7299891
-0.56888205 0.5884217 -2.7302406
-0.59074283 0.59182513 -2.7305984
-0.56747502 0.58528799 -2.7245281
-0.64305341 0.6995039 -2.7500148
-0.648444 0.69955409 -2.7552149
-0.66862309 0.70270699 -2.7468877
-0.65230548 0.68768573 -2.7525339
-0.66243798 0.69059181 -2.7505703
-0.67817438 0.692191 -2.7514155
-0.63789755 0.68333435 -2.7476113
-0.63944131 0.68296933 -2.751205
-0.65353328 0.68262368 -2.7480628
-0.61363554 0.66930431 -2.7453759
-0.65132552 0.67368299 -2.7515292
-0.6560691 0.67610544 -2.7497587
-0.6599952 0.67036664 -2.7508235
-0.6773175 0.67014694 -2.7509909
-0.57320857 0.65448356 -2.7498868
-0.59861523 0.65003264 -2.7438588
-0.61307251 0.64943159 -2.742106
-0.58359498 0.63076103 -2.7423418
-0.59976864 0.638641 -2.7425137
-0.63455385 0.63504291 -2.7383969
-0.64455563 0.63783216 -2.7419007
-0.5916965 0.62926179 -2.7449384
-0.56912869 0.61950612 -2.736603
-0.5802477 0.61691689 -2.7445576
-0.59182847 0.61839473 -2.738266
-0.61227524 0.61431181 -2.7396936
-0.62346137 0.6210289 -2.7358792
-0.57269919 0.60758281 -2.7384722
-0.61911339 0.60403991 -2.7347829
-0.56378686 0.59896857 -2.7415011
-0.56896263 0.60047084 -2.7351797
-0.57858998 0.60168314 -2.7430086
-0.58766657 0.59969878 -2.7361081
-0.59387219 0.59878796 -2.7393296
-0.60126048 0.59901875 -2.7353029
-0.61774188 0.59826857 -2.7353199
-0.54925174 0.58437288 -2.735003
-0.55469811 0.58885735 -2.7327273
-0.56908125 0.59261358 -2.7400513
-0.58246881 0.59101552 -2.7358022
-0.53929067 0.58212698 -2.7336211
-0.66059291 0.70648074 -2.7590072
-0.66835403 0.71291447 -2.764863
-0.6739862 0.71180451 -2.7586827
-0.63511652 0.70027858 -2.7588515
-0.66764104 0.70297259 -2.7618549
