# .PCD v0.7 - Point Cloud Data file format
VERSION 0.7
FIELDS x y z
SIZE 4 4 4
TYPE F F F
COUNT 1 1 1
WIDTH 1340
HEIGHT 1
VIEWPOINT 0 0 0 1 0 0 0
POINTS 1340
DATA ascii
-0.43251723 -0.26816946 -0.26475498
-0.43950206 -0.2660993 -0.26154757
-0.42752692 -0.27648437 -0.26186705
-0.4352527 -0.27300411 -0.26646227
-0.44749212 -0.26074797 -0.27133411
-0.45513803 -0.25735331 -0.2781249
-0.40609953 -0.26623181 -0.27104622
-0.41391358 -0.26960093 -0.27325931
-0.42028645 -0.27007541 -0.27291995
-0.42740327 -0.26994258 -0.27136809
-0.43383574 -0.26841912 -0.2712
-0.44140181 -0.26659462 -0.27385733
-0.41716024 -0.26084 -0.28319389
-0.42884311 -0.26295656 -0.28521299
-0.43327731 -0.26117137 -0.28325766
-0.44035614 -0.26044384 -0.2830207
-0.44777054 -0.26068509 -0.28287047
-0.45260689 -0.2581977 -0.28320128
-0.42291388 -0.26673529 -0.28366283
-0.42731732 -0.26893651 -0.28065497
-0.43352023 -0.27042148 -0.28122717
-0.43971056 -0.2703017 -0.28025568
-0.44559357 -0.27043742 -0.28285331
-0.45191547 -0.266379 -0.28431147
-0.46684182 -0.2522738 -0.29494035
-0.41883269 -0.26420581 -0.28831631
-0.42860633 -0.26315469 -0.2935532
-0.44086653 -0.26373667 -0.29064831
-0.44605181 -0.26141667 -0.29090378
-0.45546594 -0.26199654 -0.29290649
-0.45998046 -0.25951087 -0.29509753
-0.44061613 -0.2706061 -0.29022062
-0.44756702 -0.26910549 -0.29076624
-0.45462984 -0.26802281 -0.28809303
-0.47090816 -0.24865416 -0.30670762
-0.44674221 -0.25547922 -0.30189618
-0.45311409 -0.25483701 -0.30297741
-0.46047822 -0.25162768 -0.30211407
-0.46618447 -0.25506273 -0.30116037
-0.42687136 -0.2644566 -0.30114478
-0.43367273 -0.26190904 -0.30161434
-0.43866065 -0.26611584 -0.30076015
-0.44758856 -0.26289326 -0.30054319
-0.45289475 -0.26421839 -0.29840651
-0.45896411 -0.26210406 -0.30158412
-0.46604753 -0.26288331 -0.30368519
-0.442846 -0.25057051 -0.31412649
-0.47983843 -0.24554892 -0.31552407
-0.44209987 -0.25191933 -0.30919734
-0.44811946 -0.25739789 -0.31392643
-0.45344266 -0.25539753 -0.31309882
-0.46039131 -0.25274506 -0.31444058
-0.46822906 -0.25755453 -0.31307471
-0.47362557 -0.2538476 -0.31285891
-0.47980407 -0.25387666 -0.31114718
-0.43539494 -0.26321056 -0.30718198
-0.43989956 -0.26486304 -0.31139159
-0.45404857 -0.2632297 -0.30840486
-0.46047008 -0.26133364 -0.30821458
-0.46488115 -0.26166469 -0.30906719
-0.45191771 -0.25124195 -0.31983215
-0.46044096 -0.24867737 -0.32037145
-0.46875992 -0.24947545 -0.32111999
-0.47364375 -0.24757572 -0.3211045
-0.47987601 -0.24634251 -0.32150972
-0.48658848 -0.24409716 -0.32679689
-0.4607102 -0.25727358 -0.31938696
-0.46661684 -0.25708556 -0.31987187
-0.47368073 -0.2576493 -0.32100135
-0.47851413 -0.25773075 -0.32385963
-0.48394892 -0.25281829 -0.32098567
-0.44087502 -0.26208636 -0.32069552
-0.46825811 -0.2434694 -0.3329497
-0.4916473 -0.2406567 -0.33496463
-0.46101567 -0.25198385 -0.32737404
-0.46890169 -0.25100282 -0.33111191
-0.47114354 -0.25027865 -0.33242628
-0.48008811 -0.24799177 -0.33094817
-0.48667872 -0.2477275 -0.3284381
-0.49155959 -0.24850677 -0.32853371
-0.4541384 -0.26094171 -0.32904255
-0.46151757 -0.25877032 -0.32895839
-0.46618313 -0.25654387 -0.32872471
-0.47368926 -0.25680867 -0.3292124
-0.47991282 -0.2574507 -0.32987243
-0.48485172 -0.25539875 -0.32921165
-0.46831 -0.24290496 -0.33758771
-0.4728311 -0.24464376 -0.3410165
-0.47946203 -0.2409112 -0.33836788
-0.48804474 -0.24152642 -0.34142157
-0.49375939 -0.24072197 -0.34137815
-0.50012279 -0.23928787 -0.34253326
-0.50684971 -0.24171539 -0.34164265
-0.46476918 -0.2513009 -0.33925447
-0.47486028 -0.25137278 -0.34151533
-0.47999021 -0.24860036 -0.34092918
-0.48710981 -0.24911344 -0.34102085
-0.49319538 -0.24843909 -0.34216607
-0.49716771 -0.25207254 -0.34405982
-0.47406581 -0.25833309 -0.33739099
-0.48006713 -0.25905287 -0.33830526
-0.48606923 -0.25714803 -0.33800763
-0.49354824 -0.25868845 -0.34017986
-0.5030961 -0.25606999 -0.34022534
-0.48095232 -0.24045721 -0.34833208
-0.48750442 -0.24257353 -0.35121703
-0.49445164 -0.24056393 -0.35125783
-0.50070333 -0.2404533 -0.35174027
-0.50637245 -0.24048379 -0.35102004
-0.51362342 -0.24216819 -0.34884632
-0.52179068 -0.24043298 -0.35531148
-0.47990856 -0.25168809 -0.34842724
-0.4862439 -0.25211915 -0.34949684
-0.4922514 -0.25080192 -0.35277343
-0.50172502 -0.2505306 -0.35132518
-0.50659496 -0.25314799 -0.35074583
-0.48833987 -0.23764098 -0.36122665
-0.49018604 -0.23513345 -0.35752887
-0.50122392 -0.23251069 -0.36065677
-0.50700879 -0.23256591 -0.36265358
-0.51252282 -0.23234746 -0.36154726
-0.51932991 -0.23793145 -0.36143941
-0.52427244 -0.23132402 -0.35687497
-0.54505026 -0.22889851 -0.36328271
-0.48624808 -0.24690597 -0.36259812
-0.49328318 -0.24168722 -0.35991937
-0.50100875 -0.24256632 -0.36047903
-0.50579137 -0.24038152 -0.35956931
-0.51346892 -0.24161233 -0.36018077
-0.52074224 -0.23899934 -0.36067852
-0.52590835 -0.24055134 -0.36211574
-0.47944802 -0.25385112 -0.35587564
-0.48582464 -0.25379738 -0.35726243
-0.49306476 -0.25286311 -0.35810286
-0.50011373 -0.25088993 -0.35781673
-0.50625432 -0.25170538 -0.35866627
-0.51598436 -0.24779397 -0.3607251
-0.5196749 -0.22650498 -0.37268242
-0.54058594 -0.22463678 -0.37246966
-0.55230838 -0.22672315 -0.37357843
-0.49432698 -0.23359635 -0.36693987
-0.49967289 -0.23550887 -0.37017292
-0.5076099 -0.23638657 -0.37163347
-0.51586235 -0.23263611 -0.36715421
-0.52003914 -0.23658983 -0.37163413
-0.52787238 -0.23566057 -0.37123856
-0.53173202 -0.23679072 -0.37241206
-0.49479872 -0.24574223 -0.36580262
-0.50081617 -0.24315381 -0.36809704
-0.50654566 -0.24416992 -0.37018061
-0.51254201 -0.24256766 -0.36789134
-0.51846051 -0.24482253 -0.37001586
-0.52747387 -0.24216677 -0.37160006
-0.48608547 -0.24904518 -0.36566514
-0.50034595 -0.25303268 -0.36679405
-0.50630748 -0.25178355 -0.36655775
-0.51256716 -0.25159073 -0.36751923
-0.5197314 -0.25216109 -0.36890009
-0.52821988 -0.24954766 -0.36945984
-0.55593371 -0.22076976 -0.38502938
-0.51181561 -0.22737595 -0.3795163
-0.51977277 -0.22679183 -0.37867758
-0.52734005 -0.22949377 -0.38268149
-0.5315569 -0.22805743 -0.38222158
-0.53911948 -0.22648016 -0.37800312
-0.54723054 -0.22513467 -0.3780154
-0.50570601 -0.23667036 -0.3780452
-0.51260811 -0.23529315 -0.38010037
-0.52020895 -0.2389891 -0.37935275
-0.52643687 -0.23437516 -0.38038594
-0.53414828 -0.23637152 -0.37898433
-0.53987539 -0.2372023 -0.38139141
-0.48791775 -0.2457253 -0.37849215
-0.49413273 -0.24791922 -0.38174516
-0.49975172 -0.24616744 -0.37983081
-0.50830853 -0.24617296 -0.37877589
-0.51327908 -0.24588916 -0.37719649
-0.51950908 -0.24660988 -0.37854388
-0.52746421 -0.24883002 -0.37848437
-0.53341991 -0.24245617 -0.37789577
-0.52492768 -0.25040781 -0.37567055
-0.55305976 -0.21929972 -0.3936311
-0.55802149 -0.21728933 -0.39089611
-0.5650512 -0.2160874 -0.39225537
-0.52017343 -0.22929762 -0.38997111
-0.5268414 -0.22721846 -0.39084291
-0.53368545 -0.22882988 -0.39054698
-0.54009074 -0.22720014 -0.3921943
-0.54513019 -0.22807831 -0.39190105
-0.55177099 -0.22318991 -0.38988811
-0.50677466 -0.23805743 -0.38559613
-0.51561016 -0.23671049 -0.38706261
-0.52021909 -0.23525709 -0.38750342
-0.52715492 -0.23578404 -0.39067617
-0.53120285 -0.24133834 -0.38826787
-0.54121983 -0.23400891 -0.38805673
-0.50787312 -0.2466075 -0.38565046
-0.51236546 -0.24690926 -0.38860774
-0.52019799 -0.2448585 -0.38965753
-0.52770114 -0.24627054 -0.38651738
-0.53455931 -0.2468738 -0.38803688
-0.5278241 -0.22005466 -0.3980425
-0.53564513 -0.22089918 -0.39962837
-0.5405553 -0.21689096 -0.39952776
-0.54729939 -0.21980527 -0.39929318
-0.55226588 -0.22006193 -0.40224338
-0.5593158 -0.21723908 -0.40348315
-0.51603311 -0.22991259 -0.3952384
-0.5226137 -0.22994727 -0.39857867
-0.52721095 -0.22932616 -0.39931905
-0.53223139 -0.22669543 -0.39628875
-0.539307 -0.22840111 -0.40117419
-0.54569894 -0.22814639 -0.40030912
-0.55365944 -0.22693732 -0.39678177
-0.51215023 -0.24110298 -0.39871246
-0.5183059 -0.23786137 -0.39776802
-0.52660692 -0.23990801 -0.39856243
-0.53419381 -0.23793349 -0.39852765
-0.53970307 -0.23628953 -0.3996405
-0.54455662 -0.23825471 -0.40109929
-0.52005899 -0.24532837 -0.39350387
-0.52606755 -0.24491115 -0.39814496
-0.5417971 -0.24442905 -0.40019032
-0.5444842 -0.24567899 -0.39864886
-0.55523217 -0.21250209 -0.41024297
-0.55983078 -0.21193522 -0.41144145
-0.56680644 -0.21110013 -0.41110426
-0.53197789 -0.22542498 -0.40956581
-0.53982759 -0.22206849 -0.4093101
-0.54744124 -0.22176678 -0.41149786
-0.5529505 -0.22062299 -0.40870002
-0.56067443 -0.22087982 -0.41083714
-0.56510425 -0.21819425 -0.41208452
-0.57289946 -0.21685237 -0.41426849
-0.53407818 -0.2293113 -0.40648681
-0.54005158 -0.2301667 -0.40738723
-0.54675752 -0.22989458 -0.40910605
-0.55179518 -0.23105091 -0.40842342
-0.55691075 -0.22919434 -0.41024983
-0.520064 -0.24244007 -0.40484568
-0.52737743 -0.23974106 -0.4058342
-0.53336746 -0.23970178 -0.40815151
-0.54060221 -0.24095248 -0.40629128
-0.54839242 -0.23831075 -0.40931514
-0.55247378 -0.24344811 -0.40727824
-0.55903488 -0.23664431 -0.41163254
-0.54311371 -0.21575254 -0.41579008
-0.54769683 -0.21606219 -0.41721761
-0.55417478 -0.21461686 -0.41968402
-0.56045341 -0.21386018 -0.41968036
-0.56611305 -0.21272945 -0.41980493
-0.57414365 -0.21502672 -0.42195287
-0.53295285 -0.21941778 -0.41564023
-0.54157966 -0.22306457 -0.417429
-0.54559982 -0.22368503 -0.41510782
-0.55357945 -0.22393423 -0.41886017
-0.55930459 -0.22066388 -0.41972008
-0.56533819 -0.22307037 -0.41975299
-0.58134091 -0.21802171 -0.41476136
-0.52918482 -0.2272597 -0.41441476
-0.53580433 -0.23470324 -0.41812786
-0.54052556 -0.22916615 -0.41653159
-0.5464946 -0.23164113 -0.41699544
-0.55242068 -0.23041418 -0.41817945
-0.55914968 -0.2301479 -0.41812095
-0.56878871 -0.22784048 -0.4197681
-0.53357142 -0.24144112 -0.41508695
-0.53985167 -0.24216801 -0.41628531
-0.5455513 -0.24109571 -0.41677114
-0.55733019 -0.2405493 -0.41893283
-0.55541265 -0.209389 -0.4302218
-0.55988282 -0.20958692 -0.43269399
-0.56841511 -0.20715129 -0.43102843
-0.5848884 -0.20787892 -0.42954496
-0.5955596 -0.20327544 -0.42989802
-0.5606302 -0.21502325 -0.42865455
-0.5658741 -0.21452083 -0.42894614
-0.57339329 -0.21193412 -0.42695093
-0.57984036 -0.21235843 -0.43098158
-0.58598965 -0.21391955 -0.42979145
-0.54779339 -0.22538418 -0.42506006
-0.55312455 -0.22554523 -0.42924979
-0.55780101 -0.22273603 -0.42618191
-0.56697953 -0.22491428 -0.42836106
-0.57153291 -0.22417599 -0.43135661
-0.5797143 -0.21973777 -0.43069339
-0.53166914 -0.22973499 -0.42444482
-0.54182506 -0.23350951 -0.42815599
-0.54845631 -0.23291382 -0.4239625
-0.55250841 -0.2346819 -0.42694393
-0.56010675 -0.2311703 -0.42884123
-0.56689709 -0.23013073 -0.42709798
-0.57729888 -0.22935876 -0.42260343
-0.5628289 -0.20914614 -0.4434059
-0.56926984 -0.20933443 -0.44042993
-0.57355964 -0.20505351 -0.43972728
-0.58197892 -0.20473295 -0.43994462
-0.58617872 -0.2051798 -0.44068128
-0.5939309 -0.20531212 -0.44287902
-0.60163504 -0.20227839 -0.43670988
-0.55867189 -0.21716112 -0.43825579
-0.5676204 -0.21497504 -0.43859151
-0.57389796 -0.21552609 -0.43848905
-0.57978106 -0.21557038 -0.44059634
-0.55360168 -0.22343695 -0.43437228
-0.5593375 -0.2251004 -0.43720087
-0.56627762 -0.22467929 -0.43696386
-0.57221258 -0.22378051 -0.43917263
-0.57915622 -0.22422433 -0.43889755
-0.58455694 -0.2271834 -0.43289918
-0.55325383 -0.23568854 -0.43466958
-0.56089485 -0.2351063 -0.4368332
-0.56550425 -0.2345807 -0.4375729
-0.5715549 -0.23310156 -0.43778196
-0.58715361 -0.19961727 -0.45136866
-0.59276843 -0.19864476 -0.4500927
-0.60775632 -0.19598347 -0.45217094
-0.61441559 -0.19798321 -0.44810218
-0.57358742 -0.20836052 -0.44907075
-0.58108383 -0.20800918 -0.44941449
-0.58556908 -0.20972081 -0.4475598
-0.59264553 -0.20738631 -0.448672
-0.60311538 -0.21149561 -0.44564855
-0.57347637 -0.21609136 -0.4481298
-0.57930332 -0.21594971 -0.44736519
-0.58584476 -0.21855198 -0.45068663
-0.59815246 -0.21255988 -0.44848144
-0.5562284 -0.22492361 -0.44476312
-0.56235325 -0.22560018 -0.44311425
-0.56635559 -0.22559881 -0.44507903
-0.57377476 -0.22551459 -0.44715998
-0.57937115 -0.22974308 -0.44912362
-0.58701646 -0.22537389 -0.44654948
-0.54370797 -0.23320563 -0.4416019
-0.55341887 -0.2344909 -0.44972351
-0.57275391 -0.23441488 -0.44706449
-0.57932287 -0.19961774 -0.45976105
-0.58608574 -0.19929874 -0.45580822
-0.5940941 -0.19822097 -0.45933282
-0.59911972 -0.19902359 -0.45963198
-0.60482967 -0.19674522 -0.45587587
-0.62222105 -0.20002443 -0.45542857
-0.57298958 -0.20801182 -0.45808855
-0.58021796 -0.20808476 -0.45947927
-0.58687019 -0.20934686 -0.45844343
-0.59261745 -0.20836779 -0.45849183
-0.59976876 -0.20692749 -0.4596698
-0.60627055 -0.20704481 -0.45881224
-0.6103735 -0.20932025 -0.45594424
-0.56739032 -0.21794531 -0.45960444
-0.57175803 -0.2191065 -0.45858908
-0.58083171 -0.2186991 -0.45695323
-0.58540356 -0.21623889 -0.45616642
-0.5916149 -0.21612646 -0.45335165
-0.60802484 -0.21363485 -0.45497519
-0.56128168 -0.23060948 -0.45999137
-0.56560987 -0.23064303 -0.45648772
-0.57316047 -0.22748618 -0.45447868
-0.58057564 -0.22624014 -0.4558917
-0.584463 -0.22778669 -0.45432219
-0.59422171 -0.22492234 -0.45641437
-0.59907323 -0.22283265 -0.45349061
-0.60025316 -0.19268224 -0.47116211
-0.61390936 -0.19103797 -0.46863323
-0.62157172 -0.19062999 -0.46924233
-0.58780974 -0.20023163 -0.46682268
-0.59289467 -0.20178467 -0.46673501
-0.59960127 -0.20101622 -0.47030088
-0.60711956 -0.20167741 -0.47092846
-0.61323851 -0.20060328 -0.46699515
-0.57559663 -0.21255201 -0.46375695
-0.58176106 -0.21152851 -0.47116518
-0.58721328 -0.20963636 -0.46981633
-0.59352142 -0.20975733 -0.46944475
-0.59837919 -0.21327151 -0.46832129
-0.6068567 -0.20968121 -0.46699759
-0.61808139 -0.21189418 -0.46289143
-0.57104969 -0.22261547 -0.46353707
-0.57880348 -0.22118485 -0.46554902
-0.58761078 -0.21798041 -0.46641129
-0.5929274 -0.21833807 -0.46674308
-0.59930742 -0.21904781 -0.46778712
-0.60633141 -0.22065732 -0.46378633
-0.57227749 -0.22925924 -0.46676117
-0.58046025 -0.22859102 -0.46240562
-0.58897883 -0.22815579 -0.46641296
-0.59101367 -0.2265951 -0.46465945
-0.58783036 -0.19416212 -0.47507247
-0.59618199 -0.19181359 -0.47702348
-0.60097545 -0.19413745 -0.47770956
-0.6074329 -0.19331919 -0.48091215
-0.61236507 -0.19378537 -0.48002917
-0.6203236 -0.19143434 -0.47840223
-0.62463337 -0.18856426 -0.47595662
-0.63053483 -0.18955916 -0.4808442
-0.59335065 -0.20264241 -0.48003945
-0.59908158 -0.20346221 -0.47779071
-0.60568708 -0.20184536 -0.47566789
-0.61217284 -0.20354451 -0.47885698
-0.61827445 -0.20502059 -0.48197955
-0.62342197 -0.19813141 -0.48284075
-0.58641601 -0.21329018 -0.47260946
-0.59441453 -0.21319985 -0.47756872
-0.6005795 -0.21191061 -0.47641665
-0.60712427 -0.20930153 -0.47557628
-0.57532096 -0.22520384 -0.47324219
-0.58004385 -0.22308728 -0.47531888
-0.58700269 -0.2221555 -0.47534665
-0.59301245 -0.22241554 -0.47626323
-0.59889424 -0.22087815 -0.47597593
-0.60530531 -0.22032148 -0.47680938
-0.61522716 -0.22021857 -0.47488099
-0.59230763 -0.22768404 -0.47379035
-0.60001999 -0.18861803 -0.49009201
-0.6131224 -0.18649137 -0.48968154
-0.61974746 -0.18606375 -0.48974538
-0.62707061 -0.18550348 -0.48908257
-0.59516227 -0.19414282 -0.48412794
-0.60937792 -0.19662157 -0.48660636
-0.61384273 -0.19376618 -0.48940989
-0.61994165 -0.19373645 -0.48871684
-0.62806308 -0.19249095 -0.4873735
-0.63464379 -0.19188181 -0.48765019
-0.64344811 -0.18928176 -0.48928511
-0.60103607 -0.20387381 -0.48766184
-0.60623854 -0.20363015 -0.48730373
-0.61220288 -0.20248465 -0.48591244
-0.61847144 -0.20067996 -0.48650163
-0.59968096 -0.21177755 -0.48578441
-0.60613304 -0.21317038 -0.48549372
-0.61189991 -0.21176857 -0.48805416
-0.58239114 -0.22581679 -0.48594981
-0.58501589 -0.22430959 -0.48227707
-0.59367228 -0.2227919 -0.4844569
-0.59949815 -0.22129685 -0.4829973
-0.60694796 -0.22140291 -0.48354715
-0.61321473 -0.22081086 -0.48630977
-0.60599101 -0.19033763 -0.50014842
-0.61098927 -0.18914589 -0.49694157
-0.62101215 -0.18505393 -0.49508861
-0.6259979 -0.18743142 -0.5006724
-0.63344949 -0.1864841 -0.49846536
-0.64023662 -0.18600513 -0.49669892
-0.64537203 -0.18428984 -0.50011456
-0.61116004 -0.19634627 -0.49815884
-0.62073833 -0.19481742 -0.49758095
-0.62595594 -0.19488317 -0.49648449
-0.63312215 -0.19627509 -0.49783006
-0.64821649 -0.19167286 -0.50232697
-0.59578407 -0.20089501 -0.49560282
-0.60055858 -0.2027837 -0.49431163
-0.60743278 -0.20434916 -0.49699318
-0.61215055 -0.20185593 -0.49614632
-0.61856747 -0.20387495 -0.49441159
-0.62614149 -0.2043069 -0.49585086
-0.63183987 -0.20510714 -0.49584624
-0.63940609 -0.2006188 -0.49712718
-0.59885836 -0.21539763 -0.49432978
-0.60670352 -0.21381825 -0.496259
-0.6135692 -0.21460703 -0.49532756
-0.61875492 -0.21308972 -0.49563733
-0.58928156 -0.224029 -0.49241781
-0.59491843 -0.22445254 -0.49161834
-0.5988791 -0.22271334 -0.49411157
-0.60510552 -0.22391997 -0.49284595
-0.61882919 -0.21887819 -0.49270171
-0.61461103 -0.18963662 -0.51002359
-0.62070096 -0.18588877 -0.50422847
-0.62873566 -0.18558645 -0.50666577
-0.63345838 -0.18746436 -0.50860184
-0.63940376 -0.18639539 -0.50830913
-0.64615589 -0.18602657 -0.50739539
-0.65372849 -0.18480873 -0.50724179
-0.61416292 -0.19631711 -0.50786829
-0.62049913 -0.19856638 -0.50735986
-0.62533975 -0.19684803 -0.50639278
-0.63324589 -0.19675595 -0.50763208
-0.64185506 -0.19588071 -0.51123846
-0.64409077 -0.19396928 -0.51155639
-0.60196555 -0.20233288 -0.50331771
-0.60683477 -0.20540792 -0.50324327
-0.61349517 -0.20593244 -0.50546795
-0.62153256 -0.2075299 -0.50399745
-0.62576926 -0.20517695 -0.50422829
-0.63271993 -0.20535372 -0.50779247
-0.64499688 -0.20304036 -0.50825179
-0.59319925 -0.21584907 -0.50066429
-0.60093212 -0.21473658 -0.50773096
-0.60608727 -0.21716841 -0.50778431
-0.61419445 -0.21523863 -0.50500089
-0.61882257 -0.21522877 -0.50400966
-0.62589276 -0.21624762 -0.50595313
-0.63235921 -0.21768321 -0.50682849
-0.63424808 -0.18313092 -0.51757574
-0.64724392 -0.18049879 -0.51732564
-0.67206419 -0.18228096 -0.52175486
-0.62739569 -0.18696432 -0.51620054
-0.63390791 -0.18790665 -0.51531041
-0.6397959 -0.18746738 -0.51815492
-0.64514643 -0.1863036 -0.51778668
-0.65115625 -0.18895409 -0.51824093
-0.61128265 -0.19991992 -0.51570153
-0.62216443 -0.20226866 -0.51497203
-0.62718713 -0.19665119 -0.51456898
-0.63221055 -0.19773519 -0.51512355
-0.63853365 -0.19566731 -0.51642823
-0.64515799 -0.19737148 -0.51646405
-0.6522916 -0.19626942 -0.51748663
-0.608172 -0.20942995 -0.51098573
-0.61406505 -0.20767333 -0.5140236
-0.62092006 -0.20833264 -0.51745558
-0.62675643 -0.20704389 -0.51562023
-0.63319004 -0.20693983 -0.51560712
-0.63821816 -0.20551276 -0.51587909
-0.60227871 -0.21863189 -0.50952899
-0.60896254 -0.21817163 -0.51601201
-0.61322254 -0.21685901 -0.51338708
-0.62012923 -0.21468437 -0.51123303
-0.62624884 -0.21519335 -0.5142113
-0.63095707 -0.21325549 -0.51590532
-0.64265746 -0.21222475 -0.5184384
-0.6386897 -0.18231234 -0.52947152
-0.64736408 -0.18235412 -0.52412212
-0.65764797 -0.17874962 -0.5291779
-0.67712075 -0.1790926 -0.5300926
-0.63325286 -0.19325143 -0.52663636
-0.63944989 -0.19057959 -0.52706516
-0.64669245 -0.18784744 -0.52752024
-0.65258849 -0.18920785 -0.52746063
-0.66055489 -0.18755366 -0.52453882
-0.62169164 -0.20192274 -0.52403778
-0.62557513 -0.19522716 -0.52661389
-0.63221937 -0.19932804 -0.5264914
-0.63890558 -0.20049787 -0.52488261
-0.6462853 -0.1995624 -0.52581388
-0.65233916 -0.19908449 -0.52780497
-0.61980951 -0.20967993 -0.52207947
-0.62675369 -0.20900281 -0.52360374
-0.63442093 -0.20618773 -0.52385765
-0.63972533 -0.20919234 -0.52512127
-0.64634681 -0.20682651 -0.52430117
-0.65021956 -0.20806101 -0.5267083
-0.62520015 -0.21685174 -0.52317166
-0.63256025 -0.21630011 -0.52457583
-0.64007533 -0.21753405 -0.52403522
-0.64601547 -0.1776852 -0.54225564
-0.6535933 -0.18244241 -0.53564018
-0.66027045 -0.18139215 -0.53521705
-0.66574728 -0.18057583 -0.53375733
-0.67349064 -0.18142018 -0.53547847
-0.63984174 -0.19115308 -0.53475618
-0.64627993 -0.19142975 -0.53247571
-0.65292901 -0.19083589 -0.53660202
-0.65765411 -0.18872456 -0.53749204
-0.66691726 -0.18800437 -0.53628403
-0.67052907 -0.19516641 -0.53898364
-0.63384658 -0.20286031 -0.5318132
-0.64201361 -0.19589916 -0.53082746
-0.64626515 -0.19992554 -0.5355612
-0.65176904 -0.20113891 -0.5336746
-0.65857184 -0.19672331 -0.53029776
-0.61925286 -0.21402544 -0.53537643
-0.6277318 -0.20897678 -0.53061026
-0.6345908 -0.2102768 -0.53001106
-0.63803017 -0.20958689 -0.53153026
-0.64567238 -0.21014836 -0.5352571
-0.65328974 -0.21050657 -0.53402096
-0.66203773 -0.17741759 -0.5466007
-0.65434259 -0.18479937 -0.54513741
-0.66043395 -0.18436298 -0.54703128
-0.66720194 -0.18310155 -0.54577136
-0.67306811 -0.18268965 -0.54594988
-0.68483883 -0.18210161 -0.54369318
-0.64203167 -0.19041027 -0.54876906
-0.64774019 -0.1941829 -0.54404473
-0.65149611 -0.19209796 -0.54524332
-0.65974045 -0.19250245 -0.54134208
-0.66608208 -0.19191016 -0.54465461
-0.67261583 -0.18922052 -0.54511023
-0.63139653 -0.2037555 -0.5424642
-0.64166749 -0.20235428 -0.5409041
-0.64777046 -0.20267731 -0.54454583
-0.65244156 -0.20131443 -0.54524964
-0.65839195 -0.19832247 -0.5440017
-0.66571915 -0.19709975 -0.54433495
-0.63470715 -0.21024096 -0.53899193
-0.63977456 -0.21275365 -0.54262459
-0.64474458 -0.20895848 -0.5413174
-0.65214598 -0.21216962 -0.54604828
-0.66643 -0.20837151 -0.5436691
-0.65189916 -0.17496234 -0.55459559
-0.66934031 -0.17563142 -0.55272436
-0.67316401 -0.17549229 -0.55799466
-0.67980999 -0.17354053 -0.55657321
-0.68747115 -0.17497474 -0.5554049
-0.69263643 -0.17409238 -0.55862647
-0.69776732 -0.17611942 -0.55933851
-0.65406668 -0.18503085 -0.55480433
-0.66016728 -0.18249115 -0.55598062
-0.66690409 -0.18477124 -0.55532175
-0.67445153 -0.18306509 -0.55444831
-0.6782825 -0.18235913 -0.55461669
-0.68648249 -0.18176401 -0.55666083
-0.69497305 -0.18258177 -0.55530006
-0.64846051 -0.1953626 -0.55046654
-0.65538824 -0.19171596 -0.55431145
-0.65952229 -0.19458246 -0.55567139
-0.66473442 -0.19396849 -0.5563485
-0.6724261 -0.19288069 -0.55361837
-0.67798191 -0.1920476 -0.55407244
-0.68768483 -0.19185606 -0.55422139
-0.69795531 -0.19554608 -0.55605435
-0.63897574 -0.20361093 -0.55315167
-0.64621091 -0.20580564 -0.55362856
-0.65366054 -0.20230916 -0.55236131
-0.65981126 -0.2017763 -0.55095553
-0.66833436 -0.20020834 -0.55415016
-0.65270722 -0.21162221 -0.55069274
-0.66833919 -0.17884035 -0.56544673
-0.67604762 -0.17311832 -0.5638904
-0.67971838 -0.17683141 -0.56752533
-0.68684781 -0.17666313 -0.56540757
-0.69308203 -0.17337614 -0.56457692
-0.69973683 -0.1754564 -0.56586063
-0.65720004 -0.18865103 -0.56885099
-0.66734022 -0.18606274 -0.56517911
-0.67421931 -0.18481719 -0.56505543
-0.6769172 -0.18365645 -0.56387919
-0.68595803 -0.18490493 -0.56379807
-0.70066869 -0.1827378 -0.56459111
-0.6543299 -0.19574927 -0.56411314
-0.65957814 -0.19621173 -0.5630787
-0.66802633 -0.19440731 -0.56296295
-0.67387116 -0.1958015 -0.56428862
-0.67879081 -0.19092208 -0.5641647
-0.69259852 -0.19088173 -0.56788367
-0.6443181 -0.20392603 -0.56468868
-0.65381247 -0.20533258 -0.56141371
-0.65923595 -0.20454758 -0.56151801
-0.66710353 -0.20420742 -0.56215769
-0.67207789 -0.20392627 -0.56375098
-0.68072426 -0.1998699 -0.56439966
-0.70151323 -0.17187884 -0.57165086
-0.67419571 -0.17823339 -0.57932413
-0.67852443 -0.17989035 -0.57511336
-0.6866985 -0.1783964 -0.57357281
-0.69357544 -0.17840745 -0.57529253
-0.70035064 -0.17716223 -0.57628995
-0.70465118 -0.17396669 -0.57177979
-0.66369432 -0.19093208 -0.57131958
-0.67380428 -0.18850689 -0.57422328
-0.67909771 -0.18724847 -0.57401568
-0.68459958 -0.18681377 -0.57278895
-0.69399798 -0.18783234 -0.57344908
-0.6624878 -0.19709004 -0.57679534
-0.66497457 -0.19816899 -0.57138729
-0.67341989 -0.19487485 -0.57243001
-0.67678708 -0.19586395 -0.56997991
-0.68510705 -0.19893491 -0.57224828
-0.69174904 -0.20072901 -0.57359749
-0.65926236 -0.20476681 -0.5718872
-0.66485757 -0.20562991 -0.57416725
-0.67178982 -0.2022436 -0.57025909
-0.6779412 -0.20152819 -0.575459
-0.68843317 -0.20282483 -0.5753926
-0.6934678 -0.17069265 -0.58310729
-0.70030421 -0.16861036 -0.5868603
-0.67808223 -0.18089542 -0.58869046
-0.68453705 -0.17972621 -0.58700031
-0.69213963 -0.17996308 -0.58198482
-0.69916123 -0.17500859 -0.58496106
-0.70502615 -0.17810252 -0.58506244
-0.7103439 -0.17385042 -0.58298236
-0.65105575 -0.19170055 -0.58172578
-0.66268194 -0.18784827 -0.58481193
-0.67932391 -0.18960966 -0.58246183
-0.68685234 -0.18921147 -0.58066177
-0.69012505 -0.18776707 -0.58347577
-0.6990701 -0.18645576 -0.58308291
-0.67357653 -0.19698571 -0.58203387
-0.68088782 -0.19826594 -0.58008057
-0.68853706 -0.19646123 -0.58144701
-0.69942999 -0.16903794 -0.59426725
-0.70645893 -0.17160107 -0.59500325
-0.71189934 -0.16944331 -0.59436983
-0.71893293 -0.17224436 -0.59584475
-0.72686237 -0.17106995 -0.59714204
-0.68150377 -0.18089172 -0.59389591
-0.68737441 -0.18254408 -0.59346497
-0.69426155 -0.18078895 -0.59626061
-0.69988835 -0.17905992 -0.59219599
-0.70403236 -0.1789142 -0.58972716
-0.71711886 -0.17820162 -0.59519005
-0.6799261 -0.1900764 -0.59127569
-0.68689162 -0.18930683 -0.59275693
-0.69231915 -0.18599477 -0.59157676
-0.69901288 -0.18986967 -0.59572721
-0.70423388 -0.18700238 -0.59256136
-0.71021366 -0.18522072 -0.59291911
-0.67841882 -0.20085669 -0.59205186
-0.6858809 -0.19859731 -0.58980906
-0.6940127 -0.19750836 -0.58914477
-0.69818962 -0.19788599 -0.59373713
-0.68791038 -0.17538516 -0.60010523
-0.69308573 -0.17479458 -0.60693043
-0.69987971 -0.17587237 -0.60785955
-0.70659614 -0.17263111 -0.60369527
-0.71255672 -0.16936913 -0.60295719
-0.71836841 -0.16976729 -0.60162365
-0.7259112 -0.16926922 -0.60561454
-0.73770356 -0.17319921 -0.60739303
-0.67954892 -0.17728972 -0.60540324
-0.68890476 -0.18054822 -0.60574585
-0.6946798 -0.17770854 -0.60336161
-0.7005325 -0.18325439 -0.60091805
-0.70730674 -0.18185544 -0.60283357
-0.71375322 -0.18312714 -0.60360587
-0.67513061 -0.19131759 -0.59713793
-0.67728823 -0.194143 -0.59766781
-0.68461376 -0.19200426 -0.60339433
-0.69240957 -0.19047174 -0.60025364
-0.70066816 -0.18922961 -0.60045671
-0.70457071 -0.18795203 -0.60296214
-0.68361402 -0.19970018 -0.59908462
-0.69218135 -0.19997518 -0.59974116
-0.6988216 -0.19803163 -0.5989396
-0.70572209 -0.19867538 -0.59744269
-0.70420486 -0.16448456 -0.61276549
-0.71379906 -0.16628724 -0.61411506
-0.71820247 -0.16310021 -0.61360925
-0.73217779 -0.16345134 -0.61704206
-0.70243591 -0.17464173 -0.60884035
-0.70451421 -0.17239255 -0.61268723
-0.71248132 -0.17299828 -0.61302716
-0.7212674 -0.17248294 -0.61193323
-0.72637874 -0.17062078 -0.61357862
-0.73314232 -0.16824332 -0.60942757
-0.69238216 -0.18225572 -0.61403096
-0.70152205 -0.18148082 -0.6105718
-0.70479417 -0.18074271 -0.61201662
-0.71291888 -0.18136016 -0.61198598
-0.71975881 -0.18070531 -0.61309892
-0.72682083 -0.18428513 -0.61486948
-0.68835467 -0.19177552 -0.61103523
-0.69401151 -0.18895589 -0.61335427
-0.69805205 -0.19353774 -0.61032706
-0.70660496 -0.19236165 -0.60943455
-0.72240353 -0.19199342 -0.60959828
-0.70705593 -0.19817045 -0.61066353
-0.71513772 -0.16473141 -0.62505496
-0.72063774 -0.16216314 -0.62618417
-0.72470361 -0.16551493 -0.62253952
-0.73213035 -0.16210237 -0.6255573
-0.73904836 -0.16222578 -0.62625331
-0.70065576 -0.17449588 -0.61803901
-0.70897031 -0.17406988 -0.61956906
-0.71261072 -0.17420408 -0.61905771
-0.72052735 -0.17352192 -0.62203526
-0.72672254 -0.17399684 -0.62351215
-0.73330683 -0.17128339 -0.6265403
-0.73923504 -0.17077926 -0.62169397
-0.69947749 -0.18529448 -0.62070626
-0.70760024 -0.18222436 -0.62425202
-0.71162391 -0.182087 -0.62076104
-0.71955383 -0.18264365 -0.62007159
-0.72896385 -0.1809155 -0.61649287
-0.69121546 -0.19380632 -0.62280583
-0.70006871 -0.19222055 -0.61710542
-0.7061395 -0.19163404 -0.62296212
-0.71347183 -0.19184077 -0.61856192
-0.72478551 -0.19358772 -0.62355822
-0.72881818 -0.16141567 -0.63587075
-0.70675761 -0.16783056 -0.6331445
-0.72088891 -0.16770524 -0.62814075
-0.72608364 -0.16456932 -0.63261873
-0.73139602 -0.16820049 -0.63251883
-0.73878139 -0.16611865 -0.63322973
-0.74632293 -0.16683912 -0.63266671
-0.75090617 -0.16635856 -0.63685763
-0.76007414 -0.16183874 -0.63678515
-0.70604253 -0.17737603 -0.63181996
-0.71234596 -0.17516631 -0.63320965
-0.71598935 -0.17299128 -0.6294626
-0.7262162 -0.17504701 -0.63194591
-0.73328096 -0.17371792 -0.63298541
-0.74853593 -0.17353895 -0.63449037
-0.75316828 -0.17530259 -0.63233799
-0.69592774 -0.18977831 -0.63197708
-0.70576382 -0.18647996 -0.62958449
-0.71458143 -0.18272105 -0.63107336
-0.71792626 -0.18339831 -0.63000393
-0.72651851 -0.18263912 -0.63105977
-0.73582864 -0.18224201 -0.62786889
-0.69439602 -0.19313115 -0.62555808
-0.74657631 -0.15891896 -0.64144146
-0.76640904 -0.16051626 -0.64078844
-0.72021216 -0.17074245 -0.64160448
-0.72817147 -0.16754743 -0.63939345
-0.7340644 -0.16621323 -0.64107656
-0.73697633 -0.16720486 -0.63939452
-0.7469396 -0.16686288 -0.64119482
-0.75077724 -0.16614784 -0.6414237
-0.76053572 -0.16801789 -0.63776493
-0.71934021 -0.17579816 -0.64237285
-0.72573406 -0.17658731 -0.63939661
-0.7335307 -0.17497173 -0.64363074
-0.74051529 -0.17836782 -0.64234096
-0.69220889 -0.19050846 -0.6386835
-0.71312541 -0.18673891 -0.63654894
-0.72163892 -0.18709663 -0.64014161
-0.72515273 -0.18559143 -0.64015925
-0.73262006 -0.18335608 -0.64093035
-0.7488848 -0.18910158 -0.63723415
-0.73248047 -0.15792046 -0.64977038
-0.73833257 -0.16092899 -0.6514473
-0.74470693 -0.16245383 -0.65313298
-0.75307256 -0.16066357 -0.65372407
-0.7595216 -0.15977848 -0.64855444
-0.7645793 -0.15787864 -0.65453035
-0.77080005 -0.15764038 -0.65284693
-0.77845734 -0.15700492 -0.65420324
-0.72486591 -0.17155719 -0.64957386
-0.73363936 -0.168166 -0.64965767
-0.73913383 -0.17056733 -0.64943039
-0.7456134 -0.1688249 -0.65014023
-0.7530874 -0.16973166 -0.64955425
-0.70886546 -0.18079937 -0.64557797
-0.71557152 -0.18252748 -0.64897233
-0.71956378 -0.17865768 -0.64894605
-0.72607887 -0.17873026 -0.65164268
-0.73284978 -0.17806637 -0.64805496
-0.73846203 -0.1768994 -0.65254831
-0.74609864 -0.17964262 -0.64628953
-0.75637078 -0.18056285 -0.64507341
-0.71927583 -0.18756709 -0.64815062
-0.72983599 -0.18770519 -0.65173745
-0.73804903 -0.18752526 -0.64978921
-0.76003754 -0.18929455 -0.64771914
-0.73527086 -0.15795898 -0.66213804
-0.73944539 -0.16283925 -0.65848267
-0.74703193 -0.16033152 -0.66268021
-0.75357616 -0.16212878 -0.66280186
-0.75952744 -0.15974781 -0.66121262
-0.76410341 -0.16053221 -0.66307491
-0.77260768 -0.15601259 -0.66317737
-0.7801258 -0.1574086 -0.66489077
-0.78317875 -0.15658632 -0.66638952
-0.73939872 -0.17200679 -0.66088498
-0.74701339 -0.17046982 -0.65908676
-0.75144494 -0.17019396 -0.66085029
-0.76255757 -0.16897443 -0.65801221
-0.76648897 -0.17152849 -0.65777469
-0.72187322 -0.18452123 -0.66246563
-0.72265464 -0.18161866 -0.65452409
-0.73160905 -0.17841025 -0.65655702
-0.74104381 -0.17917627 -0.65781289
-0.74677962 -0.18032654 -0.66095036
-0.75243443 -0.17653404 -0.66184884
-0.71972924 -0.18659465 -0.65690994
-0.73126072 -0.18717128 -0.6551159
-0.73675561 -0.18752947 -0.65800834
-0.74640405 -0.18573268 -0.65805137
-0.75872362 -0.15725325 -0.67416823
-0.78569704 -0.15460454 -0.66965705
-0.79432654 -0.15448694 -0.67188627
-0.74852228 -0.16034989 -0.66843188
-0.75162697 -0.16263756 -0.66898513
-0.75823832 -0.16283147 -0.66958034
-0.76602399 -0.16209731 -0.6708914
-0.77085072 -0.15942585 -0.66896403
-0.78677875 -0.15916261 -0.67119354
-0.73062688 -0.17220846 -0.66615582
-0.73727489 -0.17513677 -0.66609782
-0.74513805 -0.17264977 -0.67023522
-0.75263578 -0.17102146 -0.66978431
-0.75838268 -0.17121643 -0.66975456
-0.76832879 -0.16968659 -0.66702932
-0.7739327 -0.17155768 -0.67072552
-0.77783847 -0.17161268 -0.66845679
-0.73347211 -0.18294019 -0.66773522
-0.73576856 -0.18428728 -0.66967875
-0.7450856 -0.18153286 -0.66619384
-0.7508589 -0.17925106 -0.66781205
-0.76019233 -0.18531647 -0.66359669
-0.75536984 -0.15485731 -0.6795181
-0.76207668 -0.15395384 -0.68187976
-0.76559842 -0.15431024 -0.67973918
-0.77193731 -0.15543649 -0.68232387
-0.77862251 -0.15384892 -0.68049914
-0.78596598 -0.1530454 -0.68100852
-0.79365385 -0.15658665 -0.68263882
-0.74870908 -0.16667792 -0.67924774
-0.75488073 -0.15983543 -0.68022209
-0.75980026 -0.16599417 -0.68016249
-0.76612228 -0.16230099 -0.67740649
-0.76967609 -0.16330576 -0.67925125
-0.7800532 -0.16398019 -0.68376303
-0.74023908 -0.17375979 -0.6743558
-0.74667907 -0.17330834 -0.67645842
-0.75206953 -0.17269388 -0.6772266
-0.75880545 -0.17344892 -0.67930847
-0.7654264 -0.17254221 -0.68134415
-0.77772057 -0.16948812 -0.67852008
-0.73460877 -0.18013248 -0.67498356
-0.74578565 -0.18164209 -0.67622179
-0.75313848 -0.18126827 -0.67712206
-0.76569915 -0.15516043 -0.68902755
-0.77236855 -0.15341286 -0.6923461
-0.77872986 -0.15508497 -0.69143897
-0.78545421 -0.15529546 -0.69142729
-0.7922861 -0.15493685 -0.69180769
-0.800529 -0.15401068 -0.69408417
-0.76029366 -0.16470116 -0.68936586
-0.7666955 -0.16385105 -0.6875878
-0.77319282 -0.16504554 -0.68840563
-0.77721143 -0.16700301 -0.68973309
-0.78358978 -0.16334015 -0.68668884
-0.73869455 -0.17610261 -0.68432724
-0.74722201 -0.17579275 -0.68736726
-0.75174189 -0.17418584 -0.68423551
-0.75926167 -0.17454979 -0.68790895
-0.76482451 -0.17402941 -0.68835282
-0.77378035 -0.17593691 -0.68553358
-0.77830511 -0.17161611 -0.69118869
-0.76492465 -0.17971992 -0.68632954
-0.77549314 -0.14893329 -0.69835454
-0.77822483 -0.14864954 -0.70083296
-0.78469676 -0.14819472 -0.69905871
-0.79250449 -0.14757881 -0.70260799
-0.76376528 -0.15920791 -0.70166105
-0.7749061 -0.15867621 -0.7012291
-0.77772897 -0.15994962 -0.69685727
-0.78634167 -0.15583983 -0.70043421
-0.79301441 -0.15649873 -0.69858402
-0.79661483 -0.15213022 -0.69555938
-0.80508316 -0.15554443 -0.70182258
-0.81534058 -0.15556806 -0.69885659
-0.75699061 -0.16354792 -0.70028502
-0.76486826 -0.16450554 -0.69724739
-0.77183717 -0.16666634 -0.69843292
-0.78036195 -0.16487175 -0.69724983
-0.7865383 -0.16390872 -0.70070815
-0.75464749 -0.17619953 -0.69655973
-0.75977546 -0.17656524 -0.69685429
-0.76527029 -0.17548291 -0.69688654
-0.77226901 -0.17579299 -0.69776398
-0.77946848 -0.17420194 -0.69749707
-0.78986162 -0.17215717 -0.69975358
-0.78051692 -0.14872201 -0.70978421
-0.78481114 -0.14908107 -0.70782006
-0.79379106 -0.14800891 -0.70950043
-0.79980922 -0.14857943 -0.70942122
-0.8067311 -0.14828193 -0.70996773
-0.81410849 -0.15054937 -0.71328008
-0.76760226 -0.16106167 -0.70588058
-0.77256846 -0.15973139 -0.70710903
-0.77894986 -0.15865086 -0.70974368
-0.7875163 -0.16060144 -0.70728326
-0.79177684 -0.15924299 -0.70710516
-0.79814041 -0.15510195 -0.70831239
-0.80400771 -0.1599768 -0.71046537
-0.75250119 -0.16961063 -0.70489758
-0.76856762 -0.1715975 -0.70880848
-0.77180433 -0.1657225 -0.70818394
-0.78052682 -0.1684486 -0.7108838
-0.78650868 -0.16888043 -0.70854026
-0.79259753 -0.16658172 -0.71120411
-0.79699719 -0.16394086 -0.7074092
-0.76102197 -0.17436008 -0.70601779
-0.7658512 -0.17447533 -0.70699471
-0.77294582 -0.17593786 -0.70598888
-0.77839971 -0.17592391 -0.70537788
-0.78695798 -0.17571284 -0.70440334
-0.7899605 -0.17656064 -0.70433736
-0.77741736 -0.15081379 -0.71646082
-0.78537536 -0.15098387 -0.72069204
-0.79294717 -0.15012169 -0.71724403
-0.79981226 -0.15056305 -0.72166938
-0.80571997 -0.14938521 -0.72044313
-0.81133056 -0.14870739 -0.71779817
-0.81915534 -0.14603178 -0.71835208
-0.77386808 -0.16115746 -0.71772778
-0.78116679 -0.15990123 -0.71579498
-0.78650939 -0.15838216 -0.71954888
-0.79409027 -0.16038412 -0.71696705
-0.79802406 -0.15772256 -0.71697259
-0.76579094 -0.17254853 -0.71441698
-0.77092934 -0.17002305 -0.71481329
-0.77845293 -0.16801791 -0.71927297
-0.78778481 -0.16627324 -0.72117954
-0.79285342 -0.16970614 -0.71554685
-0.79981655 -0.16433351 -0.71579963
-0.80318666 -0.16352737 -0.71313238
-0.80940962 -0.16462544 -0.71801257
-0.79953057 -0.17405538 -0.71444803
-0.81288719 -0.14318965 -0.73292422
-0.7923736 -0.15225525 -0.72831947
-0.80048209 -0.15218961 -0.72864377
-0.80399597 -0.15107852 -0.72826177
-0.81358284 -0.14967895 -0.72909409
-0.81837112 -0.14766668 -0.72847968
-0.8279233 -0.14874123 -0.72601074
-0.78017765 -0.161244 -0.72972405
-0.78460377 -0.16300014 -0.72448379
-0.79472369 -0.16152768 -0.72818416
-0.7996822 -0.15961425 -0.72830409
-0.80515999 -0.16264004 -0.72842628
-0.81319737 -0.16028017 -0.72670203
-0.77502483 -0.17097467 -0.72184241
-0.77947348 -0.16850936 -0.72295636
-0.78660673 -0.1678808 -0.72573435
-0.79108471 -0.17120329 -0.72724348
-0.80164135 -0.16599755 -0.72590858
-0.80586481 -0.16603307 -0.72377574
-0.80152053 -0.14610988 -0.73663491
-0.80502498 -0.14294028 -0.73796141
-0.81347311 -0.14411853 -0.73908091
-0.82537699 -0.14433587 -0.74069518
-0.79975921 -0.15358314 -0.73990333
-0.80582857 -0.15199852 -0.73732531
-0.81219172 -0.154506 -0.73814887
-0.82030839 -0.15065536 -0.73751032
-0.83100319 -0.1526629 -0.74157315
-0.77956915 -0.15944441 -0.73614383
-0.79274201 -0.1633985 -0.73544276
-0.79950923 -0.16139188 -0.73643279
-0.80836928 -0.16182229 -0.73644459
-0.81178904 -0.16161944 -0.73582369
-0.81693691 -0.15837546 -0.73602313
-0.81210005 -0.1664419 -0.73508638
-0.79730821 -0.14324029 -0.74677175
-0.81392318 -0.1451105 -0.74502522
-0.81966352 -0.14462006 -0.7473768
-0.8234728 -0.14173809 -0.75123525
-0.83245236 -0.14259934 -0.75094062
-0.79429018 -0.15657732 -0.74818903
-0.79673243 -0.14875454 -0.7448287
-0.80528849 -0.15465844 -0.74584264
-0.81345868 -0.15452003 -0.74705654
-0.82012838 -0.15301293 -0.74882478
-0.82840031 -0.15028906 -0.74830002
-0.79345363 -0.16232058 -0.74625969
-0.80031496 -0.16641659 -0.74572825
-0.80615443 -0.16432762 -0.74661762
-0.81246573 -0.16306916 -0.74737906
-0.81736648 -0.16220731 -0.7460385
-0.84061885 -0.13905591 -0.75886732
-0.8145901 -0.14574759 -0.75567889
-0.8201195 -0.1438847 -0.75344563
-0.82372832 -0.14259906 -0.75992918
-0.83311087 -0.1446068 -0.75625962
-0.83758926 -0.14201203 -0.75622475
-0.8119145 -0.15461615 -0.75407779
-0.81870288 -0.15371948 -0.75535929
-0.8274194 -0.15459606 -0.75761127
-0.80118155 -0.16480953 -0.7516216
-0.81745225 -0.16336411 -0.75728089
-0.82408625 -0.16494355 -0.75728619
-0.8313728 -0.15993163 -0.75907123
-0.82005143 -0.13777165 -0.76586324
-0.82521039 -0.13723946 -0.76525038
-0.83364755 -0.13999091 -0.76901478
-0.83817232 -0.13817789 -0.76940018
-0.85223556 -0.13771392 -0.767717
-0.81929564 -0.14844492 -0.76798761
-0.82541537 -0.1459842 -0.76577657
-0.83223122 -0.14751157 -0.7670179
-0.8370508 -0.15025473 -0.76684505
-0.84409362 -0.14628401 -0.76646477
-0.80859292 -0.15174855 -0.767874
-0.81297863 -0.15311483 -0.76530921
-0.81997997 -0.15481852 -0.7662372
-0.8272565 -0.1550518 -0.76668662
-0.82917565 -0.16407946 -0.76181817
-0.82692546 -0.14065519 -0.77828646
-0.83444381 -0.14154306 -0.77537745
-0.83992654 -0.13826191 -0.77430695
-0.84569097 -0.13798973 -0.77754468
-0.84971148 -0.13989341 -0.77990735
-0.86287183 -0.13535173 -0.77613044
-0.82672703 -0.14804959 -0.7785784
-0.83233941 -0.14908598 -0.77768457
-0.83585352 -0.14597322 -0.77294254
-0.84401375 -0.14327547 -0.77509904
-0.85146517 -0.14584163 -0.77696288
-0.81656349 -0.1561377 -0.77526343
-0.82610995 -0.15529132 -0.77612889
-0.83173215 -0.15796286 -0.775114
-0.84122092 -0.15796371 -0.77775931
-0.84625512 -0.15761121 -0.77871633
-0.83970141 -0.13376471 -0.7895301
-0.82375711 -0.1386683 -0.79127878
-0.82973135 -0.13645956 -0.7867347
-0.83991134 -0.13986257 -0.7855674
-0.84303123 -0.13868861 -0.78577995
-0.85261768 -0.13708334 -0.78657568
-0.86501741 -0.14101854 -0.78833586
-0.87571144 -0.13575189 -0.78809416
-0.82416677 -0.1502489 -0.78676164
-0.83086675 -0.15001467 -0.78340763
-0.84078181 -0.1483216 -0.78708982
-0.8453908 -0.14671353 -0.78343982
-0.81971568 -0.15664655 -0.78161067
-0.84495693 -0.15586534 -0.78576446
-0.85003179 -0.15701577 -0.78618956
-0.85012847 -0.13032787 -0.79765105
-0.85967034 -0.13259324 -0.79526001
-0.82593089 -0.14522575 -0.79262841
-0.83302444 -0.14117803 -0.79242486
-0.84125358 -0.13800168 -0.79887635
-0.84613502 -0.13928051 -0.79802543
-0.85187739 -0.13953692 -0.79356432
-0.8638857 -0.13947946 -0.79649609
-0.82077622 -0.15231332 -0.79226089
-0.83510488 -0.15119325 -0.79060179
-0.83893651 -0.1516811 -0.79276246
-0.84680331 -0.15315294 -0.7960301
-0.85179061 -0.14658634 -0.79204106
-0.86024421 -0.14994696 -0.79501522
-0.84325027 -0.13391846 -0.80213594
-0.85853934 -0.13340263 -0.80530238
-0.86678833 -0.13314079 -0.80824274
-0.87280381 -0.1331728 -0.80645818
-0.87748748 -0.13147016 -0.8051306
-0.88828874 -0.13397644 -0.80958247
-0.83951908 -0.14213809 -0.80285203
-0.84613299 -0.1411383 -0.80197483
-0.85129011 -0.13930985 -0.8038578
-0.85751384 -0.14358118 -0.80339772
-0.8655895 -0.14096342 -0.80371535
-0.870992 -0.13808647 -0.80538297
-0.8778764 -0.13792187 -0.80635399
-0.83956409 -0.15033695 -0.80574882
-0.84542078 -0.15300353 -0.80257291
-0.85280699 -0.15167291 -0.80414271
-0.86023992 -0.15185744 -0.8034609
-0.86465663 -0.14990216 -0.80366528
-0.84514934 -0.1316053 -0.81977165
-0.85225195 -0.13399033 -0.81274879
-0.85778654 -0.13725388 -0.81482232
-0.86655903 -0.13672584 -0.81668252
-0.87369949 -0.1330581 -0.81655842
-0.89127207 -0.13273877 -0.81632292
-0.83489913 -0.14765234 -0.81371909
-0.85318488 -0.14435798 -0.81370157
-0.8595103 -0.1397002 -0.81210494
-0.86339122 -0.14173265 -0.81328166
-0.86949205 -0.14419982 -0.81538194
-0.88103122 -0.13917127 -0.81109202
-0.88369316 -0.14866239 -0.81371957
-0.85009533 -0.1276302 -0.8267532
-0.87297326 -0.12930083 -0.823901
-0.87912858 -0.12685846 -0.82647246
-0.88599014 -0.12601367 -0.82719296
-0.85402346 -0.1334357 -0.82706958
-0.85937953 -0.13559353 -0.82535505
-0.86642718 -0.13632973 -0.8240726
-0.87137938 -0.13702855 -0.82580411
-0.87935185 -0.13639218 -0.82452214
-0.88533074 -0.13559146 -0.82573199
-0.84101093 -0.14482388 -0.82653767
-0.84688675 -0.1450793 -0.82392025
-0.85942984 -0.14551196 -0.82362306
-0.86542434 -0.14876017 -0.82565284
-0.87032944 -0.14216065 -0.82301849
-0.87618041 -0.14398763 -0.82444656
-0.89002877 -0.14065903 -0.82183617
-0.87173963 -0.12820409 -0.8356604
-0.88031191 -0.12814875 -0.83584338
-0.88400429 -0.12628518 -0.83502972
-0.89337945 -0.12744012 -0.83625191
-0.89891177 -0.12700002 -0.8357392
-0.86551565 -0.13416876 -0.83018821
-0.87350577 -0.13291109 -0.83819389
-0.87892801 -0.13727306 -0.83431196
-0.88569021 -0.13673149 -0.83180058
-0.85336256 -0.14704289 -0.83064294
-0.86609173 -0.14596374 -0.83341831
-0.87864524 -0.14684591 -0.83518547
-0.88412839 -0.14462529 -0.82967204
-0.88939404 -0.14447129 -0.83712822
-0.88026631 -0.12869284 -0.84399599
-0.88770366 -0.13344343 -0.8449195
-0.89033294 -0.12726752 -0.84496611
-0.89723533 -0.13265572 -0.84618133
-0.91702414 -0.12491714 -0.84751087
-0.85956395 -0.13320637 -0.83975708
-0.86560059 -0.13752702 -0.83986461
-0.87488252 -0.14016889 -0.84472829
-0.87881285 -0.13519184 -0.83903122
-0.88527346 -0.13822745 -0.84305209
-0.89230919 -0.13750073 -0.84257275
-0.86467785 -0.1453514 -0.83984697
-0.88561195 -0.12209699 -0.85212487
-0.89156502 -0.1211726 -0.85522735
-0.89942169 -0.12123836 -0.85721749
-0.90759182 -0.12080341 -0.85832214
-0.87367803 -0.12882203 -0.85197544
-0.87872821 -0.13297172 -0.85125834
-0.88617826 -0.13089447 -0.85239434
-0.89318764 -0.13065156 -0.8522169
-0.8995474 -0.1292749 -0.85418749
-0.90367407 -0.13116547 -0.85268545
-0.90950125 -0.12628767 -0.84955597
-0.91681844 -0.13015348 -0.8566705
-0.87375081 -0.13928705 -0.85229272
-0.87906557 -0.14117783 -0.8516466
-0.88588381 -0.1397002 -0.85327876
-0.89150882 -0.14005512 -0.85112417
-0.90163118 -0.1361481 -0.85447907
-0.90457612 -0.14096381 -0.85343361
-0.8853091 -0.11984071 -0.86333257
-0.89874893 -0.12242654 -0.86467916
-0.90544695 -0.12313166 -0.86305082
-0.91221386 -0.12026627 -0.86233616
-0.92089945 -0.12135953 -0.86063814
-0.92345548 -0.12169464 -0.86548364
-0.92914826 -0.1249272 -0.86108398
-0.88023812 -0.13546935 -0.86474705
-0.88768113 -0.13284463 -0.85845155
-0.89304167 -0.13288283 -0.86294538
-0.89720035 -0.13157068 -0.86278188
-0.90565437 -0.13171765 -0.86425543
-0.9124893 -0.1324134 -0.85947412
-0.8845576 -0.13894343 -0.86460185
-0.89426243 -0.13982242 -0.86130345
-0.89772826 -0.14053947 -0.86002243
-0.92436153 -0.13997939 -0.8653422
-0.88857627 -0.12316173 -0.8715561
-0.89815837 -0.12398473 -0.87304616
-0.90338856 -0.12416014 -0.87650597
-0.91376156 -0.12168332 -0.87244385
-0.91773403 -0.12484436 -0.87128651
-0.92292696 -0.1265424 -0.87401086
-0.93131137 -0.12162656 -0.87580097
-0.89221627 -0.13766447 -0.87418807
-0.90337509 -0.13169505 -0.87196195
-0.91069454 -0.13122025 -0.87379694
-0.91604596 -0.12917009 -0.87495464
-0.9259606 -0.13085458 -0.87372583
-0.90644175 -0.13894545 -0.8708654
-0.91944289 -0.11610903 -0.88465822
-0.94496578 -0.11629737 -0.88395071
-0.9491607 -0.11941642 -0.88449895
-0.89799803 -0.12833434 -0.87866515
-0.90700608 -0.12672481 -0.88145703
-0.91104847 -0.12404619 -0.88231015
-0.91942811 -0.12140324 -0.88306725
-0.89052171 -0.13422525 -0.87739658
-0.9059968 -0.13539621 -0.88388085
-0.91019368 -0.13323174 -0.88066572
-0.92561412 -0.13630594 -0.88173538
-0.91603142 -0.11875378 -0.89106566
-0.92805958 -0.11493555 -0.89011252
-0.93100214 -0.12067939 -0.89407223
-0.94132763 -0.11564911 -0.89340943
-0.952416 -0.11478691 -0.8953402
-0.96635729 -0.11546127 -0.89198709
-0.99988562 -0.11852009 -0.89052409
-0.90576136 -0.12481363 -0.89241105
-0.91314369 -0.12337274 -0.89174408
-0.91926873 -0.12448209 -0.89172196
-0.92485499 -0.12554838 -0.89212817
-0.93791109 -0.12436561 -0.88763082
-0.94261783 -0.12121001 -0.89137405
-0.92389053 -0.13343874 -0.8886255
-0.93349415 -0.13225132 -0.89085305
-0.90676457 -0.11926755 -0.8997997
-0.92431849 -0.11771218 -0.90049529
-0.93130952 -0.12023856 -0.90192574
-0.93668675 -0.11695774 -0.90188611
-0.94735473 -0.11628507 -0.90172493
-0.96771437 -0.11871439 -0.90443563
-0.97238946 -0.11526296 -0.90053672
-0.97990453 -0.11554411 -0.90171283
-0.98429739 -0.11891571 -0.90013325
-0.91117316 -0.12929209 -0.89620692
-0.92522222 -0.12911034 -0.89861
-0.93374032 -0.12508658 -0.89944065
-0.93803126 -0.12884769 -0.90159988
-0.94353551 -0.12935762 -0.9032355
-0.95039415 -0.12725373 -0.900172
-0.96725011 -0.12274743 -0.89846635
-0.94522005 -0.13213536 -0.90118951
-0.93290615 -0.11390687 -0.91026378
-0.95288676 -0.11206082 -0.90869904
-0.91312236 -0.11886041 -0.91066658
-0.92006361 -0.1197361 -0.90770322
-0.93209028 -0.1169802 -0.91245282
-0.93562824 -0.12107757 -0.91382134
-0.9449603 -0.11774395 -0.91087544
-0.94891649 -0.11972831 -0.91533595
-0.95831382 -0.11590874 -0.91170144
-0.96479356 -0.11692804 -0.90895146
-0.97894013 -0.12239996 -0.91199762
-0.98659927 -0.11691595 -0.91239148
-0.9321335 -0.12650947 -0.90997541
-0.93830901 -0.12593086 -0.90898842
-0.9476428 -0.12765457 -0.91287833
-0.95850629 -0.12653697 -0.9121573
-0.96647155 -0.12749118 -0.91093558
-0.93841696 -0.11459877 -0.92061245
-0.95132613 -0.11473435 -0.91631877
-0.95700276 -0.10917454 -0.92037266
-0.97283983 -0.11042322 -0.92304492
-0.97566211 -0.10925965 -0.92593157
-0.9847573 -0.11464904 -0.91699302
-0.92884123 -0.11730658 -0.92099321
-0.95319796 -0.11912093 -0.92329103
-0.96070248 -0.11767033 -0.9212864
-0.96597433 -0.12140751 -0.91954058
-0.97465503 -0.1212173 -0.91771913
-0.9782989 -0.11887869 -0.92190713
-0.98303521 -0.11507767 -0.91938084
-0.94117218 -0.12667716 -0.9219265
-0.95218587 -0.12792479 -0.9179635
-0.96447939 -0.12445693 -0.91633284
-0.93507409 -0.11442213 -0.93406552
-0.94619191 -0.11212713 -0.92964578
-0.95824283 -0.11551832 -0.92749017
-0.96648055 -0.10778777 -0.93362421
-0.9797039 -0.10942692 -0.93060946
-0.98368877 -0.11153491 -0.93339217
-0.9277963 -0.11725608 -0.92601758
-0.93557817 -0.12462176 -0.92873639
-0.95157146 -0.12159497 -0.92899454
-0.96130329 -0.12401924 -0.93116915
-0.96511197 -0.1240131 -0.92741084
-0.97174346 -0.12112665 -0.93123311
-0.97625303 -0.11732881 -0.93194425
-0.98519248 -0.10636435 -0.94414586
-0.99665296 -0.10790715 -0.94183308
-0.96093595 -0.11441295 -0.94363493
-0.96891862 -0.11739319 -0.93647879
-0.97850758 -0.11448558 -0.94083089
-0.98490679 -0.11360688 -0.93784642
-0.99767864 -0.112417 -0.93591553
-0.97192192 -0.1219229 -0.93716043
-0.97870052 -0.12189221 -0.93746096
-0.98414057 -0.10484171 -0.94935793
