# .PCD v0.7 - Point Cloud Data file format
VERSION 0.7
FIELDS x y z
SIZE 4 4 4
TYPE F F F
COUNT 1 1 1
WIDTH 1429
HEIGHT 1
VIEWPOINT 0 0 0 1 0 0 0
POINTS 1429
DATA ascii
0.15490656 -0.096895061 1.2749937
0.16561376 -0.096344315 1.2750403
0.17560124 -0.095910341 1.2752409
0.1848347 -0.096056208 1.2750195
0.19564955 -0.095327653 1.2749834
0.20437872 -0.094919212 1.2746243
0.21510296 -0.094832294 1.2749488
0.22512898 -0.094637297 1.2756709
0.23524898 -0.094536565 1.2752243
0.2446674 -0.093855493 1.2747982
0.25558597 -0.093658172 1.2751542
0.26535627 -0.093351372 1.2754068
0.27523544 -0.093106151 1.2743932
0.28478497 -0.093039453 1.2753357
0.29495677 -0.093073681 1.2750771
0.30502838 -0.092954181 1.27528
0.31504822 -0.092715286 1.2755067
0.32527858 -0.092224203 1.275755
0.3351303 -0.091943398 1.2757604
0.34544823 -0.09196838 1.2756615
0.35494629 -0.091803424 1.27645
0.365035 -0.091790743 1.2762946
0.37500533 -0.091735721 1.2759798
0.3849324 -0.091301359 1.2762781
0.39511591 -0.091674365 1.2771547
0.40527818 -0.091012031 1.2769581
0.4148376 -0.091033749 1.277317
0.423715 -0.091049947 1.2768589
0.43684512 -0.091234997 1.2765077
0.44571522 -0.090962172 1.2777168
0.45539039 -0.090856642 1.2774745
0.46531934 -0.09083052 1.2784191
0.4726792 -0.090748645 1.2764955
0.48645744 -0.091145448 1.2778289
0.49350414 -0.090337843 1.2786298
0.50415581 -0.092045031 1.2781347
0.51439714 -0.092909001 1.2766966
0.52418774 -0.092359349 1.2779939
0.53615952 -0.092002079 1.2778602
0.54020518 -0.090292722 1.2778233
0.563146 -0.09090361 1.2747666
0.57626081 -0.09067069 1.2757634
0.58078045 -0.094482727 1.277205
0.59778893 -0.095608614 1.2774848
0.60297084 -0.091807634 1.2770717
0.62342477 -0.09358938 1.2770258
0.17203942 -0.089612201 1.271001
0.22270992 -0.089935333 1.2738421
0.23104684 -0.089569196 1.272952
0.24651873 -0.089441292 1.2721113
0.25627536 -0.088957429 1.2729253
0.26069874 -0.089706816 1.2715945
0.27263501 -0.089997463 1.2752975
0.28299057 -0.089348756 1.2741746
0.29698759 -0.089343041 1.2716248
0.30532637 -0.088962317 1.2714036
0.31491125 -0.088658236 1.2716384
0.32488936 -0.089064695 1.2723376
0.33584386 -0.088894717 1.2730675
0.34615165 -0.088625871 1.2729055
0.35550314 -0.089017279 1.273055
0.36493024 -0.088471867 1.2724551
0.37429014 -0.088497967 1.273764
0.38545901 -0.088456623 1.2726988
0.39508498 -0.088501543 1.2741318
0.40464252 -0.088349447 1.2731965
0.41574425 -0.088025883 1.2744681
0.42564657 -0.088110417 1.2744205
0.43535611 -0.087802894 1.2743143
0.44539413 -0.087859094 1.2745394
0.45476702 -0.087328821 1.2744946
0.46467778 -0.087283559 1.2744431
0.4751702 -0.087105095 1.2744396
0.48545921 -0.087118983 1.2753308
0.49480411 -0.086653791 1.274864
0.50506157 -0.086035393 1.2748913
0.51490808 -0.086115412 1.2754271
0.52525312 -0.08600764 1.2748855
0.53521556 -0.085439555 1.2749153
0.5451932 -0.085340835 1.2753873
0.55475193 -0.08481247 1.2748815
0.56480038 -0.084670521 1.274864
0.57484865 -0.084678859 1.275249
0.58498144 -0.084057301 1.2750823
0.59514844 -0.08403261 1.2751946
0.61414391 -0.08349774 1.2753578
-2.104702 -0.1535826 1.2864399
-2.0937023 -0.14537537 1.2842733
-2.044095 -0.1492601 1.2899833
-2.0284212 -0.14903487 1.2811822
-1.9944893 -0.14880595 1.2806494
-1.7386947 -0.14813367 1.2853682
-1.648417 -0.14104052 1.2820498
-2.0955162 -0.13630371 1.2895722
-2.0720289 -0.13764274 1.2854643
-1.7506894 -0.13347912 1.2853357
-1.7366172 -0.13383096 1.289055
-1.7275082 -0.1331853 1.2886916
-1.7045662 -0.13359736 1.2807399
-1.6838515 -0.13104051 1.2886186
-0.57391399 -0.13061307 1.2895597
-1.6842805 -0.12822261 1.2886409
-0.65652263 -0.12563154 1.2871872
-0.642573 -0.12437116 1.2859325
-0.63513047 -0.12542623 1.2854494
-0.6251564 -0.12457009 1.2877904
-0.6146729 -0.12388716 1.284938
-0.60581344 -0.12410332 1.2856865
-0.59397709 -0.12406174 1.2868223
-0.58417237 -0.1221984 1.2849621
-0.57472724 -0.12236223 1.2867388
-0.56438422 -0.1220663 1.2867979
-0.5545488 -0.12166948 1.2863117
-0.54554141 -0.12160797 1.2871135
-0.53551406 -0.12158737 1.2867782
-0.52452868 -0.12117493 1.2866442
-0.51486969 -0.12125587 1.28671
-0.50503922 -0.12114118 1.2870576
-0.49502996 -0.12112221 1.287623
-0.48498017 -0.12116834 1.2873914
-0.47484964 -0.12073284 1.2880027
-0.464748 -0.12068488 1.2878331
-0.45512706 -0.12105558 1.2878522
-0.4460834 -0.12078463 1.2879722
-0.43609422 -0.12149194 1.2883964
-0.42430729 -0.12050667 1.2880292
-0.41411167 -0.12240406 1.2886764
-0.40039015 -0.12012684 1.2884405
-0.37865919 -0.1203411 1.2865713
-0.35685748 -0.12141646 1.2866925
-0.31644076 -0.12105693 1.2896348
-0.29509312 -0.12391302 1.2874732
-0.67436004 -0.11355911 1.2839086
-0.66476828 -0.11352385 1.283595
-0.62356514 -0.11649463 1.2841172
-0.60386145 -0.11957908 1.2820134
-0.59713 -0.11912195 1.2870504
-0.58439666 -0.11878268 1.2827622
-0.57431036 -0.11842599 1.2834927
-0.56510991 -0.11844426 1.2840747
-0.55437607 -0.11869141 1.2833545
-0.54407495 -0.11859413 1.2838262
-0.53491569 -0.11839952 1.2839776
-0.52521521 -0.11799113 1.2840843
-0.51510358 -0.11812527 1.2838813
-0.50502521 -0.11798237 1.2843866
-0.4947651 -0.11760661 1.2838894
-0.48490298 -0.11796359 1.2846134
-0.47522703 -0.11760952 1.2841274
-0.46527013 -0.11750585 1.284083
-0.45502558 -0.11735868 1.284461
-0.44516096 -0.11745453 1.2849323
-0.43468904 -0.11709993 1.2847017
-0.42496127 -0.11715765 1.2849512
-0.41493386 -0.11671799 1.2850271
-0.40498114 -0.11659902 1.2846235
-0.39534122 -0.11643365 1.2850655
-0.38507274 -0.1159998 1.28456
-0.37537831 -0.11570264 1.2851361
-0.3644821 -0.11569954 1.2850341
-0.35475078 -0.11567972 1.2852346
-0.34486496 -0.11504535 1.2845725
-0.33488917 -0.11513829 1.2853748
-0.32499188 -0.11454313 1.2849555
-0.3152613 -0.114629 1.2850947
-0.30529088 -0.11472149 1.2851132
-0.29515588 -0.11425366 1.2853529
-0.28513604 -0.11385648 1.284974
-0.27508491 -0.11393461 1.2851584
-0.26441082 -0.11342103 1.2844319
-0.25521466 -0.11379418 1.2863899
-0.24513917 -0.11280449 1.2849575
-0.23423378 -0.11285318 1.2855084
-0.22584149 -0.11243594 1.285486
-0.21503562 -0.11216478 1.2854824
-0.20487259 -0.11230899 1.285867
-0.19574593 -0.1119164 1.285254
-0.18473017 -0.11175741 1.2857544
-0.17564352 -0.1116985 1.286064
-0.16532049 -0.11135575 1.2866893
-0.15610594 -0.11148438 1.2862086
-0.14565131 -0.11100136 1.2858317
-0.13582774 -0.111192 1.2866316
-0.12523922 -0.11135105 1.2862226
-0.11620683 -0.11131042 1.2867421
-0.10497375 -0.111364 1.2865148
-0.096007213 -0.11141376 1.2869385
-0.083975263 -0.11145396 1.2874972
-0.07535474 -0.11065433 1.2872339
-0.065368555 -0.11117749 1.2872545
-0.054727674 -0.1108199 1.2886006
-0.04557937 -0.11041046 1.2897377
-0.035723764 -0.11068964 1.2881554
-0.023594696 -0.11101373 1.2867895
-0.016555339 -0.11040225 1.287359
0.00090636493 -0.11149965 1.2891741
0.011663352 -0.11210624 1.2894025
0.034015473 -0.1109859 1.2899623
-0.31347638 -0.10882594 1.2828573
-0.29444787 -0.10962791 1.2804058
-0.27373576 -0.10813211 1.2833461
-0.26458657 -0.10910085 1.282077
-0.25436041 -0.10918229 1.2838385
-0.24544406 -0.10807605 1.2845178
-0.23635323 -0.10833545 1.2816387
-0.22463568 -0.10889294 1.2832639
-0.21482122 -0.10884712 1.2825927
-0.20555431 -0.10866205 1.2831911
-0.19508593 -0.10820322 1.2836759
-0.18429737 -0.10821541 1.2828563
-0.17504109 -0.10808027 1.2837076
-0.16465698 -0.10849965 1.2830042
-0.15429598 -0.10829155 1.2831012
-0.14520539 -0.10786171 1.2838441
-0.13488388 -0.10803307 1.2834384
-0.12474674 -0.1075746 1.2833421
-0.11475424 -0.10783238 1.2841319
-0.10499626 -0.10717101 1.2847176
-0.094798632 -0.1073655 1.2846259
-0.085591704 -0.10706141 1.2846736
-0.075073652 -0.10729344 1.2849007
-0.064847916 -0.10688908 1.2846279
-0.054861616 -0.10701814 1.2845142
-0.045079038 -0.10660045 1.2848145
-0.035210673 -0.1064665 1.2843379
-0.024738619 -0.10587266 1.284556
-0.015400537 -0.1061224 1.2843419
-0.0044252747 -0.10580249 1.2850319
0.004934154 -0.10576905 1.2845876
0.015380503 -0.10510904 1.2846316
0.024992032 -0.10481231 1.2855141
0.035063621 -0.10471851 1.2850186
0.045231424 -0.10474075 1.2859522
0.055289101 -0.10377445 1.2848662
0.064896889 -0.10389345 1.2848178
0.075716846 -0.10363954 1.285678
0.085496753 -0.10347848 1.2852393
0.095220134 -0.10331997 1.2851186
0.10501653 -0.10258379 1.2846187
0.11488988 -0.1029719 1.2857907
0.12542163 -0.10273671 1.2856774
0.13453278 -0.10220288 1.2856735
0.14515187 -0.10180658 1.2851465
0.15520912 -0.10177874 1.286757
0.16418199 -0.1015155 1.285704
0.17556463 -0.10173798 1.2865771
0.18464047 -0.10160279 1.286826
0.19462772 -0.10159855 1.2866458
0.20506784 -0.10107364 1.2878585
0.21368629 -0.10139849 1.2870308
0.22378962 -0.10131108 1.2872624
0.23461592 -0.1010546 1.2863551
0.24214651 -0.10082705 1.2874343
0.25480911 -0.10056883 1.2894768
0.26778337 -0.10054657 1.2869442
0.27548468 -0.1001848 1.2886198
0.28346118 -0.10175553 1.2880753
0.29701611 -0.10118076 1.2875998
0.30636296 -0.10064863 1.2893713
0.32926977 -0.10276765 1.2898787
0.60924929 -0.10243706 1.2818111
-0.02120045 -0.09970779 1.2830626
-0.0074305674 -0.09947446 1.2811563
0.00081185618 -0.099450581 1.2818666
0.01108153 -0.099933401 1.2830696
0.025237894 -0.098811246 1.2810309
0.036303073 -0.099594921 1.2823088
0.043713801 -0.09953323 1.2849486
0.052724987 -0.098617725 1.2805641
0.069028407 -0.097861946 1.2808877
0.073616683 -0.099256895 1.2819469
0.087585688 -0.098225802 1.2811459
0.094894759 -0.098794796 1.282504
0.10395773 -0.099152379 1.2844139
0.11650593 -0.098006375 1.282578
0.12523897 -0.098959729 1.2829677
0.13558815 -0.098555066 1.2825072
0.14532188 -0.098752178 1.2825418
0.15481004 -0.098743312 1.2831686
0.16561116 -0.098593622 1.2834715
0.17635998 -0.098890431 1.2838309
0.18515824 -0.09826012 1.284233
0.19489205 -0.098092593 1.283994
0.2048147 -0.097744696 1.2835321
0.21527089 -0.097961634 1.284357
0.22490829 -0.09770827 1.2840388
0.23448718 -0.09739317 1.285219
0.24457245 -0.097073838 1.284814
0.25473228 -0.097050898 1.2843689
0.26520646 -0.096678175 1.2848585
0.27454084 -0.096796915 1.2844224
0.2851992 -0.096780993 1.2855004
0.29534772 -0.095912375 1.2848784
0.30552846 -0.095386341 1.2846811
0.31489027 -0.095871918 1.2858809
0.32450765 -0.095320515 1.2850337
0.33530813 -0.095142722 1.2849621
0.3453944 -0.094804816 1.2848475
0.35505605 -0.094623625 1.2855346
0.36516947 -0.094341442 1.2850411
0.37522373 -0.094187587 1.2854173
0.38433701 -0.093568489 1.2850262
0.39465353 -0.093581125 1.2849597
0.40476057 -0.093346544 1.2851902
0.4144288 -0.093287677 1.2853485
0.42467508 -0.092820339 1.2854685
0.43501571 -0.092787802 1.285404
0.44450837 -0.092447087 1.2850013
0.45494121 -0.092639364 1.285334
0.46457952 -0.092598692 1.2859371
0.47472844 -0.091975383 1.2855566
0.48509821 -0.091816463 1.2855549
0.49482393 -0.091855437 1.2860966
0.50563616 -0.09167099 1.2864846
0.51513416 -0.091712743 1.286166
0.52457225 -0.091399498 1.2870748
0.53457958 -0.091240197 1.2872097
0.54517078 -0.091663361 1.2871301
0.55535674 -0.091058321 1.2873703
0.56458211 -0.091541409 1.2873713
0.57554096 -0.091072761 1.2870132
0.58453327 -0.092083327 1.28661
0.5937683 -0.092780672 1.2848699
0.60335475 -0.092130892 1.2869868
0.61398739 -0.092037916 1.2871287
0.62402982 -0.091667019 1.2853668
0.63564527 -0.094407544 1.2871332
0.41732955 -0.089150608 1.2808356
0.4342272 -0.089553289 1.2806691
0.44502419 -0.088996634 1.2816517
0.45487899 -0.089219332 1.2829804
0.46473971 -0.089021832 1.2823893
0.47469684 -0.089052774 1.2829053
0.50460523 -0.088743262 1.2836206
0.51518267 -0.088436708 1.2837265
0.5451681 -0.088167466 1.2836701
0.57528454 -0.087766245 1.2845889
-2.1335549 -0.1521659 1.2948004
-2.0526221 -0.15621448 1.2924711
-2.0273268 -0.15174006 1.2948476
-1.7731832 -0.15389085 1.2977366
-1.7227911 -0.15183453 1.2977138
-2.0737996 -0.14022498 1.2968522
-2.0366924 -0.14772585 1.2944762
-1.7441322 -0.14017034 1.2989143
-1.7382052 -0.14792484 1.2932454
-1.708951 -0.14127764 1.2969706
-1.6761756 -0.14332297 1.293195
-2.081548 -0.13730465 1.292118
-1.7305062 -0.13250908 1.2947003
-1.7289417 -0.13025668 1.2910382
-1.7056468 -0.13264617 1.2904245
-1.6852317 -0.13580954 1.2912011
-1.6684903 -0.13179791 1.2927431
-1.6264374 -0.13242714 1.2955368
-0.64336181 -0.13244699 1.2973753
-0.63365799 -0.13174129 1.2968825
-0.62023485 -0.13349855 1.2995663
-0.6165837 -0.13060813 1.2913818
-0.43742132 -0.13219044 1.2991678
-0.66991198 -0.126072 1.2977999
-0.65171432 -0.12520334 1.2935846
-0.64280432 -0.12590823 1.2947243
-0.63521516 -0.12775953 1.2932245
-0.62574416 -0.12651648 1.2939827
-0.61609489 -0.12586562 1.2939212
-0.60495901 -0.12654424 1.2946279
-0.59426528 -0.12517683 1.2951689
-0.58502781 -0.1247782 1.2939781
-0.57506526 -0.12469068 1.294474
-0.56489193 -0.12401129 1.2950635
-0.5548628 -0.1240785 1.2946475
-0.54473537 -0.12409186 1.2953124
-0.53492743 -0.12359802 1.2955096
-0.52510399 -0.12360603 1.2954242
-0.51521605 -0.12295777 1.2951442
-0.50486195 -0.12280689 1.2952628
-0.49527416 -0.12282743 1.2955216
-0.48523346 -0.12266277 1.2954447
-0.47502917 -0.12253714 1.2954607
-0.46525279 -0.1224343 1.2953049
-0.45547616 -0.12220982 1.2950625
-0.44494492 -0.12201536 1.295635
-0.43500993 -0.12175626 1.2956874
-0.42528588 -0.12174001 1.2953939
-0.41479129 -0.12163441 1.2967019
-0.40480176 -0.12147138 1.2961532
-0.39508164 -0.1215086 1.2971792
-0.38522005 -0.12122844 1.2964191
-0.37582976 -0.12142609 1.2967253
-0.36560872 -0.12127949 1.296937
-0.35547414 -0.12106004 1.2973735
-0.34592947 -0.12073237 1.296922
-0.33575901 -0.12161189 1.2979456
-0.32561803 -0.12183344 1.2981503
-0.31494179 -0.12115393 1.2977824
-0.30495149 -0.12108698 1.297201
-0.29586449 -0.12155078 1.2973275
-0.28519967 -0.12081272 1.2981534
-0.27652669 -0.12121995 1.2971797
-0.25245851 -0.12007631 1.2967579
-0.24426219 -0.12008023 1.2979605
-0.22199117 -0.12146705 1.2962916
-0.18938908 -0.12014273 1.299713
-0.67335933 -0.11395614 1.2915306
-0.55938101 -0.11973441 1.2909197
-0.53396434 -0.1196565 1.2922168
-0.52597493 -0.11942479 1.2913655
-0.51682585 -0.11940074 1.292043
-0.50499362 -0.11883911 1.2910999
-0.49378094 -0.11952854 1.2926573
-0.48518032 -0.1191118 1.292235
-0.47475168 -0.11923832 1.2916312
-0.46574455 -0.11884658 1.2917981
-0.45411563 -0.11878566 1.2919856
-0.44653815 -0.11885693 1.2917151
-0.43500942 -0.11875276 1.2936831
-0.42488891 -0.11897968 1.2926817
-0.41470137 -0.11859883 1.2932433
-0.40525034 -0.11868136 1.292708
-0.3947365 -0.11879755 1.2931317
-0.38497204 -0.11865089 1.2930732
-0.37469509 -0.11839385 1.2937884
-0.36544758 -0.11828638 1.2941192
-0.35520715 -0.11837581 1.2940842
-0.34480745 -0.11824647 1.293889
-0.33484894 -0.11824492 1.2943639
-0.32439435 -0.1181263 1.2942672
-0.31431383 -0.11797755 1.2949327
-0.30499312 -0.11782917 1.2944171
-0.29498449 -0.11750366 1.2944391
-0.28452414 -0.11722195 1.2955316
-0.27469352 -0.11681518 1.2944788
-0.26491028 -0.1163105 1.2945707
-0.25495079 -0.11655901 1.2949048
-0.24449299 -0.11640481 1.2939719
-0.2349035 -0.11593928 1.29414
-0.22466841 -0.11580724 1.2946773
-0.21464747 -0.11572339 1.294667
-0.2053699 -0.11528255 1.2949275
-0.19462651 -0.11502383 1.2954278
-0.18481435 -0.11476662 1.2947534
-0.1751167 -0.114278 1.2946314
-0.16513041 -0.11389285 1.2949069
-0.15505402 -0.11414054 1.2952337
-0.14507455 -0.11350413 1.2948793
-0.1347881 -0.11341343 1.2955928
-0.1254672 -0.11307517 1.2949667
-0.11520392 -0.11295316 1.2949396
-0.1042987 -0.11315067 1.295804
-0.094644286 -0.11250892 1.295423
-0.085314751 -0.11225764 1.2956022
-0.075119831 -0.1127988 1.2954233
-0.065222561 -0.11210898 1.2959068
-0.054429829 -0.11244541 1.295644
-0.045191173 -0.11174069 1.2956588
-0.03494459 -0.11162139 1.2960036
-0.025711887 -0.11190882 1.296019
-0.015294259 -0.11150596 1.2957057
-0.0052040177 -0.11131443 1.2959524
0.0051799202 -0.11135646 1.2965666
0.015545221 -0.11153857 1.2955068
0.024039885 -0.11169767 1.296718
0.034595191 -0.11163677 1.2979342
0.045634169 -0.11151812 1.2964875
0.054828726 -0.11128529 1.2988539
0.065009505 -0.11044003 1.2988886
0.076189123 -0.11109563 1.2979497
0.084983587 -0.11052519 1.2995517
0.099980019 -0.11095803 1.296546
0.11322289 -0.11001925 1.2964447
-0.2374312 -0.10974795 1.2903802
-0.22352023 -0.10589531 1.2924728
-0.21939114 -0.10908315 1.292833
-0.1947739 -0.10963032 1.292124
-0.18924859 -0.10835892 1.2922552
-0.17360559 -0.10808973 1.2928939
-0.16606872 -0.10702483 1.2914872
-0.15749703 -0.10560497 1.2926369
-0.14460526 -0.10792587 1.2926029
-0.13174452 -0.10676247 1.29489
-0.12407153 -0.10947651 1.2933528
-0.11701395 -0.10919015 1.2923679
-0.10566129 -0.10865166 1.2929915
-0.095664285 -0.10782625 1.2930297
-0.084087767 -0.10828958 1.292363
-0.074600138 -0.10835854 1.2925571
-0.063597195 -0.10837919 1.2921509
-0.054458473 -0.10853105 1.2926078
-0.044106495 -0.10827806 1.2925093
-0.034158789 -0.10834894 1.2945646
-0.024707086 -0.10800455 1.2935385
-0.014705382 -0.10809736 1.2940986
-0.0050528375 -0.107884 1.2932535
0.0051865182 -0.10826423 1.294245
0.015483872 -0.10799187 1.2948382
0.025321227 -0.10794574 1.2939177
0.035824683 -0.10742603 1.2945385
0.044721872 -0.10737614 1.2946787
0.054648872 -0.10701247 1.2945732
0.065060273 -0.10717867 1.2947372
0.074732162 -0.10683628 1.2944787
0.08553014 -0.10658379 1.295205
0.094855689 -0.10573632 1.2945611
0.10530344 -0.10559829 1.2944926
0.11516818 -0.10558829 1.2947574
0.12597756 -0.10520046 1.2949092
0.13549447 -0.10524337 1.2950215
0.14551485 -0.10481606 1.2948811
0.15414032 -0.10451303 1.2956269
0.1655385 -0.10456634 1.2956121
0.17492794 -0.10390909 1.2951109
0.1852337 -0.10326987 1.2948306
0.19528686 -0.10340591 1.2947166
0.20521542 -0.10289129 1.2952847
0.21571627 -0.10292248 1.2954473
0.22553885 -0.10268047 1.2958437
0.23477277 -0.10240519 1.2965739
0.24487281 -0.10214434 1.2955761
0.25530291 -0.10199793 1.2958853
0.2653349 -0.1022809 1.2959071
0.27446133 -0.10145288 1.2958215
0.2853044 -0.10165662 1.2968963
0.29540795 -0.10141335 1.296878
0.30471426 -0.10137822 1.2960387
0.31496471 -0.10145302 1.2956177
0.32586521 -0.10167061 1.2970573
0.33477807 -0.1010248 1.2975419
0.34662381 -0.10183378 1.2976815
0.35491472 -0.10109717 1.2969551
0.36618042 -0.10084907 1.2976234
0.37311411 -0.10083942 1.2988679
0.38577443 -0.10058994 1.2988495
0.39429656 -0.10073111 1.2977448
0.40453923 -0.10001141 1.2961001
0.41612634 -0.10059446 1.2948714
0.42383328 -0.10214027 1.2981579
0.43939412 -0.10107091 1.297357
0.44310185 -0.10029338 1.2993766
0.45934936 -0.10077322 1.2969027
0.46556589 -0.10017241 1.2995034
0.4762809 -0.10037701 1.2987814
0.6444937 -0.10534628 1.2964749
0.06867113 -0.099033915 1.2901033
0.13635227 -0.098912612 1.2934818
0.143025 -0.099696465 1.2919012
0.15660484 -0.099827677 1.2907397
0.18109646 -0.099427007 1.2904525
0.19213673 -0.099968188 1.2908155
0.20441329 -0.097944878 1.2929343
0.21627808 -0.098265201 1.2921581
0.22510228 -0.098225646 1.2923517
0.23376219 -0.098765753 1.2933201
0.24628083 -0.0996795 1.2928327
0.25629094 -0.098835438 1.2924155
0.26465714 -0.098319113 1.2925571
0.27407193 -0.098356649 1.2931781
0.2853719 -0.0985232 1.2922686
0.29512575 -0.09757489 1.2928613
0.30548072 -0.09811081 1.2936049
0.31516576 -0.098451436 1.2940618
0.32553306 -0.098217085 1.294166
0.33538371 -0.098146938 1.2943083
0.34518129 -0.097669147 1.2942553
0.35513154 -0.097492166 1.2943631
0.36519098 -0.097573325 1.2947407
0.37509811 -0.097572722 1.294693
0.38498208 -0.097377911 1.2947611
0.39554301 -0.096831352 1.2944211
0.40516841 -0.096618593 1.2949508
0.41514406 -0.096504822 1.2948145
0.42472973 -0.096435428 1.2950674
0.43456435 -0.095897317 1.2945188
0.4448328 -0.095727131 1.2948604
0.45462328 -0.095341943 1.2950004
0.46485609 -0.095008731 1.2948383
0.47516969 -0.094789378 1.295112
0.48492682 -0.094671793 1.2944672
0.49539292 -0.094565295 1.2950779
0.50530159 -0.094042778 1.2948231
0.51504993 -0.093961775 1.295077
0.52499163 -0.093538463 1.2953703
0.53501654 -0.09313558 1.2950232
0.54479694 -0.093120523 1.2953534
0.55500805 -0.092971005 1.2957225
0.56487042 -0.092628181 1.2949899
0.57502538 -0.092446379 1.2953478
0.58501184 -0.092246257 1.2953264
0.59542042 -0.092729308 1.2955934
0.6047045 -0.092104837 1.2958579
0.61492783 -0.092319407 1.2962433
0.62476528 -0.092188507 1.2965095
0.63437837 -0.092364661 1.2958143
0.64426661 -0.093702316 1.2967011
-2.1118643 -0.16131513 1.3097912
-2.0649023 -0.16274463 1.306354
-2.0293899 -0.161533 1.3087018
-2.1239598 -0.15961707 1.3068532
-1.766782 -0.15592873 1.3051279
-1.7519292 -0.15460932 1.3044617
-2.1361728 -0.14599513 1.3056028
-2.0845697 -0.14886437 1.3035529
-2.0793297 -0.14549547 1.30507
-2.0466151 -0.14189814 1.3045185
-1.7455754 -0.14148431 1.3051324
-1.7343447 -0.14192094 1.3088617
-1.6915436 -0.14424197 1.3068042
-1.687354 -0.14864455 1.3041509
-1.6627423 -0.14479899 1.3059558
-1.7577779 -0.13810411 1.3087562
-1.7431155 -0.13744825 1.3089215
-1.7155948 -0.13643011 1.3075675
-1.6936589 -0.13510647 1.3029
-1.6373225 -0.13821548 1.3078427
-0.66093582 -0.13816206 1.3095329
-0.65545833 -0.13662103 1.3062351
-0.64544553 -0.13677816 1.3050983
-0.63604844 -0.13414411 1.3052098
-0.62577879 -0.13387483 1.3054475
-0.61819696 -0.13171177 1.3069917
-0.60455388 -0.13300441 1.3086436
-0.59470844 -0.13077286 1.3067012
-0.58471674 -0.13217716 1.3085568
-0.57600957 -0.13177389 1.306981
-0.56610322 -0.13155922 1.3069
-0.55539215 -0.13076063 1.3079071
-0.54480153 -0.13074599 1.3077914
-0.53721827 -0.13060611 1.3072577
-0.52363193 -0.13142011 1.3062357
-0.51370156 -0.13127621 1.3081162
-0.50630796 -0.1312373 1.306464
-0.49345815 -0.13025451 1.3064439
-0.48648706 -0.13024499 1.306843
-0.47691891 -0.13351332 1.3060062
-0.46414611 -0.13138732 1.3069756
-0.45075494 -0.13208857 1.3082126
-0.4311021 -0.13040449 1.3098744
-0.67735046 -0.12443569 1.3026276
-0.63557827 -0.12577927 1.3027643
-0.62689137 -0.12745205 1.3036284
-0.61421561 -0.12762327 1.3037405
-0.60771215 -0.1279425 1.303411
-0.59474593 -0.12754492 1.3028237
-0.58445925 -0.12782721 1.3041313
-0.57362872 -0.12799965 1.3048917
-0.56467628 -0.12774615 1.3045731
-0.55413771 -0.12733671 1.3048556
-0.54516876 -0.12715606 1.3046021
-0.53512961 -0.12703887 1.3049691
-0.5250569 -0.12671416 1.30513
-0.5150696 -0.12656641 1.3048861
-0.50505465 -0.12635085 1.3049544
-0.49478334 -0.12626909 1.3050101
-0.48490259 -0.1261117 1.304749
-0.4750936 -0.12606436 1.305198
-0.46511364 -0.1258533 1.3051709
-0.45517799 -0.1255987 1.3050531
-0.44505006 -0.12522711 1.3051525
-0.43484351 -0.12492421 1.3048074
-0.42483801 -0.12493842 1.3051872
-0.41537777 -0.12438986 1.3053861
-0.40534604 -0.12419844 1.3050113
-0.39510381 -0.12409315 1.3053719
-0.38507208 -0.12378468 1.3049527
-0.37542331 -0.12374527 1.3053738
-0.36511642 -0.12353716 1.3052778
-0.35492516 -0.1234272 1.3048971
-0.34539008 -0.12297697 1.304947
-0.33504212 -0.1227888 1.3052605
-0.32519707 -0.12259793 1.3052171
-0.31546143 -0.12270122 1.3048059
-0.30517417 -0.12251291 1.305346
-0.29442811 -0.12234639 1.3055427
-0.28472093 -0.12191788 1.3054168
-0.27475831 -0.12203281 1.305764
-0.26497841 -0.12196932 1.3061041
-0.25545749 -0.12157912 1.3062458
-0.24451268 -0.12160233 1.3065431
-0.23478937 -0.12180332 1.3070202
-0.22615252 -0.12139577 1.3078145
-0.21469757 -0.12124771 1.3068606
-0.20444869 -0.12104902 1.3071821
-0.19531778 -0.12117607 1.3079958
-0.18717186 -0.12093925 1.3060138
-0.17531428 -0.12145315 1.308687
-0.16537812 -0.12089198 1.3085762
-0.15449339 -0.12108117 1.3066704
-0.14874139 -0.1202807 1.3083982
-0.13693342 -0.12077951 1.3072002
-0.12572029 -0.1203483 1.3079805
-0.11995146 -0.12051905 1.3089044
-0.10513473 -0.12047814 1.3090298
-0.42963043 -0.11994036 1.3045033
-0.41665792 -0.11906841 1.3010952
-0.39480996 -0.11861273 1.3000282
-0.37692529 -0.11950646 1.302146
-0.36496314 -0.11924034 1.3015072
-0.35271412 -0.11903894 1.3040111
-0.34510696 -0.11871317 1.3007889
-0.33606282 -0.11967584 1.3020401
-0.32554147 -0.11968296 1.3030441
-0.3148098 -0.11901834 1.3023511
-0.30498171 -0.11939483 1.3031752
-0.29333013 -0.11905739 1.3028253
-0.28593504 -0.11851861 1.3027445
-0.27526581 -0.11856268 1.3023202
-0.26483637 -0.11873029 1.3027493
-0.25461698 -0.11810374 1.302792
-0.24424486 -0.11832891 1.304323
-0.23530149 -0.11795282 1.3030349
-0.22469492 -0.11839353 1.3037968
-0.21471481 -0.11781322 1.3038086
-0.20488359 -0.11806822 1.3042402
-0.19480295 -0.11792175 1.304822
-0.18451537 -0.11773356 1.3043054
-0.17503837 -0.11726198 1.3037788
-0.16439992 -0.11721038 1.3051878
-0.15490724 -0.11707593 1.3049407
-0.14455469 -0.11677415 1.304269
-0.13527119 -0.1165119 1.3044378
-0.12492526 -0.11650384 1.3046136
-0.11513241 -0.11596993 1.3046128
-0.10519024 -0.11638472 1.3053927
-0.095030189 -0.11586712 1.3054696
-0.084842131 -0.11555489 1.304835
-0.075225845 -0.11551248 1.3050029
-0.064587243 -0.11557104 1.3047439
-0.054824866 -0.1149552 1.305022
-0.044988234 -0.11452254 1.3051934
-0.035201751 -0.11440165 1.3049761
-0.024369618 -0.11407612 1.3051889
-0.015274297 -0.11428607 1.3049196
-0.0049161641 -0.1141225 1.3056003
0.0044127204 -0.11351156 1.30539
0.015101369 -0.11321916 1.3049443
0.024783388 -0.11286297 1.3047459
0.035583917 -0.11317783 1.305849
0.044430148 -0.1126841 1.305599
0.055243369 -0.11230154 1.3057114
0.064913154 -0.11237483 1.3060428
0.075473122 -0.11186141 1.3057085
0.085673556 -0.11147721 1.3059676
0.095466442 -0.1118716 1.306479
0.10543464 -0.11126395 1.306318
0.11462462 -0.1115044 1.3074827
0.12534609 -0.11115848 1.3067611
0.13436955 -0.11165811 1.3082165
0.14497325 -0.11132624 1.3082662
0.15524788 -0.11083887 1.3079581
0.16431071 -0.1109097 1.308755
0.17439768 -0.11074315 1.3070014
0.18250269 -0.11051465 1.3085647
0.19417736 -0.11035958 1.3083786
0.20222315 -0.11075253 1.3089572
0.21411091 -0.1104971 1.3083212
0.22945797 -0.11019481 1.3060069
0.3251521 -0.11303638 1.30857
-0.086502865 -0.10997482 1.3025241
-0.078766614 -0.10996471 1.3000414
-0.06852746 -0.10982884 1.302072
-0.056494325 -0.10808434 1.3025068
-0.048073895 -0.10828112 1.3010585
-0.038206842 -0.10916597 1.3027271
-0.025289629 -0.10826258 1.3031452
-0.014927872 -0.10956579 1.3020905
-0.0079848533 -0.10960591 1.3022203
0.002844312 -0.10855104 1.3025221
0.014712908 -0.1090587 1.304042
0.026280049 -0.1089365 1.3025752
0.034817819 -0.10920831 1.3044237
0.045027889 -0.10872129 1.3036009
0.056162138 -0.10842282 1.3028749
0.066475734 -0.10845582 1.3018515
0.073852614 -0.10869209 1.3031944
0.086304024 -0.10806765 1.3035921
0.094116591 -0.10824073 1.303081
0.10534479 -0.10837922 1.3040248
0.11473839 -0.10843045 1.3035926
0.12439054 -0.10784262 1.3035604
0.13536569 -0.10816858 1.3035625
0.1445089 -0.10784884 1.3046836
0.15541811 -0.10781313 1.3048648
0.1649242 -0.10732684 1.3041998
0.17501882 -0.10739172 1.3050667
0.18467613 -0.10724005 1.3046794
0.19497541 -0.10686278 1.3047227
0.20541173 -0.10628116 1.3047752
0.21446468 -0.10599138 1.304256
0.22470909 -0.10598806 1.3042833
0.23506698 -0.10569418 1.3053401
0.24475287 -0.10544909 1.3048558
0.25523996 -0.1054351 1.305293
0.26516637 -0.10441252 1.3047345
0.27458775 -0.10475118 1.3044913
0.28513482 -0.10388752 1.3047253
0.29487973 -0.10401642 1.3053819
0.30547854 -0.10347175 1.3049769
0.31573516 -0.10347487 1.3053609
0.324664 -0.1035041 1.3050303
0.33492336 -0.10291626 1.3051465
0.3448897 -0.1029079 1.3050562
0.35476395 -0.10252026 1.3055053
0.36521953 -0.10235064 1.3050574
0.37534934 -0.10209502 1.3056117
0.38487715 -0.10225041 1.3058395
0.39502329 -0.10183757 1.3056091
0.40555939 -0.10156681 1.305877
0.41530809 -0.10176693 1.3058302
0.42468962 -0.1017888 1.3063722
0.43488404 -0.10097702 1.3059837
0.4450224 -0.10111391 1.3073181
0.45427975 -0.10123898 1.3069828
0.46433684 -0.10106869 1.3065476
0.47625881 -0.10132688 1.3064876
0.48447791 -0.10099576 1.3066885
0.49400973 -0.10069448 1.3065484
0.50505143 -0.10098895 1.3080989
0.51422542 -0.10082556 1.3070158
0.5236029 -0.10130214 1.3064764
0.53581202 -0.10173451 1.3074586
0.54635322 -0.10106046 1.3081355
0.55475461 -0.10162687 1.3094314
0.5663259 -0.1043092 1.3097988
0.57237232 -0.10101584 1.306267
0.58619726 -0.10221445 1.3062946
0.59591389 -0.10204065 1.3053414
0.60411823 -0.10300428 1.3049684
0.61720705 -0.10092697 1.3091912
0.62471157 -0.10358538 1.3079042
0.63325483 -0.10342817 1.307847
0.64676082 -0.10388556 1.3075283
0.36549145 -0.098522954 1.3028159
0.38502899 -0.098833241 1.3037765
0.40483025 -0.09878248 1.3032033
0.4143613 -0.098344192 1.302573
0.42511594 -0.098227352 1.3036296
0.43551907 -0.098256335 1.3026116
0.44480351 -0.098446228 1.3038075
0.45491707 -0.097854935 1.3035263
0.46569651 -0.098124839 1.304392
0.475086 -0.098151661 1.3042326
0.4854252 -0.09738335 1.3038889
0.4950639 -0.0973318 1.3045027
0.50525677 -0.097027682 1.3044463
0.5154447 -0.096935272 1.3050719
0.52518779 -0.096631661 1.3049703
0.53467971 -0.096659854 1.3050406
0.54513526 -0.096282378 1.3049258
0.55486709 -0.0961046 1.3050618
0.56489086 -0.095938496 1.3048506
0.64428079 -0.094906375 1.3059791
0.65392911 -0.094797842 1.3058794
0.66059113 -0.096402369 1.3060465
-2.1271935 -0.1606469 1.3136262
-2.1263561 -0.15788305 1.3101975
-2.1012106 -0.15664546 1.3167697
-2.0565724 -0.15271235 1.3165179
-2.0375593 -0.15899017 1.3109643
-2.0245359 -0.15965967 1.3127884
-1.7541775 -0.15236574 1.3135027
-1.742179 -0.15860072 1.3136299
-1.7008321 -0.15134853 1.3195051
-1.6828668 -0.15471365 1.3146837
-1.6743944 -0.15013534 1.3172421
-2.0588953 -0.14842828 1.3184015
-1.7579908 -0.14461857 1.3182747
-1.7311162 -0.14046718 1.3108058
-1.7262692 -0.14025377 1.3157258
-1.7107071 -0.14979494 1.3139442
-1.6851013 -0.14595632 1.3193554
-0.68861949 -0.14371319 1.3189874
-0.67162496 -0.14126496 1.3185626
-0.6279465 -0.14084837 1.3154968
-0.60056931 -0.14016995 1.3194073
-0.58794963 -0.14101909 1.3188441
-0.68312562 -0.13720842 1.3171579
-0.66458726 -0.13578947 1.3154036
-0.65305406 -0.13615787 1.3147948
-0.64367092 -0.13751514 1.3184693
-0.63497019 -0.13577613 1.3143992
-0.62378341 -0.13592649 1.314833
-0.61556822 -0.13509476 1.3144618
-0.60494792 -0.13388015 1.3155419
-0.59503722 -0.13369495 1.3145955
-0.58484882 -0.13293397 1.3145643
-0.57411993 -0.13278891 1.3149869
-0.564574 -0.13256428 1.315739
-0.55534834 -0.13235627 1.3156883
-0.54537642 -0.13206728 1.3159014
-0.53441691 -0.13202807 1.3158567
-0.52505845 -0.13173491 1.3155344
-0.51507181 -0.13185312 1.3162979
-0.50497681 -0.13172294 1.3160027
-0.4949657 -0.13163954 1.3162044
-0.48496491 -0.13153157 1.3165092
-0.47485113 -0.1312587 1.3168721
-0.46596608 -0.13128269 1.3170438
-0.45511195 -0.13108318 1.316986
-0.44526571 -0.1314159 1.3180203
-0.43621236 -0.13115531 1.3178205
-0.42420626 -0.13095631 1.3167584
-0.41428682 -0.13096319 1.3175412
-0.40596676 -0.13116872 1.3179139
-0.39473882 -0.1310709 1.3174496
-0.38599795 -0.13071939 1.3174684
-0.37263417 -0.13059402 1.3194242
-0.36552879 -0.13162 1.3189712
-0.35504302 -0.13067472 1.3179345
-0.33167112 -0.13144843 1.3169861
-0.32779461 -0.13015227 1.3184319
-0.31771654 -0.13144878 1.3169017
-0.20111597 -0.13058923 1.3191686
-0.65310162 -0.12276066 1.3165076
-0.61444879 -0.12860906 1.3139894
-0.60995317 -0.12801486 1.3178
-0.59570038 -0.12769708 1.3128761
-0.57486349 -0.12923151 1.3119276
-0.56557477 -0.12921007 1.3129886
-0.55520183 -0.12892109 1.3129355
-0.54440689 -0.1290199 1.3132193
-0.53422731 -0.1286369 1.3133659
-0.52400804 -0.12852143 1.3142384
-0.5145582 -0.1284039 1.3134969
-0.50418228 -0.12859519 1.313643
-0.49465129 -0.12830095 1.3136345
-0.48518595 -0.12845606 1.3135222
-0.47514606 -0.12883867 1.3132309
-0.46447736 -0.12852277 1.3136464
-0.45486259 -0.12838051 1.3138127
-0.44462714 -0.12809083 1.3140488
-0.4348267 -0.12779287 1.3141701
-0.42539442 -0.12795153 1.31432
-0.41470027 -0.12765528 1.3145481
-0.40454888 -0.12748219 1.3147402
-0.39483815 -0.12740923 1.3143737
-0.38471967 -0.12701739 1.3147864
-0.37466154 -0.12699944 1.3147731
-0.36487073 -0.12701653 1.3150128
-0.355216 -0.12686518 1.3151817
-0.34552079 -0.1268438 1.3152391
-0.33490688 -0.12606692 1.3151356
-0.32541332 -0.12627034 1.3141849
-0.31493434 -0.12608597 1.3150848
-0.30506498 -0.12538226 1.3152308
-0.29442567 -0.12508261 1.3146902
-0.28453574 -0.12498015 1.3148903
-0.27479175 -0.12493439 1.3153901
-0.26476172 -0.12459853 1.3151041
-0.25502178 -0.12414132 1.3150506
-0.24498929 -0.12427989 1.314868
-0.23520066 -0.12339719 1.3144739
-0.22516905 -0.1236033 1.3150275
-0.2150387 -0.12347769 1.3147835
-0.20457527 -0.12305599 1.3150645
-0.19554678 -0.12299187 1.3152034
-0.18450695 -0.12264411 1.3158945
-0.17486601 -0.12216605 1.3154316
-0.16514893 -0.12186274 1.3146334
-0.15491305 -0.1220927 1.3152177
-0.14487183 -0.12241764 1.3159252
-0.1347433 -0.12162159 1.3164397
-0.12540095 -0.12154121 1.3161376
-0.11537392 -0.12140368 1.3155125
-0.10537515 -0.12135589 1.3163697
-0.095372267 -0.12141028 1.3159837
-0.086002946 -0.12156925 1.3172686
-0.07402657 -0.12138264 1.3167835
-0.064786784 -0.12113789 1.3170172
-0.054990266 -0.12108064 1.3172315
-0.046515413 -0.12138795 1.3170859
-0.036378562 -0.12129744 1.3185931
-0.025531944 -0.12099761 1.3175783
-0.016625557 -0.12081304 1.3177586
-0.0070483545 -0.12053436 1.3171602
0.0064609 -0.12032105 1.3163375
0.015687119 -0.12081978 1.3190625
0.026680456 -0.12057932 1.3180072
0.033161927 -0.12113477 1.3196547
0.10472923 -0.12022576 1.3199968
-0.34216589 -0.11981114 1.3116333
-0.29523009 -0.11953855 1.3140717
-0.28921792 -0.11852375 1.3124464
-0.26187658 -0.11964738 1.3116977
-0.25437599 -0.11958996 1.3107986
-0.24517541 -0.11502656 1.3101901
-0.23381214 -0.11871259 1.3119099
-0.2252074 -0.11914098 1.3123767
-0.21307096 -0.11883532 1.3134398
-0.20569704 -0.11857949 1.3129516
-0.19416086 -0.1190896 1.3136115
-0.18603313 -0.11883734 1.3131208
-0.17414357 -0.11889928 1.3123611
-0.16522907 -0.1182372 1.3130515
-0.15433963 -0.11846654 1.3124702
-0.14449991 -0.11875455 1.3134152
-0.13360512 -0.11886517 1.3131359
-0.12566674 -0.11795253 1.3128847
-0.11527462 -0.1180508 1.3139651
-0.10414176 -0.117835 1.3138394
-0.093719169 -0.11796343 1.3134185
-0.0844611 -0.11829994 1.3134818
-0.075066701 -0.11811887 1.3144255
-0.065729611 -0.11762993 1.314108
-0.054331712 -0.11753135 1.3143547
-0.04499511 -0.11795167 1.3151681
-0.034742683 -0.11777495 1.3146907
-0.024880916 -0.11754392 1.3147459
-0.01443282 -0.11745375 1.3149836
-0.0051310146 -0.11679784 1.3144364
0.0049791667 -0.11735687 1.3147987
0.014625035 -0.11665494 1.3149312
0.024660241 -0.11668832 1.315338
0.035004217 -0.11558966 1.3148412
0.044761699 -0.115928 1.3153802
0.055014368 -0.11542676 1.3154448
0.06470158 -0.11480469 1.3143566
0.074902892 -0.1146704 1.3144969
0.084333956 -0.11485772 1.3153791
0.094609365 -0.11419653 1.3149021
0.10548116 -0.11385759 1.3147967
0.11439849 -0.11395104 1.3152698
0.12471216 -0.11360165 1.315137
0.13528383 -0.11299729 1.3155154
0.14454931 -0.11278737 1.3150679
0.15553559 -0.11260856 1.31598
0.16481394 -0.11226815 1.3153535
0.17475428 -0.11218748 1.315325
0.18504275 -0.11186016 1.3160477
0.19471948 -0.11182848 1.316524
0.2042717 -0.11221782 1.3163029
0.21427579 -0.11164219 1.3164684
0.22586462 -0.11115567 1.3162279
0.23605177 -0.1108968 1.3168036
0.24607983 -0.11075289 1.3171489
0.25406376 -0.11134039 1.3171346
0.26572651 -0.11093543 1.3178586
0.27503964 -0.11097696 1.3175576
0.28319228 -0.11040224 1.3174138
0.29571608 -0.11112846 1.3165144
0.30924624 -0.1102836 1.3146594
0.31241775 -0.11225645 1.3152454
0.32558572 -0.11081546 1.3182015
0.33350644 -0.11147138 1.3181376
0.36053747 -0.11124489 1.3198593
0.3730967 -0.1110596 1.317892
0.38189116 -0.11277483 1.3170626
0.39419404 -0.11011487 1.3184159
0.46509135 -0.11064234 1.3152349
0.66319358 -0.11021624 1.3167005
0.06879048 -0.10998976 1.3111194
0.098349698 -0.10890806 1.3105872
0.10224922 -0.10776757 1.312088
0.11902805 -0.10860878 1.3139406
0.12548649 -0.10935037 1.3118362
0.13405469 -0.10901898 1.3118671
0.14431898 -0.10881034 1.3123626
0.15295541 -0.10864135 1.3114901
0.16537146 -0.10916006 1.3125689
0.17492279 -0.10909067 1.3124329
0.18460587 -0.10915337 1.312466
0.19466361 -0.10910065 1.3124411
0.2057666 -0.10829437 1.3138521
0.21602467 -0.10828082 1.3134538
0.2251514 -0.10815088 1.3135258
0.23539275 -0.1082901 1.3133166
0.24527682 -0.10801385 1.3143165
0.2546601 -0.10805289 1.3141446
0.2645762 -0.10767379 1.3134875
0.27485949 -0.10789142 1.3144232
0.28453168 -0.10757735 1.3135593
0.2954185 -0.10747404 1.3146988
0.30548888 -0.10733646 1.3149666
0.31490859 -0.10726596 1.3148311
0.32518131 -0.10680984 1.3150823
0.33511066 -0.1065109 1.3149387
0.34509936 -0.10620303 1.3151362
0.35512412 -0.10605359 1.3152602
0.36538443 -0.10554618 1.3149453
0.37529573 -0.10596358 1.315168
0.38463393 -0.10528556 1.3149692
0.39487997 -0.10514914 1.3152444
0.40526009 -0.10455706 1.3150035
0.41456744 -0.10441764 1.3148776
0.42475897 -0.10415166 1.3149544
0.4350234 -0.10389719 1.3146994
0.44511831 -0.10329918 1.3149288
0.45506853 -0.10375501 1.3151383
0.46449074 -0.10307193 1.3150457
0.47464705 -0.10276771 1.3146523
0.48525363 -0.10231221 1.3152658
0.49539188 -0.10243708 1.3152992
0.50499964 -0.10196121 1.3154339
0.51534438 -0.10210173 1.3154286
0.52482194 -0.10182456 1.3163868
0.53524613 -0.10206728 1.3163449
0.54470354 -0.1015914 1.3164307
0.5554086 -0.1017171 1.3159877
0.56499577 -0.10160606 1.316734
0.57528961 -0.10150719 1.3166697
0.58436239 -0.10168033 1.3172891
0.59386206 -0.10097385 1.3165306
0.60456401 -0.1015147 1.3163658
0.61436206 -0.1019484 1.3169702
0.62633157 -0.10174336 1.3167129
0.63594639 -0.10297585 1.3156118
0.64702982 -0.10251606 1.3167588
0.65515286 -0.102955 1.3164074
0.66709137 -0.10351536 1.3144016
0.67496228 -0.10045883 1.3148639
0.696895 -0.10595588 1.3150727
0.68834585 -0.096980117 1.3115489
-2.0249486 -0.17038751 1.3286245
-2.036027 -0.16620468 1.3267725
-1.763592 -0.16296266 1.3222665
-1.7469764 -0.1617742 1.3222439
-2.1067736 -0.15786456 1.3263547
-2.090395 -0.15679961 1.3240478
-1.7116674 -0.15305078 1.3265027
-1.6928515 -0.15794133 1.3255906
-1.7369747 -0.14451243 1.323751
-1.7186842 -0.14666919 1.3254354
-1.7028512 -0.14763819 1.3250932
-1.675932 -0.14574699 1.3299671
-0.66892743 -0.14394224 1.3262726
-0.65625948 -0.14351092 1.3266252
-0.64526927 -0.14542833 1.325735
-0.63294768 -0.14231956 1.3229004
-0.62242317 -0.14222255 1.3279154
-0.61425084 -0.14153001 1.3267171
-0.6049372 -0.14216881 1.3261989
-0.57432723 -0.14029765 1.3280385
-0.56748229 -0.14034708 1.3299609
-0.54612684 -0.14006124 1.3273963
-0.5127399 -0.1411728 1.3274243
-0.48450947 -0.14042157 1.3287784
-0.47431293 -0.14058223 1.3278993
-0.69561905 -0.13912381 1.3279999
-0.68226331 -0.13489804 1.327513
-0.67238283 -0.13541077 1.3274354
-0.65279031 -0.13821083 1.3283951
-0.64547145 -0.13729851 1.324905
-0.63508791 -0.13794895 1.3264832
-0.62538111 -0.13662407 1.3237703
-0.61348099 -0.13742034 1.3260441
-0.60490894 -0.13694225 1.3253672
-0.59471142 -0.13637765 1.3244078
-0.5841307 -0.13637394 1.3259423
-0.57441115 -0.13623179 1.3251492
-0.56487554 -0.13555044 1.3250459
-0.55474246 -0.13525926 1.3252802
-0.54511708 -0.13498648 1.3253322
-0.53498274 -0.13476232 1.3251475
-0.52501518 -0.13466224 1.324825
-0.51460308 -0.13422473 1.3249907
-0.50507307 -0.13426964 1.3248225
-0.49512711 -0.13416207 1.3251022
-0.48503071 -0.13413391 1.3253887
-0.4751814 -0.13372736 1.3251469
-0.4654054 -0.13352239 1.3249536
-0.45546785 -0.13326852 1.3248131
-0.44494304 -0.1327734 1.3256681
-0.43520775 -0.13299865 1.3250484
-0.42514595 -0.13266894 1.3253725
-0.41487485 -0.13217749 1.3256853
-0.40514559 -0.13236457 1.3256423
-0.39513025 -0.13208027 1.3259331
-0.38479257 -0.13184878 1.3259176
-0.37544519 -0.13163193 1.3255727
-0.36533937 -0.1319278 1.3266175
-0.35526142 -0.13149671 1.3257694
-0.3453989 -0.13157775 1.3267154
-0.33493757 -0.13131976 1.325585
-0.32488483 -0.13150078 1.3262805
-0.31458277 -0.13131438 1.3275343
-0.30557892 -0.13121927 1.3270826
-0.29412213 -0.13150947 1.3275918
-0.28552064 -0.13134587 1.3266369
-0.27677599 -0.13098887 1.3270217
-0.26650006 -0.13086969 1.3267947
-0.25567147 -0.13102774 1.3289665
-0.24586159 -0.13084981 1.3273003
-0.23540066 -0.13106647 1.3278186
-0.22600615 -0.13048556 1.3283997
-0.18530072 -0.13221785 1.3267381
-0.63791114 -0.12724969 1.3259346
-0.54206991 -0.12931783 1.3283519
-0.53283221 -0.1296401 1.3200212
-0.52864081 -0.12993351 1.3200694
-0.51371735 -0.12907876 1.3216506
-0.50612056 -0.12870246 1.321728
-0.4970386 -0.12960704 1.3210245
-0.48598546 -0.12951289 1.3217616
-0.47368544 -0.12986651 1.3211123
-0.46274427 -0.12878886 1.3215518
-0.45519805 -0.12944576 1.3234316
-0.44469535 -0.12913808 1.3221335
-0.43283415 -0.12942348 1.3223716
-0.42570147 -0.12897241 1.3212349
-0.41424367 -0.12918425 1.3229331
-0.40414199 -0.12899619 1.3224564
-0.39472911 -0.12916398 1.3220155
-0.38452911 -0.12906747 1.3230623
-0.37389699 -0.12878814 1.3229074
-0.36593565 -0.1286298 1.3223276
-0.35564598 -0.12885518 1.3234438
-0.34463644 -0.12887068 1.3244084
-0.33569929 -0.12859207 1.3229355
-0.32503104 -0.12876919 1.3228054
-0.31462589 -0.12816741 1.3232992
-0.30497903 -0.12813883 1.3229253
-0.29546902 -0.12815738 1.3234942
-0.28405508 -0.127556 1.3236506
-0.27463859 -0.12795208 1.3250396
-0.2649987 -0.12786599 1.3240235
-0.25529841 -0.12780145 1.324778
-0.24529819 -0.12724356 1.3245786
-0.23515156 -0.12711643 1.3247931
-0.22506624 -0.12701812 1.3244418
-0.21524489 -0.12657855 1.323933
-0.20485799 -0.12627502 1.3250172
-0.19526735 -0.12591782 1.325235
-0.18474419 -0.12571807 1.3245789
-0.17472479 -0.1261657 1.3244975
-0.16484821 -0.12565421 1.3247736
-0.15503728 -0.1252186 1.3256583
-0.14462221 -0.12473439 1.3248761
-0.13483167 -0.12483727 1.3254846
-0.12472995 -0.1241956 1.3242972
-0.11442443 -0.12400238 1.324613
-0.10513408 -0.1238427 1.3246366
-0.094679125 -0.12427171 1.3258004
-0.084672809 -0.12347755 1.3249484
-0.075346611 -0.12393893 1.3256861
-0.065137491 -0.12331671 1.3255626
-0.054680977 -0.12287126 1.3255675
-0.044874076 -0.12263966 1.3250992
-0.034488704 -0.12231309 1.3250533
-0.025123591 -0.12246335 1.3253676
-0.015181724 -0.12238538 1.325981
-0.00534942 -0.1221893 1.3257381
0.0044000149 -0.12185012 1.3261509
0.014568751 -0.12218961 1.3264941
0.025494499 -0.1212417 1.3255354
0.034791689 -0.12140919 1.3266249
0.044801626 -0.12101997 1.3272426
0.054871935 -0.12165273 1.3274662
0.065036975 -0.12133439 1.3265827
0.074553452 -0.12113547 1.3282803
0.085722014 -0.12101822 1.3278911
0.09527462 -0.1212251 1.3274393
0.10268471 -0.12067202 1.326965
0.11325188 -0.12180585 1.3296568
0.12380493 -0.12102702 1.3268706
0.13109441 -0.12055372 1.3281293
0.1647128 -0.12034803 1.3268306
0.17088869 -0.12021776 1.3286461
-0.23264854 -0.1199665 1.320177
-0.1930297 -0.11659382 1.3213329
-0.15433024 -0.11903798 1.3201103
-0.13272151 -0.11769971 1.3227422
-0.12097298 -0.1196309 1.3223417
-0.11012872 -0.11804334 1.3212564
-0.1039772 -0.11937954 1.3243299
-0.096079551 -0.11947441 1.3248528
-0.083472766 -0.11788438 1.3231666
-0.075566471 -0.11900242 1.324451
-0.065591924 -0.11905364 1.3219292
-0.054245494 -0.11886451 1.3226837
-0.044300865 -0.11847252 1.3230972
-0.034220234 -0.11863559 1.3249964
-0.025752945 -0.11888056 1.3233876
-0.015350004 -0.11874561 1.3233511
-0.0046982737 -0.11864091 1.3224972
0.006185892 -0.11860101 1.3225482
0.014472653 -0.11830892 1.323696
0.025106888 -0.11878542 1.3231366
0.035838604 -0.11811458 1.323469
0.045757804 -0.11818181 1.3235121
0.055079617 -0.11834814 1.3244128
0.065110616 -0.11834846 1.3249428
0.074641146 -0.11784466 1.3234649
0.085344158 -0.11737242 1.324101
0.095030852 -0.11762368 1.3246782
0.10545219 -0.11730853 1.3244754
0.1153803 -0.11691475 1.3249534
0.12468711 -0.11717752 1.3248795
0.13519372 -0.11610268 1.3251034
0.1449673 -0.11623183 1.3249931
0.15593599 -0.11543475 1.3245004
0.16517399 -0.11550612 1.3249429
0.17530563 -0.11561549 1.3255411
0.18549998 -0.11487185 1.3248955
0.19483055 -0.11445495 1.3248179
0.20490515 -0.11423573 1.3254403
0.21503574 -0.11365034 1.3244994
0.22504854 -0.11395363 1.3252203
0.23502232 -0.11351111 1.3250644
0.24415512 -0.11348494 1.324882
0.25489014 -0.11305382 1.3254296
0.26436779 -0.11288819 1.3256871
0.27460927 -0.11273083 1.3255085
0.28521201 -0.11236718 1.3249229
0.29503188 -0.11195793 1.3257763
0.30515 -0.11210142 1.3255732
0.31488448 -0.11180305 1.3265311
0.3254061 -0.11147039 1.3259217
0.3347533 -0.11190101 1.3264114
0.34523734 -0.11171628 1.3265451
0.35510027 -0.11117641 1.3266548
0.36471474 -0.11096201 1.3263949
0.37495562 -0.11124256 1.326452
0.3856512 -0.11158495 1.3271939
0.39600587 -0.1109338 1.3270546
0.405662 -0.11065646 1.3266793
0.41544384 -0.11120439 1.3283725
0.42430511 -0.11094507 1.3267113
0.43508554 -0.11076631 1.3289187
0.4465763 -0.11081523 1.3278186
0.45371151 -0.11065397 1.3262305
0.46314919 -0.11254187 1.3261664
0.47363204 -0.11012582 1.3286135
0.48808253 -0.11088383 1.3290403
0.49589658 -0.11097053 1.3283899
0.51278138 -0.11069594 1.3268594
0.52655184 -0.11122449 1.3249226
0.54858398 -0.11054634 1.3248386
0.6006465 -0.11146572 1.3299778
0.61577582 -0.1105005 1.3285217
0.62070775 -0.1114651 1.3273215
0.65367222 -0.11040686 1.3225434
0.66693252 -0.11069945 1.3253062
0.68058366 -0.11062884 1.3279685
0.22237413 -0.10998541 1.3243473
0.2451887 -0.1089571 1.321286
0.25520253 -0.10961509 1.3217198
0.26327318 -0.10793575 1.321853
0.27603555 -0.10920799 1.323112
0.2855328 -0.10884173 1.3228122
0.29517543 -0.10885583 1.3226757
0.30539232 -0.10893936 1.3225343
0.31624824 -0.10871841 1.3232734
0.32470995 -0.10861114 1.3224944
0.33503357 -0.10851754 1.3234586
0.34480003 -0.10843248 1.3230654
0.35513395 -0.10860988 1.3235561
0.36481094 -0.10840086 1.3232833
0.37497112 -0.1083656 1.32408
0.38475463 -0.10779505 1.3239774
0.39561734 -0.10826644 1.3246778
0.40465838 -0.10781214 1.3241417
0.41505349 -0.10796157 1.3247098
0.42466411 -0.10740923 1.3248748
0.4352403 -0.1076344 1.3245593
0.44514042 -0.10703306 1.3249481
0.45557186 -0.10670682 1.3250442
0.46519631 -0.10610516 1.3248918
0.47534558 -0.10624605 1.3250151
0.48483902 -0.10573099 1.3244938
0.49501351 -0.10536056 1.3248901
0.50512528 -0.10498278 1.3249707
0.51470071 -0.10477191 1.3246639
0.52524424 -0.10479137 1.325258
0.53527409 -0.10444126 1.3253452
0.54520756 -0.10417923 1.3249806
0.56514645 -0.10398868 1.3252739
0.60519892 -0.10327647 1.3253006
0.6142233 -0.10334019 1.3254859
0.62452716 -0.10308748 1.3251324
0.63443226 -0.1028237 1.3253486
0.64415222 -0.10353471 1.325691
0.65477931 -0.10367401 1.3253986
0.66470158 -0.10330991 1.3253387
0.67397088 -0.10467786 1.3249536
0.6887393 -0.10829236 1.3215206
-2.1327326 -0.16637214 1.332798
-2.1219678 -0.16640818 1.3305962
-2.0947638 -0.16529322 1.3354902
-2.0648255 -0.16069913 1.335031
-1.7462101 -0.16598681 1.3325931
-1.6922511 -0.16434984 1.3316051
-2.0711756 -0.15495843 1.3322845
-1.7584122 -0.15030761 1.3340594
-1.7417138 -0.15090254 1.3353559
-1.7100533 -0.15788211 1.334029
-1.6944141 -0.15279204 1.3335146
-0.66143465 -0.15020949 1.3371866
-0.68215001 -0.14832091 1.3386843
-0.67318702 -0.14624259 1.334319
-0.66409439 -0.14577498 1.3329451
-0.65212095 -0.14705443 1.333566
-0.64497966 -0.14581226 1.3363467
-0.63509351 -0.14190125 1.3315995
-0.62346363 -0.14294967 1.3341587
-0.61400157 -0.14273258 1.3364354
-0.60529357 -0.14249796 1.3366024
-0.59505337 -0.14211303 1.336351
-0.58446676 -0.14232473 1.3360063
-0.57525313 -0.14155897 1.3366714
-0.56484747 -0.14145994 1.3366675
-0.5546599 -0.14161223 1.3381095
-0.54549134 -0.14115678 1.3377017
-0.53560126 -0.14126129 1.3374401
-0.52468759 -0.14104465 1.337069
-0.51394188 -0.14094234 1.3386203
-0.50539559 -0.14106023 1.3379864
-0.49617904 -0.14154108 1.3370711
-0.48474824 -0.14118722 1.337326
-0.47619352 -0.14172052 1.3374609
-0.4663184 -0.14074069 1.3376034
-0.45574927 -0.14051799 1.3384619
-0.44613943 -0.14083962 1.338306
-0.43367982 -0.14030764 1.3390038
-0.42398182 -0.14179835 1.3395723
-0.41554132 -0.14021334 1.3384
-0.67668879 -0.13804427 1.3355168
-0.65559393 -0.13702485 1.3319504
-0.64032471 -0.13771228 1.3310874
-0.6324017 -0.13769644 1.3329729
-0.62981313 -0.13549483 1.3305278
-0.61742669 -0.13798869 1.3331251
-0.60630208 -0.13799196 1.3346455
-0.59430236 -0.13762961 1.3339766
-0.58356398 -0.13891746 1.3339851
-0.57360965 -0.13823092 1.3331072
-0.56477678 -0.13839337 1.3342725
-0.55436814 -0.13811219 1.3346204
-0.54478186 -0.13774456 1.3338162
-0.53504121 -0.13760786 1.3344623
-0.52542287 -0.13783017 1.3347313
