# .PCD v0.7 - Point Cloud Data file format
VERSION 0.7
FIELDS x y z
SIZE 4 4 4
TYPE F F F
COUNT 1 1 1
WIDTH 1468
HEIGHT 1
VIEWPOINT 0 0 0 1 0 0 0
POINTS 1468
DATA ascii
-0.19413811 0.13622572 0.69100004
-0.19365904 0.13681714 0.69400001
-0.19261429 0.13701428 0.69500005
-0.19211619 0.13760573 0.69800001
-0.19078667 0.13760573 0.69800001
-0.19000001 0.13800001 0.70000005
-0.18866667 0.13800001 0.70000005
-0.18733335 0.13800001 0.70000005
-0.18626572 0.13819715 0.70100003
-0.18493049 0.13819715 0.70100003
-0.18438096 0.13878858 0.70400006
-0.18304001 0.13878858 0.70400006
-0.18247333 0.13937999 0.70700002
-0.18112667 0.13937999 0.70700002
-0.18206859 0.14115429 0.71600002
-0.18070477 0.14115429 0.71600002
-0.17959143 0.14135143 0.71700001
-0.17872287 0.14174572 0.71900004
-0.17760001 0.14194286 0.72000003
-0.17671812 0.14233714 0.72200006
-0.17607142 0.14292859 0.72500002
-0.17493144 0.14312571 0.72600001
-0.17402668 0.14352001 0.72800004
-0.17287715 0.14371714 0.72900003
-0.17148857 0.14371714 0.72900003
-0.17056666 0.14411142 0.73100001
-0.16917428 0.14411142 0.73100001
-0.16892953 0.14509717 0.73600006
-0.16752765 0.14509717 0.73600006
-0.16680285 0.14568858 0.73900002
-0.16561906 0.14588572 0.74000001
-0.16465335 0.14628001 0.74200004
-0.16324 0.14628001 0.74200004
-0.16204476 0.14647715 0.74300003
-0.16106193 0.14687143 0.74500006
-0.16007143 0.14726573 0.74700004
-0.15864858 0.14726573 0.74700004
-0.15743619 0.14746286 0.74800003
-0.15601143 0.14746286 0.74800003
-0.15500002 0.14785716 0.75000006
-0.15418571 0.14844857 0.75300002
-0.15315716 0.14884287 0.75500005
-0.15171905 0.14884287 0.75500005
-0.15048002 0.14904 0.75600004
-0.15042001 0.15042001 0.76300001
-0.14974762 0.15120856 0.76700002
-0.14848 0.15140571 0.76800001
-0.14740001 0.15180001 0.77000004
-0.14593334 0.15180001 0.77000004
-0.14484191 0.15219429 0.77200001
-0.14355716 0.15239145 0.77300006
-0.14245239 0.15278572 0.77500004
-0.14134 0.15318 0.77700001
-0.14040001 0.15377143 0.78000003
-0.13883811 0.15534858 0.78800005
-0.13751143 0.15554573 0.78900003
-0.13600858 0.15554573 0.78900003
-0.13450572 0.15554573 0.78900003
-0.13334 0.15594 0.79100001
-0.13249999 0.15672857 0.79500002
-0.13131525 0.15712287 0.79700005
-0.13028571 0.15771429 0.80000001
-0.1287619 0.15771429 0.80000001
-0.12755619 0.15810858 0.80200005
-0.12634286 0.15850286 0.80400002
-0.12481143 0.15850286 0.80400002
-0.12358667 0.15889715 0.80600005
-0.12265715 0.15968573 0.81000006
-0.12141334 0.16008002 0.81200004
-0.1201619 0.16047429 0.81400001
-0.11904858 0.16106571 0.81700003
-0.11622001 0.16146001 0.81900007
-0.11494 0.1618543 0.82100004
-0.11365238 0.16224858 0.82300001
0.012170476 0.19379143 0.98300004
0.01407143 0.19418573 0.98500007
0.015947619 0.19418573 0.98500007
0.017878097 0.19477715 0.98800004
0.019760001 0.19477715 0.98800004
0.021773333 0.19596002 0.99400002
0.023666667 0.19596002 0.99400002
0.025637142 0.19655144 0.99700004
0.027619047 0.19714285 1
0.029612381 0.19773428 1.003
0.031617146 0.19832572 1.006
0.033599999 0.19872001 1.008
0.035625715 0.19931144 1.011
0.037662856 0.19990286 1.0140001
0.039945714 0.20167714 1.023
0.042017143 0.20226857 1.026
0.044142857 0.20305716 1.0300001
0.046373334 0.20423999 1.036
0.048346665 0.20423999 1.036
0.050611429 0.20542286 1.0420001
0.052899051 0.20660573 1.0480001
0.055104762 0.20739429 1.052
0.057108574 0.20739429 1.052
0.059280954 0.20798571 1.0550001
0.061464764 0.20857716 1.0580001
0.063480005 0.20857716 1.0580001
0.065680958 0.2091686 1.0610001
0.068148576 0.21054859 1.0680001
0.070577145 0.21173142 1.074
0.073096193 0.21311145 1.0810001
0.082385719 0.21587144 1.095
0.089452386 0.21784286 1.105
0.091888577 0.21863145 1.1090001
0.094340004 0.21942 1.113
0.53330958 0.33967716 1.723
0.5341 0.33809999 1.715
0.53736663 0.33809999 1.715
0.54063338 0.33809999 1.715
0.54390001 0.33809999 1.715
0.54716671 0.33809999 1.715
-0.23540001 0.12778857 0.64200002
-0.23381238 0.12758954 0.64100003
-0.23222858 0.12739049 0.64000005
-0.23100953 0.12739049 0.64000005
-0.22979049 0.12739049 0.64000005
-0.22857144 0.12739049 0.64000005
-0.2273524 0.12739049 0.64000005
-0.22648667 0.12758954 0.64100003
-0.22561716 0.12778857 0.64200002
-0.22439429 0.12778857 0.64200002
-0.2242143 0.12838572 0.64500004
-0.22333144 0.12858477 0.64600003
-0.22244476 0.12878382 0.64700001
-0.22155429 0.12898286 0.648
-0.22100002 0.12938096 0.65000004
-0.22010002 0.12958001 0.65100002
-0.21886 0.12958001 0.65100002
-0.21895716 0.13037619 0.65500003
-0.2180419 0.13057524 0.65600002
-0.21712285 0.13077429 0.65700001
-0.21587144 0.13077429 0.65700001
-0.2156 0.13137142 0.66000003
-0.21466762 0.13157047 0.66100001
-0.21373144 0.13176954 0.66200006
-0.2124705 0.13176954 0.66200006
-0.21120954 0.13176954 0.66200006
-0.21090001 0.13236667 0.66500002
-0.20994857 0.13256571 0.66600001
-0.20867999 0.13256571 0.66600001
-0.20865715 0.13336191 0.67000002
-0.208 0.13376001 0.67200005
-0.20733525 0.1341581 0.67400002
-0.20635714 0.13435714 0.67500001
-0.20598286 0.13495429 0.67800003
-0.20499334 0.13515334 0.67900002
-0.204 0.13535237 0.68000001
-0.20330097 0.13575049 0.68200004
-0.20200193 0.13575049 0.68200004
-0.20099716 0.13594954 0.68300003
-0.19998857 0.13614857 0.68400002
-0.19926667 0.13654667 0.68600005
-0.19796002 0.13654667 0.68600005
-0.19751334 0.13714382 0.68900001
-0.19620095 0.13714382 0.68900001
-0.19517145 0.13734286 0.69000006
-0.19385716 0.13734286 0.69000006
-0.19338001 0.13794 0.69300002
-0.19233714 0.13813905 0.69400001
-0.19101523 0.13813905 0.69400001
-0.19078667 0.13893524 0.69800001
-0.18945715 0.13893524 0.69800001
-0.18812761 0.13893524 0.69800001
-0.18733335 0.13933334 0.70000005
-0.18679714 0.13993047 0.70300001
-0.18572192 0.14012954 0.70400006
-0.18438096 0.14012954 0.70400006
-0.1833 0.14032859 0.70500004
-0.18247333 0.14072667 0.70700002
-0.18266381 0.14192097 0.71300006
-0.18206859 0.14251809 0.71600002
-0.18095714 0.14271714 0.71700001
-0.17959143 0.14271714 0.71700001
-0.17872287 0.14311525 0.71900004
-0.17735334 0.14311525 0.71900004
-0.17622858 0.1433143 0.72000003
-0.17558572 0.14391144 0.72300005
-0.17493144 0.14450859 0.72600001
-0.17402668 0.14490667 0.72800004
-0.17287715 0.14510572 0.72900003
-0.17195906 0.14550382 0.73100001
-0.17080002 0.14570287 0.73200005
-0.16917428 0.14550382 0.73100001
-0.16892953 0.14649905 0.73600006
-0.16821048 0.14709619 0.73900002
-0.16702858 0.14729524 0.74000001
-0.16606668 0.14769334 0.74200004
-0.16487524 0.14789239 0.74300003
-0.16346 0.14789239 0.74300003
-0.16204476 0.14789239 0.74300003
-0.16106193 0.14829049 0.74500006
-0.16007143 0.14868857 0.74700004
-0.15886095 0.14888762 0.74800003
-0.15743619 0.14888762 0.74800003
-0.15642859 0.14928573 0.75000006
-0.15541334 0.14968382 0.75200003
-0.15418571 0.14988285 0.75300002
-0.15315716 0.15028097 0.75500005
-0.1523219 0.15087809 0.75800002
-0.15087809 0.15087809 0.75800002
-0.15042001 0.15187332 0.76300001
-0.14974762 0.15266953 0.76700002
-0.14848 0.15286858 0.76800001
-0.14740001 0.15326667 0.77000004
-0.14631239 0.15366477 0.77200001
-0.14484191 0.15366477 0.77200001
-0.14355716 0.15386382 0.77300006
-0.14245239 0.1542619 0.77500004
-0.14134 0.15466 0.77700001
-0.14040001 0.15525715 0.78000003
-0.13883811 0.15684953 0.78800005
-0.13751143 0.15704857 0.78900003
-0.13600858 0.15704857 0.78900003
-0.13484667 0.15744667 0.79100001
-0.13367715 0.15784477 0.79300004
-0.13249999 0.15824285 0.79500002
-0.13147999 0.15884002 0.79800004
-0.13028571 0.15923809 0.80000001
-0.12908381 0.1596362 0.80200005
-0.12787428 0.1600343 0.80400002
-0.12634286 0.1600343 0.80400002
-0.12481143 0.1600343 0.80400002
-0.12358667 0.16043238 0.80600005
-0.12265715 0.16122858 0.81000006
-0.12141334 0.16162667 0.81200004
-0.1201619 0.16202477 0.81400001
-0.11904858 0.16262192 0.81700003
-0.11778001 0.16302001 0.81900007
-0.11622001 0.16302001 0.81900007
-0.11494 0.1634181 0.82100004
-0.11365238 0.1638162 0.82300001
0.012133333 0.19506668 0.98000002
0.014042858 0.19566381 0.98300004
0.016093334 0.19785333 0.99400002
0.017878097 0.19665904 0.98800004
0.019760001 0.19665904 0.98800004
0.021773333 0.19785333 0.99400002
0.023738096 0.19845048 0.99700004
0.025637142 0.19845048 0.99700004
0.027619047 0.19904761 1
0.029612381 0.19964476 1.003
0.031617146 0.20024191 1.006
0.033599999 0.20063999 1.008
0.035731431 0.20183429 1.0140001
0.037774287 0.20243144 1.0170001
0.039828576 0.20302859 1.0200001
0.042017143 0.20422286 1.026
0.044142857 0.20501906 1.0300001
0.046239045 0.20561619 1.033
0.048486669 0.20681047 1.039
0.050611429 0.20740764 1.0420001
0.052747622 0.20800477 1.0450001
0.054738101 0.20800477 1.0450001
0.057108574 0.20939811 1.052
0.059280954 0.20999524 1.0550001
0.061464764 0.2105924 1.0580001
0.063660011 0.21118954 1.0610001
0.065866672 0.21178667 1.064
0.067893334 0.21178667 1.064
0.070577145 0.21377714 1.074
0.073096193 0.21517049 1.0810001
0.075155243 0.21517049 1.0810001
0.077928573 0.21716096 1.0910001
0.082385719 0.21795715 1.095
0.084702857 0.21855429 1.098
0.087110482 0.21935047 1.102
0.089452386 0.21994762 1.105
0.091888577 0.22074382 1.1090001
0.094340004 0.22154 1.113
0.096720003 0.22213715 1.1160001
0.53330958 0.34295908 1.723
0.53659147 0.34295908 1.723
0.53736663 0.34136665 1.715
0.54063338 0.34136665 1.715
0.54390001 0.34136665 1.715
0.54716671 0.34136665 1.715
0.55043334 0.34136665 1.715
-0.23540001 0.12901144 0.64200002
-0.23381238 0.12881048 0.64100003
-0.23259144 0.12881048 0.64100003
-0.23137048 0.12881048 0.64100003
-0.23014954 0.12881048 0.64100003
-0.22857144 0.12860952 0.64000005
-0.22770764 0.12881048 0.64100003
-0.22648667 0.12881048 0.64100003
-0.22561716 0.12901144 0.64200002
-0.22509335 0.12941335 0.64400005
-0.2242143 0.12961428 0.64500004
-0.22333144 0.12981524 0.64600003
-0.22244476 0.13001619 0.64700001
-0.22155429 0.13021713 0.648
-0.22100002 0.13061905 0.65000004
-0.21976192 0.13061905 0.65000004
-0.2191962 0.13102096 0.65200001
-0.21895716 0.1316238 0.65500003
-0.2180419 0.13182476 0.65600002
-0.21712285 0.13202572 0.65700001
-0.21620002 0.13222668 0.65800005
-0.2156 0.13262857 0.66000003
-0.21466762 0.13282953 0.66100001
-0.21340857 0.13282953 0.66100001
-0.2124705 0.13303047 0.66200006
-0.21120954 0.13303047 0.66200006
-0.21090001 0.13363333 0.66500002
-0.20994857 0.13383429 0.66600001
-0.20962001 0.13443716 0.66900003
-0.20865715 0.1346381 0.67000002
-0.208 0.13504 0.67200005
-0.20733525 0.13544191 0.67400002
-0.20635714 0.13564286 0.67500001
-0.20598286 0.13624573 0.67800003
-0.20529523 0.13664761 0.68000001
-0.204 0.13664761 0.68000001
-0.20330097 0.13704953 0.68200004
-0.20200193 0.13704953 0.68200004
-0.20099716 0.13725048 0.68300003
-0.19998857 0.13745143 0.68400002
-0.19926667 0.13785335 0.68600005
-0.19882572 0.13845618 0.68900001
-0.19751334 0.13845618 0.68900001
-0.19648573 0.13865715 0.69000006
-0.19517145 0.13865715 0.69000006
-0.19385716 0.13865715 0.69000006
-0.19338001 0.13926001 0.69300002
-0.19316858 0.14006381 0.69700003
-0.19211619 0.14026476 0.69800001
-0.19078667 0.14026476 0.69800001
-0.18945715 0.14026476 0.69800001
-0.18866667 0.14066668 0.70000005
-0.18733335 0.14066668 0.70000005
-0.18626572 0.14086762 0.70100003
-0.18545809 0.14126953 0.70300001
-0.18438096 0.14147048 0.70400006
-0.18407999 0.14227429 0.708
-0.18273142 0.14227429 0.708
-0.18292001 0.14348 0.71400005
-0.18206859 0.1438819 0.71600002
-0.18070477 0.1438819 0.71600002
-0.17959143 0.14408286 0.71700001
-0.17872287 0.14448477 0.71900004
-0.17760001 0.14468573 0.72000003
-0.17671812 0.14508763 0.72200006
-0.17558572 0.14528857 0.72300005
-0.17493144 0.14589143 0.72600001
-0.17402668 0.14629334 0.72800004
-0.17287715 0.14649428 0.72900003
-0.17195906 0.14689618 0.73100001
-0.17056666 0.14689618 0.73100001
-0.16940571 0.14709716 0.73200005
-0.16892953 0.14790097 0.73600006
-0.16821048 0.14850381 0.73900002
-0.16702858 0.14870475 0.74000001
-0.16606668 0.14910668 0.74200004
-0.16487524 0.14930762 0.74300003
-0.16346 0.14930762 0.74300003
-0.16204476 0.14930762 0.74300003
-0.1614943 0.15011144 0.74700004
-0.16007143 0.15011144 0.74700004
-0.15886095 0.15031238 0.74800003
-0.15743619 0.15031238 0.74800003
-0.15642859 0.15071429 0.75000006
-0.15541334 0.15111621 0.75200003
-0.15418571 0.15131715 0.75300002
-0.15315716 0.15171905 0.75500005
-0.15171905 0.15171905 0.75500005
-0.1512762 0.15272382 0.76000005
-0.15042001 0.15332666 0.76300001
-0.14935715 0.15372857 0.76500005
-0.14848 0.15433143 0.76800001
-0.14740001 0.15473333 0.77000004
-0.14631239 0.15513523 0.77200001
-0.14502953 0.1553362 0.77300006
-0.14355716 0.1553362 0.77300006
-0.14245239 0.1557381 0.77500004
-0.14134 0.15614 0.77700001
-0.14022 0.1565419 0.77900004
-0.13998286 0.15794858 0.78600001
-0.13883811 0.15835048 0.78800005
-0.13751143 0.15855142 0.78900003
-0.13600858 0.15855142 0.78900003
-0.13484667 0.15895334 0.79100001
-0.13367715 0.15935525 0.79300004
-0.13249999 0.15975715 0.79500002
-0.13147999 0.16036001 0.79800004
-0.12908381 0.16116382 0.80200005
-0.12787428 0.16156571 0.80400002
-0.12634286 0.16156571 0.80400002
-0.12481143 0.16156571 0.80400002
-0.12358667 0.16196762 0.80600005
-0.12265715 0.16277145 0.81000006
-0.12141334 0.16317333 0.81200004
-0.1201619 0.16357523 0.81400001
-0.11778001 0.16458002 0.81900007
-0.11622001 0.16458002 0.81900007
-0.11494 0.1649819 0.82100004
-0.11365238 0.1653838 0.82300001
0.012133333 0.19693333 0.98000002
0.014 0.19693333 0.98000002
0.015866667 0.19693333 0.98000002
0.017986666 0.19974667 0.99400002
0.019880001 0.19974667 0.99400002
0.021839049 0.20034952 0.99700004
0.023738096 0.20034952 0.99700004
0.025714286 0.20095238 1
0.027701905 0.20155525 1.003
0.029760001 0.20256001 1.008
0.031679999 0.20256001 1.008
0.0337 0.20316286 1.011
0.035731431 0.20376572 1.0140001
0.037774287 0.20436859 1.0170001
0.039828576 0.20497145 1.0200001
0.042017143 0.20617715 1.026
0.044271428 0.2075838 1.033
0.046239045 0.2075838 1.033
0.048486669 0.20878953 1.039
0.050611429 0.2093924 1.0420001
0.052747622 0.20999524 1.0450001
0.055104762 0.21140192 1.052
0.057108574 0.21140192 1.052
0.059449527 0.21260764 1.0580001
0.061639056 0.21321049 1.0610001
0.063839994 0.21381333 1.064
0.065866672 0.21381333 1.064
0.068340003 0.21522002 1.0710001
0.070577145 0.21582286 1.074
0.073096193 0.21722955 1.0810001
0.075433336 0.21803334 1.085
0.077928573 0.21923907 1.0910001
0.080006666 0.21923907 1.0910001
0.084702857 0.22064573 1.098
0.087110482 0.22144952 1.102
0.089452386 0.22205238 1.105
0.091888577 0.22285621 1.1090001
0.094340004 0.22366001 1.113
0.096720003 0.22426286 1.1160001
0.53330958 0.34624097 1.723
0.53659147 0.34624097 1.723
0.5398733 0.34624097 1.723
0.54063338 0.34463334 1.715
0.54390001 0.34463334 1.715
0.54716671 0.34463334 1.715
0.55043334 0.34463334 1.715
-0.23540001 0.13023429 0.64200002
-0.23381238 0.13003144 0.64100003
-0.23259144 0.13003144 0.64100003
-0.23137048 0.13003144 0.64100003
-0.23014954 0.13003144 0.64100003
-0.22892858 0.13003144 0.64100003
-0.22770764 0.13003144 0.64100003
-0.22648667 0.13003144 0.64100003
-0.22561716 0.13023429 0.64200002
-0.22509335 0.13064002 0.64400005
-0.2242143 0.13084286 0.64500004
-0.22333144 0.13104571 0.64600003
-0.22244476 0.13124858 0.64700001
-0.22155429 0.13145143 0.648
-0.22100002 0.13185716 0.65000004
-0.22043809 0.13226286 0.65200001
-0.2191962 0.13226286 0.65200001
-0.21895716 0.13287142 0.65500003
-0.2180419 0.13307428 0.65600002
-0.21712285 0.13327713 0.65700001
-0.21620002 0.13348001 0.65800005
-0.2156 0.13388571 0.66000003
-0.21466762 0.13408858 0.66100001
-0.21340857 0.13408858 0.66100001
-0.2124705 0.13429144 0.66200006
-0.21120954 0.13429144 0.66200006
-0.21090001 0.1349 0.66500002
-0.21026383 0.13530573 0.66700006
-0.20962001 0.13571143 0.66900003
-0.20865715 0.1359143 0.67000002
-0.208 0.13632001 0.67200005
-0.20733525 0.13672572 0.67400002
-0.20635714 0.13692857 0.67500001
-0.20628668 0.13774 0.67900002
-0.20529523 0.13794285 0.68000001
-0.204 0.13794285 0.68000001
-0.20330097 0.13834858 0.68200004
-0.2022981 0.13855143 0.68300003
-0.20099716 0.13855143 0.68300003
-0.19998857 0.13875428 0.68400002
-0.19926667 0.13916001 0.68600005
-0.19882572 0.13976857 0.68900001
-0.19751334 0.13976857 0.68900001
-0.19648573 0.13997145 0.69000006
-0.19517145 0.13997145 0.69000006
-0.19385716 0.13997145 0.69000006
-0.19338001 0.14058001 0.69300002
-0.19316858 0.14139143 0.69700003
-0.19211619 0.14159428 0.69800001
-0.19078667 0.14159428 0.69800001
-0.18945715 0.14159428 0.69800001
-0.18866667 0.142 0.70000005
-0.18733335 0.142 0.70000005
-0.18626572 0.14220285 0.70100003
-0.18572192 0.14281143 0.70400006
-0.18438096 0.14281143 0.70400006
-0.18407999 0.14362286 0.708
-0.18324763 0.14402857 0.71000004
-0.18266381 0.14463715 0.71300006
-0.18206859 0.14524572 0.71600002
-0.18070477 0.14524572 0.71600002
-0.17959143 0.14544858 0.71700001
-0.17872287 0.14585429 0.71900004
-0.17760001 0.14605714 0.72000003
-0.17671812 0.14646287 0.72200006
-0.17607142 0.14707144 0.72500002
-0.17493144 0.14727429 0.72600001
-0.17402668 0.14768001 0.72800004
-0.17335142 0.14828858 0.73100001
-0.1721943 0.14849144 0.73200005
-0.17080002 0.14849144 0.73200005
-0.16940571 0.14849144 0.73200005
-0.16847049 0.14889716 0.73400003
-0.16821048 0.14991142 0.73900002
-0.16702858 0.15011428 0.74000001
-0.16606668 0.15052 0.74200004
-0.16487524 0.15072286 0.74300003
-0.16390002 0.15112858 0.74500006
-0.16248097 0.15112858 0.74500006
-0.1614943 0.15153429 0.74700004
-0.16007143 0.15153429 0.74700004
-0.15886095 0.15173715 0.74800003
-0.15785715 0.15214287 0.75000006
-0.15684572 0.15254858 0.75200003
-0.15561999 0.15275143 0.75300002
-0.15418571 0.15275143 0.75300002
-0.15315716 0.15315716 0.75500005
-0.15171905 0.15315716 0.75500005
-0.1512762 0.15417144 0.76000005
-0.15081429 0.15518571 0.76500005
-0.14974762 0.15559143 0.76700002
-0.14848 0.15579428 0.76800001
-0.14740001 0.15620001 0.77000004
-0.14631239 0.15660572 0.77200001
-0.14502953 0.15680858 0.77300006
-0.14392857 0.1572143 0.77500004
-0.14245239 0.1572143 0.77500004
-0.14134 0.15762 0.77700001
-0.14022 0.15802571 0.77900004
-0.13998286 0.15944572 0.78600001
-0.13883811 0.15985143 0.78800005
-0.13751143 0.1600543 0.78900003
-0.13600858 0.1600543 0.78900003
-0.13484667 0.16046 0.79100001
-0.13367715 0.16086572 0.79300004
-0.13283333 0.16167715 0.79700005
-0.13147999 0.16188002 0.79800004
-0.12787428 0.16309714 0.80400002
-0.12634286 0.16309714 0.80400002
-0.12481143 0.16309714 0.80400002
-0.12389333 0.16390857 0.80800003
-0.12265715 0.1643143 0.81000006
-0.12141334 0.16472001 0.81200004
-0.11778001 0.16614002 0.81900007
-0.11650381 0.16654572 0.82100004
-0.11522 0.16695142 0.82300001
0.016093334 0.20163999 0.99400002
0.018040953 0.20224857 0.99700004
0.01994 0.20224857 0.99700004
0.021839049 0.20224857 0.99700004
0.023738096 0.20224857 0.99700004
0.025714286 0.20285714 1
0.027701905 0.20346572 1.003
0.029760001 0.20448001 1.008
0.031679999 0.20448001 1.008
0.0337 0.20508857 1.011
0.035731431 0.20569715 1.0140001
0.037774287 0.20630573 1.0170001
0.039945714 0.20752285 1.023
0.042180955 0.20894288 1.0300001
0.044271428 0.20955142 1.033
0.046373334 0.21016 1.036
0.048486669 0.21076858 1.039
0.050611429 0.21137716 1.0420001
0.052899051 0.2125943 1.0480001
0.055104762 0.21340571 1.052
0.057271428 0.21401429 1.0550001
0.059449527 0.21462287 1.0580001
0.061639056 0.21523145 1.0610001
0.063839994 0.21584 1.064
0.066114292 0.21665145 1.0680001
0.068340003 0.21726002 1.0710001
0.070577145 0.21786857 1.074
0.073096193 0.21928859 1.0810001
0.075433336 0.22010002 1.085
0.077928573 0.22131716 1.0910001
0.082611434 0.22273715 1.098
0.089452386 0.22415714 1.105
0.091888577 0.2249686 1.1090001
0.094340004 0.22578 1.113
0.096720003 0.22638857 1.1160001
0.53659147 0.34952289 1.723
0.5398733 0.34952289 1.723
0.54315519 0.34952289 1.723
0.54390001 0.3479 1.715
0.54716671 0.3479 1.715
0.55043334 0.3479 1.715
-0.23540001 0.13145714 0.64200002
-0.23381238 0.13125238 0.64100003
-0.23259144 0.13125238 0.64100003
-0.23137048 0.13125238 0.64100003
-0.23014954 0.13125238 0.64100003
-0.22892858 0.13125238 0.64100003
-0.22770764 0.13125238 0.64100003
-0.22648667 0.13125238 0.64100003
-0.22561716 0.13145714 0.64200002
-0.22509335 0.13186668 0.64400005
-0.2242143 0.13207144 0.64500004
-0.22333144 0.13227619 0.64600003
-0.22244476 0.13248095 0.64700001
-0.22155429 0.13268572 0.648
-0.22100002 0.13309525 0.65000004
-0.22010002 0.13330001 0.65100002
-0.2191962 0.13350476 0.65200001
-0.21895716 0.13411906 0.65500003
-0.2180419 0.13432382 0.65600002
-0.21712285 0.13452858 0.65700001
-0.21620002 0.13473335 0.65800005
-0.2156 0.13514286 0.66000003
-0.21466762 0.13534762 0.66100001
-0.21373144 0.13555239 0.66200006
-0.2124705 0.13555239 0.66200006
-0.21120954 0.13555239 0.66200006
-0.21121714 0.13637143 0.66600001
-0.21026383 0.13657621 0.66700006
-0.20993334 0.13719048 0.67000002
-0.20865715 0.13719048 0.67000002
-0.208 0.1376 0.67200005
-0.20672001 0.1376 0.67200005
-0.20635714 0.13821429 0.67500001
-0.20628668 0.13903333 0.67900002
-0.20529523 0.13923809 0.68000001
-0.204 0.13923809 0.68000001
-0.20330097 0.13964762 0.68200004
-0.2022981 0.13985237 0.68300003
-0.20099716 0.13985237 0.68300003
-0.19998857 0.14005713 0.68400002
-0.19955714 0.14067143 0.68700004
-0.19882572 0.14108096 0.68900001
-0.19780001 0.14128572 0.69000006
-0.19677049 0.14149047 0.69100004
-0.1954543 0.14149047 0.69100004
-0.19413811 0.14149047 0.69100004
-0.19338001 0.1419 0.69300002
-0.19316858 0.14271906 0.69700003
-0.19211619 0.14292382 0.69800001
-0.19078667 0.14292382 0.69800001
-0.18945715 0.14292382 0.69800001
-0.18866667 0.14333335 0.70000005
-0.18760096 0.1435381 0.70100003
-0.18679714 0.14394762 0.70300001
-0.18572192 0.14415239 0.70400006
-0.18438096 0.14415239 0.70400006
-0.18407999 0.14497143 0.708
-0.18350571 0.14558572 0.71100003
-0.18266381 0.14599524 0.71300006
-0.18156001 0.1462 0.71400005
-0.18070477 0.14660953 0.71600002
-0.17959143 0.14681429 0.71700001
-0.17822573 0.14681429 0.71700001
-0.17760001 0.14742857 0.72000003
-0.17671812 0.1478381 0.72200006
-0.17607142 0.14845239 0.72500002
-0.17493144 0.14865714 0.72600001
-0.17402668 0.14906667 0.72800004
-0.17287715 0.14927143 0.72900003
-0.17195906 0.14968096 0.73100001
-0.17080002 0.14988571 0.73200005
-0.16940571 0.14988571 0.73200005
-0.16847049 0.15029524 0.73400003
-0.16775525 0.15090954 0.73700005
-0.16702858 0.15152381 0.74000001
-0.16606668 0.15193334 0.74200004
-0.16531907 0.15254763 0.74500006
-0.16390002 0.15254763 0.74500006
-0.16248097 0.15254763 0.74500006
-0.1614943 0.15295716 0.74700004
-0.16028571 0.15316191 0.74800003
-0.15886095 0.15316191 0.74800003
-0.15785715 0.15357144 0.75000006
-0.15684572 0.15398096 0.75200003
-0.15561999 0.15418571 0.75300002
-0.15418571 0.15418571 0.75300002
-0.15315716 0.15459524 0.75500005
-0.15171905 0.15459524 0.75500005
-0.1512762 0.15561906 0.76000005
-0.15081429 0.15664285 0.76500005
-0.14974762 0.15705238 0.76700002
-0.14848 0.15725714 0.76800001
-0.14701714 0.15725714 0.76800001
-0.14593334 0.15766667 0.77000004
-0.14502953 0.15828095 0.77300006
-0.14392857 0.15869048 0.77500004
-0.14245239 0.15869048 0.77500004
-0.14134 0.15910001 0.77700001
-0.13985999 0.15910001 0.77700001
-0.13998286 0.16094287 0.78600001
-0.13883811 0.1613524 0.78800005
-0.13751143 0.16155715 0.78900003
-0.13635334 0.16196667 0.79100001
-0.13484667 0.16196667 0.79100001
-0.13401428 0.16278571 0.79500002
-0.13283333 0.16319525 0.79700005
-0.13180953 0.16380952 0.80000001
-0.12787428 0.16462857 0.80400002
-0.12634286 0.16462857 0.80400002
-0.12512191 0.16503811 0.80600005
-0.12389333 0.16544762 0.80800003
-0.12265715 0.16585715 0.81000006
-0.12171239 0.16667619 0.81400001
-0.11778001 0.16770001 0.81900007
-0.11650381 0.16810954 0.82100004
0.016093334 0.20353334 0.99400002
0.017986666 0.20353334 0.99400002
0.01994 0.20414762 0.99700004
0.021904761 0.20476191 1
0.023809524 0.20476191 1
0.025714286 0.20476191 1
0.027701905 0.20537619 1.003
0.029700954 0.20599048 1.006
0.031679999 0.20639999 1.008
0.0337 0.20701429 1.011
0.035731431 0.20762858 1.0140001
0.037774287 0.20824286 1.0170001
0.039945714 0.20947143 1.023
0.042180955 0.21090478 1.0300001
0.044399999 0.21213333 1.036
0.046373334 0.21213333 1.036
0.048626669 0.21336192 1.0420001
0.050757147 0.2139762 1.0450001
0.052899051 0.21459049 1.0480001
0.055104762 0.21540953 1.052
0.057271428 0.21602382 1.0550001
0.059449527 0.2166381 1.0580001
0.061813332 0.21786667 1.064
0.063839994 0.21786667 1.064
0.066114292 0.21868572 1.0680001
0.068340003 0.21930002 1.0710001
0.070577145 0.21991429 1.074
0.073096193 0.22134764 1.0810001
0.075641908 0.22278096 1.0880001
0.077928573 0.22339526 1.0910001
0.080006666 0.22339526 1.0910001
0.082385719 0.22421429 1.095
0.087110482 0.22564761 1.102
0.089452386 0.2262619 1.105
0.091888577 0.22708096 1.1090001
0.094340004 0.22790001 1.113
0.096460007 0.22790001 1.113
0.53939432 0.35464764 1.7320001
0.5398733 0.35280475 1.723
0.54315519 0.35280475 1.723
0.54643714 0.35280475 1.723
0.54716671 0.35116667 1.715
0.55043334 0.35116667 1.715
-0.23503335 0.13247333 0.64100003
-0.23381238 0.13247333 0.64100003
-0.23259144 0.13247333 0.64100003
-0.23173143 0.13268001 0.64200002
-0.23014954 0.13247333 0.64100003
-0.22892858 0.13247333 0.64100003
-0.22806285 0.13268001 0.64200002
-0.22684 0.13268001 0.64200002
-0.22561716 0.13268001 0.64200002
-0.22509335 0.13309334 0.64400005
-0.2242143 0.13330001 0.64500004
-0.22333144 0.13350667 0.64600003
-0.22210096 0.13350667 0.64600003
-0.22121239 0.13371333 0.64700001
-0.22032 0.13392 0.648
-0.22010002 0.13453999 0.65100002
-0.2191962 0.13474667 0.65200001
-0.21895716 0.13536668 0.65500003
-0.2180419 0.13557334 0.65600002
-0.21745335 0.13598667 0.65800005
-0.21620002 0.13598667 0.65800005
-0.2156 0.1364 0.66000003
-0.21466762 0.13660666 0.66100001
-0.21340857 0.13660666 0.66100001
-0.2124705 0.13681334 0.66200006
-0.21120954 0.13681334 0.66200006
-0.21090001 0.13743334 0.66500002
-0.21026383 0.13784668 0.66700006
-0.20993334 0.13846667 0.67000002
-0.20896858 0.13867332 0.671
-0.208 0.13888 0.67200005
-0.20733525 0.13929334 0.67400002
-0.20635714 0.13950001 0.67500001
-0.20598286 0.14012 0.67800003
-0.20529523 0.14053333 0.68000001
-0.204 0.14053333 0.68000001
-0.20330097 0.14094667 0.68200004
-0.2022981 0.14115334 0.68300003
-0.20099716 0.14115334 0.68300003
-0.19998857 0.14136 0.68400002
-0.19955714 0.14198001 0.68700004
-0.19882572 0.14239334 0.68900001
-0.19751334 0.14239334 0.68900001
-0.19677049 0.14280666 0.69100004
-0.1954543 0.14280666 0.69100004
-0.19413811 0.14280666 0.69100004
-0.19365904 0.14342667 0.69400001
-0.19316858 0.14404668 0.69700003
-0.19211619 0.14425333 0.69800001
-0.19078667 0.14425333 0.69800001
-0.19000001 0.14466667 0.70000005
-0.1889362 0.14487334 0.70100003
-0.18813619 0.14528666 0.70300001
-0.18679714 0.14528666 0.70300001
-0.18572192 0.14549334 0.70400006
-0.18516667 0.14611334 0.70700002
-0.18407999 0.14632 0.708
-0.18350571 0.14694001 0.71100003
-0.18266381 0.14735334 0.71300006
-0.18156001 0.14756 0.71400005
-0.18070477 0.14797334 0.71600002
-0.17959143 0.14818001 0.71700001
-0.17872287 0.14859334 0.71900004
-0.17735334 0.14859334 0.71900004
-0.17622858 0.1488 0.72000003
-0.17558572 0.14942001 0.72300005
-0.17493144 0.15004 0.72600001
-0.17426571 0.15066001 0.72900003
-0.17287715 0.15066001 0.72900003
-0.17195906 0.15107334 0.73100001
-0.17056666 0.15107334 0.73100001
-0.16940571 0.15128 0.73200005
-0.16847049 0.15169333 0.73400003
-0.16775525 0.15231335 0.73700005
-0.16702858 0.15293333 0.74000001
-0.16629049 0.15355334 0.74300003
-0.16531907 0.15396668 0.74500006
-0.16390002 0.15396668 0.74500006
-0.16248097 0.15396668 0.74500006
-0.1614943 0.15438001 0.74700004
-0.16028571 0.15458667 0.74800003
-0.15886095 0.15458667 0.74800003
-0.15827809 0.15541334 0.75200003
-0.15705428 0.15561999 0.75300002
-0.15603334 0.15603334 0.75500005
-0.15459524 0.15603334 0.75500005
-0.15315716 0.15603334 0.75500005
-0.1523219 0.15665334 0.75800002
-0.15087809 0.15665334 0.75800002
-0.15081429 0.15810001 0.76500005
-0.14974762 0.15851334 0.76700002
-0.14848 0.15872 0.76800001
-0.14701714 0.15872 0.76800001
-0.14593334 0.15913334 0.77000004
-0.14502953 0.15975334 0.77300006
-0.14392857 0.16016667 0.77500004
-0.14245239 0.16016667 0.77500004
-0.14134 0.16058001 0.77700001
-0.14022 0.16099335 0.77900004
-0.13962667 0.16202667 0.78400004
-0.13848571 0.16244 0.78600001
-0.13733715 0.16285335 0.78800005
-0.13600858 0.16306001 0.78900003
-0.13518763 0.16388667 0.79300004
-0.13401428 0.16429999 0.79500002
-0.133 0.16492002 0.79800004
-0.13180953 0.16533333 0.80000001
-0.13061143 0.16574667 0.80200005
-0.12787428 0.16616 0.80400002
-0.12634286 0.16616 0.80400002
-0.12512191 0.16657335 0.80600005
-0.12358667 0.16657335 0.80600005
-0.12296 0.16781335 0.81200004
-0.12171239 0.16822666 0.81400001
-0.11650381 0.16967334 0.82100004
0.016141906 0.20604667 0.99700004
0.018040953 0.20604667 0.99700004
0.01994 0.20604667 0.99700004
0.021904761 0.20666666 1
0.023809524 0.20666666 1
0.025791429 0.20728667 1.003
0.027701905 0.20728667 1.003
0.029760001 0.20832001 1.008
0.031679999 0.20832001 1.008
0.0337 0.20894 1.011
0.035731431 0.20956001 1.0140001
0.037885718 0.21080002 1.0200001
0.039945714 0.21142 1.023
0.041894283 0.21142 1.023
0.044271428 0.21348666 1.033
0.046373334 0.21410666 1.036
0.048626669 0.21534668 1.0420001
0.050757147 0.21596667 1.0450001
0.052899051 0.21658668 1.0480001
0.055104762 0.21741334 1.052
0.057271428 0.21803334 1.0550001
0.059449527 0.21865335 1.0580001
0.061813332 0.21989334 1.064
0.063839994 0.21989334 1.064
0.066114292 0.22072001 1.0680001
0.068340003 0.22134003 1.0710001
0.07038001 0.22134003 1.0710001
0.073096193 0.22340669 1.0810001
0.075641908 0.22485334 1.0880001
0.077928573 0.22547336 1.0910001
0.080300003 0.2263 1.095
0.082385719 0.2263 1.095
0.08501143 0.22774667 1.102
0.087110482 0.22774667 1.102
0.089452386 0.22836667 1.105
0.091888577 0.22919334 1.1090001
0.094340004 0.23002 1.113
0.096720003 0.23064001 1.1160001
0.53939432 0.35794669 1.7320001
0.54269338 0.35794669 1.7320001
0.54315519 0.35608667 1.723
0.54643714 0.35608667 1.723
0.54971904 0.35608667 1.723
0.55043334 0.35443333 1.715
-0.23503335 0.13369429 0.64100003
-0.23381238 0.13369429 0.64100003
-0.23295429 0.13390286 0.64200002
-0.23173143 0.13390286 0.64200002
-0.23050858 0.13390286 0.64200002
-0.22928572 0.13390286 0.64200002
-0.22806285 0.13390286 0.64200002
-0.22684 0.13390286 0.64200002
-0.22561716 0.13390286 0.64200002
-0.22509335 0.13432001 0.64400005
-0.2242143 0.13452858 0.64500004
-0.22333144 0.13473713 0.64600003
-0.22210096 0.13473713 0.64600003
-0.22121239 0.13494572 0.64700001
-0.22100002 0.13557144 0.65000004
-0.22010002 0.13577999 0.65100002
-0.2191962 0.13598858 0.65200001
-0.21828859 0.13619716 0.65300006
-0.2180419 0.13682286 0.65600002
-0.21745335 0.13724001 0.65800005
-0.21620002 0.13724001 0.65800005
-0.2156 0.13765715 0.66000003
-0.21466762 0.13786572 0.66100001
-0.21373144 0.13807429 0.66200006
-0.2124705 0.13807429 0.66200006
-0.21120954 0.13807429 0.66200006
-0.21121714 0.13890858 0.66600001
-0.21026383 0.13911715 0.66700006
-0.20962001 0.13953428 0.66900003
-0.20896858 0.13995144 0.671
-0.208 0.14016001 0.67200005
-0.20733525 0.14057714 0.67400002
-0.20635714 0.14078571 0.67500001
-0.20598286 0.14141144 0.67800003
-0.20529523 0.14182857 0.68000001
-0.204 0.14182857 0.68000001
-0.20330097 0.14224571 0.68200004
-0.2022981 0.1424543 0.68300003
-0.20099716 0.1424543 0.68300003
-0.19998857 0.14266287 0.68400002
-0.19955714 0.14328857 0.68700004
-0.19882572 0.14370573 0.68900001
-0.19751334 0.14370573 0.68900001
-0.19648573 0.1439143 0.69000006
-0.1954543 0.14412287 0.69100004
-0.19413811 0.14412287 0.69100004
-0.19365904 0.14474858 0.69400001
-0.19316858 0.14537428 0.69700003
-0.19211619 0.14558285 0.69800001
-0.19078667 0.14558285 0.69800001
-0.19000001 0.146 0.70000005
-0.1889362 0.14620858 0.70100003
-0.18813619 0.14662571 0.70300001
-0.18706287 0.1468343 0.70400006
-0.18598573 0.14704286 0.70500004
-0.18542856 0.14766857 0.708
-0.18407999 0.14766857 0.708
-0.18350571 0.14829428 0.71100003
-0.18215142 0.14829428 0.71100003
-0.18156001 0.14892001 0.71400005
-0.18070477 0.14933714 0.71600002
-0.17959143 0.14954571 0.71700001
-0.17872287 0.14996287 0.71900004
-0.17760001 0.15017143 0.72000003
-0.17671812 0.15058859 0.72200006
-0.17558572 0.15079714 0.72300005
-0.17493144 0.15142286 0.72600001
-0.17402668 0.15184 0.72800004
-0.17287715 0.15204857 0.72900003
-0.17195906 0.15246572 0.73100001
-0.17080002 0.1526743 0.73200005
-0.16940571 0.1526743 0.73200005
-0.16847049 0.15309143 0.73400003
-0.16775525 0.15371716 0.73700005
-0.16702858 0.15434286 0.74000001
-0.16606668 0.15476002 0.74200004
-0.16531907 0.15538573 0.74500006
-0.16346 0.15496857 0.74300003
-0.16248097 0.15538573 0.74500006
-0.1614943 0.15580286 0.74700004
-0.16028571 0.15601143 0.74800003
-0.15886095 0.15601143 0.74800003
-0.15827809 0.15684572 0.75200003
-0.15705428 0.15705428 0.75300002
-0.15561999 0.15705428 0.75300002
-0.15459524 0.15747145 0.75500005
-0.15315716 0.15747145 0.75500005
-0.1523219 0.15809713 0.75800002
-0.15187332 0.15914001 0.76300001
-0.15081429 0.15955715 0.76500005
-0.14974762 0.15997429 0.76700002
-0.14848 0.16018286 0.76800001
-0.14740001 0.16060001 0.77000004
-0.14631239 0.16101715 0.77200001
-0.14502953 0.16122574 0.77300006
-0.14392857 0.16164286 0.77500004
-0.14282 0.16206001 0.77700001
-0.14134 0.16206001 0.77700001
-0.14040001 0.16268572 0.78000003
-0.13962667 0.16352001 0.78400004
-0.13848571 0.16393714 0.78600001
-0.13733715 0.16435429 0.78800005
-0.13635334 0.16498001 0.79100001
-0.13518763 0.16539715 0.79300004
-0.13401428 0.1658143 0.79500002
-0.13283333 0.16623144 0.79700005
-0.13180953 0.16685714 0.80000001
-0.13061143 0.1672743 0.80200005
-0.12940572 0.16769142 0.80400002
-0.12787428 0.16769142 0.80400002
-0.12634286 0.16769142 0.80400002
-0.12512191 0.16810858 0.80600005
-0.12358667 0.16810858 0.80600005
-0.12265715 0.16894287 0.81000006
-0.12141334 0.16936 0.81200004
-0.11650381 0.17123716 0.82100004
-0.11392858 0.17207143 0.82500005
0.01994 0.20794572 0.99700004
0.021904761 0.20857142 1
0.023809524 0.20857142 1
0.025791429 0.20919713 1.003
0.027701905 0.20919713 1.003
0.029760001 0.21023999 1.008
0.031679999 0.21023999 1.008
0.0337 0.21086572 1.011
0.035837144 0.21211717 1.0170001
0.037885718 0.21274288 1.0200001
0.04006286 0.21399428 1.026
0.042180955 0.2148286 1.0300001
0.044271428 0.2154543 1.033
0.046373334 0.21608 1.036
0.048626669 0.21733144 1.0420001
0.050757147 0.21795715 1.0450001
0.052899051 0.21858288 1.0480001
0.055104762 0.21941715 1.052
0.057271428 0.22004287 1.0550001
0.059449527 0.2206686 1.0580001
0.061813332 0.22192 1.064
0.06408 0.2227543 1.0680001
0.066300005 0.22338003 1.0710001
0.068340003 0.22338003 1.0710001
0.070577145 0.2240057 1.074
0.073096193 0.22546573 1.0810001
0.075641908 0.22692573 1.0880001
0.077928573 0.22755145 1.0910001
0.080300003 0.22838572 1.095
0.082385719 0.22838572 1.095
0.08501143 0.2298457 1.102
0.087110482 0.2298457 1.102
0.089452386 0.23047143 1.105
0.091888577 0.23130573 1.1090001
0.094340004 0.23214 1.113
0.096720003 0.23276572 1.1160001
0.54551333 0.36312288 1.7410001
0.54599243 0.36124572 1.7320001
0.54929149 0.36124572 1.7320001
0.54971904 0.35936856 1.723
-0.23540001 0.13512571 0.64200002
-0.23417714 0.13512571 0.64200002
-0.23295429 0.13512571 0.64200002
-0.23173143 0.13512571 0.64200002
-0.23050858 0.13512571 0.64200002
-0.22928572 0.13512571 0.64200002
-0.22806285 0.13512571 0.64200002
-0.22684 0.13512571 0.64200002
-0.22561716 0.13512571 0.64200002
-0.22509335 0.13554667 0.64400005
-0.2242143 0.13575715 0.64500004
-0.22298571 0.13575715 0.64500004
-0.22210096 0.13596763 0.64600003
-0.22087049 0.13596763 0.64600003
-0.22032 0.13638857 0.648
-0.22010002 0.13702001 0.65100002
-0.2191962 0.13723047 0.65200001
-0.21828859 0.13744096 0.65300006
-0.2180419 0.13807237 0.65600002
-0.21712285 0.13828287 0.65700001
-0.21587144 0.13828287 0.65700001
-0.2156 0.13891429 0.66000003
-0.21466762 0.13912477 0.66100001
-0.21373144 0.13933526 0.66200006
-0.2124705 0.13933526 0.66200006
-0.21120954 0.13933526 0.66200006
-0.21121714 0.14017715 0.66600001
-0.21026383 0.14038762 0.66700006
-0.20962001 0.14080857 0.66900003
-0.20896858 0.14122953 0.671
-0.208 0.14144 0.67200005
-0.20733525 0.14186096 0.67400002
-0.20666288 0.14228192 0.67600006
-0.20628668 0.14291334 0.67900002
-0.20529523 0.14312381 0.68000001
-0.204 0.14312381 0.68000001
-0.20330097 0.14354478 0.68200004
-0.20200193 0.14354478 0.68200004
-0.20099716 0.14375524 0.68300003
-0.19998857 0.14396572 0.68400002
-0.19955714 0.14459716 0.68700004
-0.19882572 0.14501809 0.68900001
-0.19751334 0.14501809 0.68900001
-0.19677049 0.14543906 0.69100004
-0.19601999 0.14586 0.69300002
-0.19470002 0.14586 0.69300002
-0.19365904 0.14607048 0.69400001
-0.19316858 0.1467019 0.69700003
-0.19211619 0.14691238 0.69800001
-0.19133334 0.14733334 0.70000005
-0.19000001 0.14733334 0.70000005
-0.1889362 0.14754382 0.70100003
-0.18813619 0.14796476 0.70300001
-0.18732858 0.14838572 0.70500004
-0.18598573 0.14838572 0.70500004
-0.18542856 0.14901714 0.708
-0.18460001 0.1494381 0.71000004
-0.18350571 0.14964858 0.71100003
-0.18215142 0.14964858 0.71100003
-0.18156001 0.15028 0.71400005
-0.18070477 0.15070096 0.71600002
-0.17959143 0.15091142 0.71700001
-0.17872287 0.15133238 0.71900004
-0.17760001 0.15154287 0.72000003
-0.17671812 0.15196382 0.72200006
-0.17558572 0.15217429 0.72300005
-0.17493144 0.15280572 0.72600001
-0.17426571 0.15343715 0.72900003
-0.17287715 0.15343715 0.72900003
-0.17148857 0.15343715 0.72900003
-0.17056666 0.1538581 0.73100001
-0.16940571 0.15406859 0.73200005
-0.16847049 0.15448953 0.73400003
-0.16775525 0.15512097 0.73700005
-0.16702858 0.15575239 0.74000001
-0.16606668 0.15617335 0.74200004
-0.16531907 0.15680479 0.74500006
-0.16390002 0.15680479 0.74500006
-0.16248097 0.15680479 0.74500006
-0.1614943 0.15722571 0.74700004
-0.16028571 0.15743619 0.74800003
-0.15886095 0.15743619 0.74800003
-0.15827809 0.15827809 0.75200003
-0.15705428 0.15848857 0.75300002
-0.15603334 0.15890953 0.75500005
-0.15459524 0.15890953 0.75500005
-0.15336001 0.15912001 0.75600004
-0.1523219 0.15954095 0.75800002
-0.15187332 0.16059333 0.76300001
-0.15081429 0.16101429 0.76500005
-0.14974762 0.16143525 0.76700002
-0.14848 0.16164571 0.76800001
-0.14740001 0.16206668 0.77000004
-0.14631239 0.16248761 0.77200001
-0.14540476 0.16311905 0.77500004
-0.1443 0.16353999 0.77700001
-0.14282 0.16353999 0.77700001
-0.14170381 0.16396096 0.77900004
-0.14040001 0.16417143 0.78000003
-0.13998286 0.16543429 0.78600001
-0.13848571 0.16543429 0.78600001
-0.13751143 0.16606572 0.78900003
-0.13635334 0.16648667 0.79100001
-0.13552858 0.16732858 0.79500002
-0.13401428 0.16732858 0.79500002
-0.13283333 0.16774952 0.79700005
-0.13147999 0.16796 0.79800004
-0.13061143 0.1688019 0.80200005
-0.12940572 0.16922286 0.80400002
-0.12787428 0.16922286 0.80400002
-0.12665714 0.16964382 0.80600005
-0.12512191 0.16964382 0.80600005
-0.12358667 0.16964382 0.80600005
-0.12296 0.17090668 0.81200004
-0.12171239 0.17132762 0.81400001
0.01994 0.20984477 0.99700004
0.021904761 0.21047619 1
0.023809524 0.21047619 1
0.025714286 0.21047619 1
0.027701905 0.21110763 1.003
0.029700954 0.21173905 1.006
0.031679999 0.21216001 1.008
0.0337 0.21279144 1.011
0.035837144 0.2140543 1.0170001
0.037997141 0.21531714 1.023
0.04006286 0.21594857 1.026
0.042180955 0.2167905 1.0300001
0.044399999 0.21805334 1.036
0.046373334 0.21805334 1.036
0.048626669 0.2193162 1.0420001
0.050757147 0.21994764 1.0450001
0.052899051 0.22057906 1.0480001
0.055104762 0.22142096 1.052
0.057271428 0.2220524 1.0550001
0.059449527 0.22268383 1.0580001
0.061813332 0.22394666 1.064
0.06408 0.22478858 1.0680001
0.066300005 0.22542003 1.0710001
0.068531431 0.22605143 1.074
0.070840001 0.22689335 1.0780001
0.073096193 0.22752477 1.0810001
0.075641908 0.22899811 1.0880001
0.077928573 0.22962955 1.0910001
0.080006666 0.22962955 1.0910001
0.082385719 0.23047143 1.095
0.08501143 0.23194475 1.102
0.087110482 0.23194475 1.102
0.089452386 0.23257619 1.105
0.091888577 0.23341811 1.1090001
0.094340004 0.23426001 1.113
0.096720003 0.23489144 1.1160001
0.54551333 0.36643907 1.7410001
0.54599243 0.36454478 1.7320001
0.54929149 0.36454478 1.7320001
0.55259049 0.36454478 1.7320001
0.55300093 0.36265048 1.723
-0.23503335 0.1361362 0.64100003
-0.23417714 0.13634858 0.64200002
-0.23295429 0.13634858 0.64200002
-0.23173143 0.13634858 0.64200002
-0.23050858 0.13634858 0.64200002
-0.22928572 0.13634858 0.64200002
-0.22806285 0.13634858 0.64200002
-0.22684 0.13634858 0.64200002
-0.22561716 0.13634858 0.64200002
-0.22439429 0.13634858 0.64200002
-0.22386667 0.13677335 0.64400005
-0.22298571 0.13698572 0.64500004
-0.22175716 0.13698572 0.64500004
-0.22087049 0.13719809 0.64600003
-0.21998 0.13741048 0.64700001
-0.22010002 0.13826001 0.65100002
-0.21886 0.13826001 0.65100002
-0.21828859 0.13868478 0.65300006
-0.2180419 0.13932191 0.65600002
-0.21712285 0.13953428 0.65700001
-0.21620002 0.13974668 0.65800005
-0.2156 0.14017144 0.66000003
-0.21466762 0.14038381 0.66100001
-0.21373144 0.1405962 0.66200006
-0.2124705 0.1405962 0.66200006
-0.21152858 0.14080858 0.66300005
-0.21121714 0.14144571 0.66600001
-0.21026383 0.14165811 0.66700006
-0.20962001 0.14208287 0.66900003
-0.20896858 0.14250761 0.671
-0.20861904 0.14314476 0.67400002
-0.20733525 0.14314476 0.67400002
-0.2072743 0.14399429 0.67800003
-0.20628668 0.14420667 0.67900002
-0.20529523 0.14441904 0.68000001
-0.204 0.14441904 0.68000001
-0.20330097 0.14484382 0.68200004
-0.20200193 0.14484382 0.68200004
-0.20099716 0.14505619 0.68300003
-0.19998857 0.14526857 0.68400002
-0.19955714 0.14590572 0.68700004
-0.19882572 0.14633048 0.68900001
-0.19780001 0.14654286 0.69000006
-0.19648573 0.14654286 0.69000006
-0.19517145 0.14654286 0.69000006
-0.19470002 0.14718001 0.69300002
-0.19393811 0.14760478 0.69500005
-0.19316858 0.14802952 0.69700003
-0.19211619 0.14824191 0.69800001
-0.19078667 0.14824191 0.69800001
-0.19000001 0.14866666 0.70000005
-0.18866667 0.14866666 0.70000005
-0.18813619 0.14930381 0.70300001
-0.18732858 0.14972858 0.70500004
-0.18677714 0.15036571 0.708
-0.18542856 0.15036571 0.708
-0.18460001 0.15079048 0.71000004
-0.18350571 0.15100287 0.71100003
-0.18215142 0.15100287 0.71100003
-0.18130574 0.15142763 0.71300006
-0.18070477 0.15206476 0.71600002
-0.17959143 0.15227714 0.71700001
-0.17897144 0.1529143 0.72000003
-0.17760001 0.1529143 0.72000003
-0.17696287 0.15355143 0.72300005
-0.17607142 0.15397619 0.72500002
-0.17493144 0.15418856 0.72600001
-0.17426571 0.15482572 0.72900003
-0.17287715 0.15482572 0.72900003
-0.17148857 0.15482572 0.72900003
-0.17080002 0.15546286 0.73200005
-0.16986857 0.15588762 0.73400003
-0.16892953 0.15631241 0.73600006
-0.16775525 0.15652478 0.73700005
-0.16702858 0.15716191 0.74000001
-0.16606668 0.15758666 0.74200004
-0.16531907 0.15822382 0.74500006
-0.16390002 0.15822382 0.74500006
-0.16248097 0.15822382 0.74500006
-0.1614943 0.15864858 0.74700004
-0.16028571 0.15886095 0.74800003
-0.15886095 0.15886095 0.74800003
-0.15827809 0.15971048 0.75200003
-0.15705428 0.15992287 0.75300002
-0.15561999 0.15992287 0.75300002
-0.15459524 0.16034763 0.75500005
-0.15336001 0.16056001 0.75600004
-0.15292478 0.1616219 0.76100004
-0.15187332 0.16204667 0.76300001
-0.15081429 0.16247144 0.76500005
-0.14974762 0.16289619 0.76700002
-0.14848 0.16310857 0.76800001
-0.14740001 0.16353334 0.77000004
-0.14631239 0.1639581 0.77200001
-0.14540476 0.16459525 0.77500004
-0.1443 0.16501999 0.77700001
-0.14318763 0.16544478 0.77900004
-0.14188573 0.16565715 0.78000003
-0.14076002 0.16608192 0.78200006
-0.13998286 0.16693142 0.78600001
-0.13883811 0.16735621 0.78800005
-0.13751143 0.16756858 0.78900003
-0.13635334 0.16799334 0.79100001
-0.13518763 0.16841809 0.79300004
-0.13401428 0.16884285 0.79500002
-0.13283333 0.16926764 0.79700005
-0.13147999 0.16948001 0.79800004
-0.13028571 0.16990477 0.80000001
-0.12908381 0.17032953 0.80200005
-0.12787428 0.17075428 0.80400002
-0.12665714 0.17117906 0.80600005
-0.12512191 0.17117906 0.80600005
-0.12358667 0.17117906 0.80600005
-0.12296 0.17245333 0.81200004
-0.12171239 0.1728781 0.81400001
0.019880001 0.21110667 0.99400002
0.021839049 0.21174382 0.99700004
0.023738096 0.21174382 0.99700004
0.025714286 0.21238095 1
0.027619047 0.21238095 1
0.029700954 0.21365525 1.006
0.031679999 0.21407999 1.008
0.0337 0.21471715 1.011
0.035837144 0.21599144 1.0170001
0.037885718 0.2166286 1.0200001
0.04006286 0.21790285 1.026
0.042180955 0.2187524 1.0300001
0.044399999 0.22002666 1.036
0.046373334 0.22002666 1.036
0.048626669 0.22130096 1.0420001
0.050757147 0.2219381 1.0450001
0.052899051 0.22257526 1.0480001
0.055104762 0.22342476 1.052
0.057271428 0.22406192 1.0550001
0.059449527 0.22469907 1.0580001
0.061813332 0.22597334 1.064
0.06408 0.22682287 1.0680001
0.06648571 0.22809714 1.074
0.068531431 0.22809714 1.074
0.070840001 0.22894667 1.0780001
0.073096193 0.22958383 1.0810001
0.075641908 0.23107049 1.0880001
0.077928573 0.23170763 1.0910001
0.080006666 0.23170763 1.0910001
0.082385719 0.23255715 1.095
0.08501143 0.23404381 1.102
0.087347619 0.23468095 1.105
0.089776196 0.2355305 1.1090001
0.094594292 0.23701715 1.1160001
0.5488295 0.36975524 1.7410001
0.55214572 0.36975524 1.7410001
0.55259049 0.36784384 1.7320001
0.55588955 0.36784384 1.7320001
0.5591886 0.36784384 1.7320001
-0.23490669 0.13800001 0.64400005
-0.23368001 0.13800001 0.64400005
-0.23173143 0.13757142 0.64200002
-0.23050858 0.13757142 0.64200002
-0.22928572 0.13757142 0.64200002
-0.22806285 0.13757142 0.64200002
-0.22684 0.13757142 0.64200002
-0.22561716 0.13757142 0.64200002
-0.22439429 0.13757142 0.64200002
-0.22386667 0.13800001 0.64400005
-0.22298571 0.13821431 0.64500004
-0.22210096 0.13842857 0.64600003
-0.22121239 0.13864285 0.64700001
-0.21998 0.13864285 0.64700001
-0.21976192 0.13928573 0.65000004
-0.21886 0.13950001 0.65100002
-0.21795429 0.13971429 0.65200001
-0.2180419 0.14057143 0.65600002
-0.21712285 0.14078571 0.65700001
-0.21620002 0.14100002 0.65800005
-0.2156 0.14142857 0.66000003
-0.21466762 0.14164287 0.66100001
-0.21373144 0.14185715 0.66200006
-0.2124705 0.14185715 0.66200006
-0.21152858 0.14207143 0.66300005
-0.21121714 0.14271429 0.66600001
-0.21026383 0.14292859 0.66700006
-0.20993334 0.14357142 0.67000002
-0.20896858 0.14378572 0.671
-0.20861904 0.14442858 0.67400002
-0.20733525 0.14442858 0.67400002
-0.20666288 0.14485715 0.67600006
-0.20628668 0.1455 0.67900002
-0.20529523 0.14571428 0.68000001
-0.204 0.14571428 0.68000001
-0.20330097 0.14614287 0.68200004
-0.2022981 0.14635715 0.68300003
-0.20099716 0.14635715 0.68300003
-0.20057335 0.147 0.68600005
-0.19955714 0.14721429 0.68700004
-0.19882572 0.14764287 0.68900001
-0.19780001 0.14785716 0.69000006
-0.19677049 0.14807144 0.69100004
-0.1954543 0.14807144 0.69100004
-0.19470002 0.1485 0.69300002
-0.19338001 0.1485 0.69300002
-0.19261429 0.14892858 0.69500005
-0.19211619 0.14957143 0.69800001
-0.19078667 0.14957143 0.69800001
-0.19000001 0.15000001 0.70000005
-0.18947524 0.15064286 0.70300001
-0.18840383 0.15085715 0.70400006
-0.18786 0.1515 0.70700002
-0.18651333 0.1515 0.70700002
-0.18542856 0.15171428 0.708
-0.18407999 0.15171428 0.708
-0.18324763 0.15214287 0.71000004
-0.18215142 0.15235715 0.71100003
-0.18130574 0.15278573 0.71300006
-0.18070477 0.15342857 0.71600002
-0.18009239 0.15407144 0.71900004
-0.17897144 0.15428571 0.72000003
-0.17809334 0.1547143 0.72200006
-0.17696287 0.15492858 0.72300005
-0.17607142 0.15535714 0.72500002
-0.17493144 0.15557143 0.72600001
-0.17402668 0.156 0.72800004
-0.17335142 0.15664285 0.73100001
-0.17148857 0.1562143 0.72900003
-0.17080002 0.15685715 0.73200005
-0.16986857 0.15728572 0.73400003
-0.16892953 0.15771429 0.73600006
-0.16775525 0.15792859 0.73700005
-0.16702858 0.15857142 0.74000001
-0.16606668 0.15900001 0.74200004
-0.16531907 0.15964288 0.74500006
-0.16390002 0.15964288 0.74500006
-0.16291714 0.16007143 0.74700004
-0.16171049 0.16028571 0.74800003
-0.1607143 0.1607143 0.75000006
-0.15928572 0.1607143 0.75000006
-0.15827809 0.16114287 0.75200003
